1456,1459,1459,1463,1466,1473,1477,1480,1487,1491,1495,1498,1505,1509,1513,1513,1524,1528,1528,1532,1535,1539,1539,1543,1543,1543,1551,1551,1555,1555,1562,1566,1570,1574,1582,1586,1590,1599,1607,1607,1611,1619,1624,1624,1628,1628,1628,1628,1632,1632,1632,1632,1632,1632,1632,1632,1637,1637,1641,1641,1641,1641,1645,1645,1645,1645,1645,1650,1650,1650,1654,1658,1658,1658,1663,1667,1672,1672,1681,1686,1690,1690,1695,1690,1690,1690,1690,1695,1695,1695,1695,1699,1699,1704,1704,1704,1709,1709,1709,1709,1704,1704,1704,1699,1699,1699,1699,1699,0,0,0,0,0,1147,1149,1149,1149,1147,1151,1157,1164,1168,1175,1181,0,0,0,0,0,0,0,0,0,800,802,803,803,807,817,822,824,834,838,0,0,0,0,0,0,0,0,0,0,0,0,0,0,0,0,0,0,0,744,0,0,0,0,0,0,0,0,0,0,0,744,0,0,0,0,0,0,0,0,0,0,0,0,0,0,0,0,0,0,0,0,0,0,0,0,0,0,0,0,0,0,0,0,0,0,0,0,0,1757,1757,1757,1733,1699,1663,1628,1599,1570,1520,1509,1498,1491,1491,1487,1487,1487,1487,1487,1487,1487,1484,1487,1487,1491,1495,1502,1505,1509,1513,1520,0,0,0,0,0,0,0,0,0,0,1491,1487,1484,1480,1480,1480,1480,1477,1480,1480,1484,1484,1484,1491,1495,1502,1505,1513,1513,1513,1517,1517,1517,1517,1517,1517,1513,1513,1513,1513,1513,1509,1509,1509,1509,1509,1509,1509,1509,1502,1502,1502,1498,1498,1498,1495,1495,1498,1498,1498,1498,1498,1498,1502,1502,1502,1509,1513,1513,1517,1528,1535,1539,1547,1555,1558,1562
1453,1459,1459,1463,1466,1473,1473,1477,1487,1491,1495,1498,1505,1509,1513,1517,1524,1528,1532,1532,1535,1535,1539,1539,1539,1543,1543,1547,1551,1555,1562,1566,1570,1574,1582,1586,1590,1603,1607,1611,1615,1624,1624,1628,1628,1632,1632,1632,1632,1632,1632,1632,1632,1632,1632,1632,1632,1632,1637,1641,1641,1641,1641,1645,1645,1645,1645,1650,1650,1654,1654,1658,1658,1658,1663,1667,1672,1676,1681,1686,1690,1690,1695,1695,1695,1695,1695,1695,1695,1699,1699,1699,1704,1709,1709,1713,1713,1713,1713,1713,1709,1709,1709,1704,1704,1704,1699,1704,0,0,0,0,0,1151,1151,1153,1153,1153,1159,1164,1170,1177,1186,1197,0,0,0,0,0,0,0,0,0,0,0,802,803,809,0,812,0,0,0,0,0,0,0,0,0,0,0,0,0,0,0,0,0,0,0,0,0,0,0,0,0,0,0,0,0,0,0,0,0,0,0,0,0,0,0,0,0,0,0,0,0,0,0,0,0,0,0,0,0,0,0,0,0,0,0,0,0,0,1241,1241,1241,1241,1241,0,0,0,0,1757,1757,1757,1757,1733,1699,1667,1632,1607,1578,1528,1509,1498,1495,1495,1491,1491,1487,1487,1487,1487,1487,1487,1487,1491,1495,1495,1505,1505,1509,1513,1520,1524,0,0,0,0,0,0,0,1513,1505,1495,1491,1484,1480,1477,1477,1473,1473,1477,1477,1480,1480,1484,1491,1498,1498,1505,1513,1513,1513,1517,1517,1517,1517,1517,1517,1513,1513,1513,1509,1509,1509,1509,1509,1509,1509,1509,1509,1509,1505,1505,1502,1502,1502,1502,1502,1502,1502,1498,1498,1502,1498,1502,1505,1505,1505,1509,1513,1517,1520,1532,1539,1547,1551,1562,1562,1566
1453,1456,1459,1463,1463,1470,1473,1477,1487,1491,1495,1498,1505,1509,1513,1517,1524,1528,1532,1535,1535,1535,1535,1539,1539,1539,1539,1547,1547,1551,1558,1562,1566,1570,1582,1586,1590,1603,1607,1611,1615,1624,1628,1628,1628,1632,1632,1632,1632,1632,1632,1632,1632,1632,1632,1632,1632,1632,1632,1632,1632,1637,1637,1641,1645,1645,1645,1650,1650,1654,1654,1658,1658,1663,1667,1667,1672,1676,1686,1690,1690,1695,1699,1699,1695,1695,1695,1695,1695,1699,1699,1704,1704,1709,1713,1713,1718,1718,1718,1713,1713,1713,1713,1709,1709,1709,1709,1709,0,0,0,0,0,1155,1157,1159,1162,1159,1173,1177,1181,0,1197,1202,0,0,0,0,0,0,0,0,0,0,0,0,0,0,0,0,0,0,0,0,0,0,0,0,0,0,0,0,0,0,0,0,0,0,0,0,0,0,0,0,0,0,0,0,0,0,0,0,0,0,0,0,0,0,0,0,0,0,0,0,0,0,0,0,0,0,0,0,0,0,0,0,0,0,0,0,0,1243,1243,1241,1243,1241,1243,1243,0,0,0,1757,1757,1757,1757,1733,1709,1676,1641,1615,1586,1532,1513,1502,1495,1495,1495,1491,1491,1491,1491,1491,1491,1487,1487,1491,1495,1495,1505,1505,1513,1517,1520,1524,1520,1520,0,0,0,1520,1517,1509,1505,1495,1487,1484,1480,1473,1473,1470,1470,1473,1473,1477,1477,1480,1487,1491,1495,1502,1505,1505,1509,1509,1509,1509,1509,1509,1509,1509,1509,1509,1509,1509,1505,1505,1505,1509,1509,1509,1509,1509,1509,1509,1509,1509,1509,1505,1505,1505,1502,1502,1498,1502,1498,1502,1502,1502,1505,1509,1509,1517,1520,1535,1543,1551,1555,1570,1574,1574
1449,1456,1456,1459,1463,1470,1473,1480,1484,1491,1495,1498,1505,1509,1513,1517,1528,1532,1532,1535,1535,1535,1535,1535,1535,1535,1535,1539,1539,1543,1551,1555,1558,1566,1574,1582,1586,1595,1603,1607,1611,1619,1624,1628,1628,1632,1632,1632,1632,1632,1637,1632,1632,1632,1632,1628,1628,1628,1628,1628,1628,1632,1632,1641,1641,1645,1650,1654,1654,1654,1658,1663,1663,1663,1667,1672,1672,1676,1686,1690,1695,1695,1699,1699,1699,1699,1699,1699,1699,1704,1704,1704,1709,1713,1718,1718,1723,1723,1723,1723,1723,1723,1718,1713,1713,1713,1713,1713,0,0,0,0,0,1159,1162,1164,1164,1166,1181,1184,1191,0,0,1363,0,0,0,0,0,0,0,0,0,0,0,0,0,0,0,0,0,0,0,0,0,0,0,0,0,0,0,0,0,0,0,0,0,0,0,0,0,0,0,0,0,0,0,0,0,0,0,0,0,0,0,0,0,0,0,0,0,0,0,0,0,0,0,0,0,0,0,0,0,0,0,0,0,0,0,0,0,1241,1241,1243,1243,1243,1243,1243,1246,0,0,1757,1757,1757,1757,1737,1709,1681,1645,1619,1590,1535,1520,1505,1502,1498,1495,1495,1491,1491,1491,1491,1491,1487,1487,1491,1495,1498,1505,1509,1513,1517,1520,1520,1520,1520,1520,1520,1520,1517,1517,1509,1505,1498,1491,1487,1480,1477,1473,1473,1470,1473,1473,1477,1477,1480,1487,1491,1495,1495,1502,1502,1502,1502,1502,1502,1502,1502,1505,1505,1505,1505,1505,1505,1505,1505,1505,1509,1509,1509,1509,1509,1509,1509,1509,1509,1509,1509,1505,1505,1502,1502,1498,1498,1498,1498,1498,1502,1502,1505,1509,1513,1520,1535,1543,1551,1558,1570,1578,1578
1449,1453,1456,1459,1463,1470,1477,1480,1484,1495,1495,1498,1509,1513,1517,1520,1532,1535,1535,1539,1539,1539,1535,1535,1535,1535,1535,1539,1539,1539,1547,1551,1555,1558,1570,1578,1582,1590,1595,1603,1607,1615,1619,1624,1624,1628,1628,1632,1632,1637,1637,1632,1632,1632,1632,1628,1624,1624,1624,1624,1624,1628,1632,1637,1641,1641,1645,1650,1654,1658,1658,1663,1667,1667,1672,1672,1676,1681,1690,1690,1695,1699,1699,1699,1699,1699,1699,1699,1699,1704,1704,1709,1713,1718,1718,1723,1723,1728,1728,1728,1723,1723,1723,1718,1718,1718,1718,1718,0,0,0,0,0,1164,1164,1166,1168,1173,1188,1191,1195,0,0,1410,0,0,0,0,0,0,0,0,0,0,0,0,0,0,0,0,0,0,0,0,0,0,0,0,0,0,0,0,0,0,0,0,0,0,0,0,1798,0,0,0,0,0,0,0,0,0,0,0,0,0,0,0,0,0,0,0,0,0,0,0,0,0,0,1819,0,1808,0,0,0,0,0,0,0,0,0,0,0,1243,1243,1243,1243,1246,1246,1248,0,0,0,1742,1757,1757,1757,1742,1718,1686,1654,1624,1595,1535,1520,1505,1502,1498,1498,1495,1495,1491,1491,1491,1491,1491,1487,1491,1495,1498,1505,1509,1513,1517,1520,1520,1520,1520,1520,1520,1520,1517,1517,1509,1505,1498,1491,1487,1484,1477,1477,1473,1473,1473,1473,1477,1480,1484,1487,1491,1491,1495,1498,1498,1498,1498,1498,1498,1498,1498,1498,1502,1502,1502,1502,1502,1502,1502,1505,1505,1509,1509,1509,1509,1509,1509,1509,1509,1509,1509,1505,1502,1502,1498,1498,1495,1495,1498,1498,1498,1498,1502,1505,1509,1517,1535,1543,1551,1558,1574,1578,1582
1446,1449,1456,1459,1463,1473,1477,1484,1487,1495,1498,1502,1509,1513,1517,1520,1532,1535,1539,1543,1543,1543,1539,1535,1535,1535,1535,1535,1535,1539,1547,1551,1555,1558,1566,1574,1578,1590,1595,1599,1607,1615,1615,1619,1624,1628,1628,1628,1632,1637,1637,1637,1632,1632,1632,1624,1624,1619,1619,1619,1624,1624,1628,1637,1637,1641,1645,1650,1654,1658,1663,1667,1667,1667,1672,1676,1676,1681,1690,1695,1699,1699,1704,1704,1699,1699,1699,1699,1704,1704,1704,1709,1709,1718,1718,1723,1723,1728,1733,1733,1728,1728,1728,1723,1723,1723,1723,1723,0,0,0,0,0,0,1170,1170,1173,1175,1193,1197,1200,1209,0,0,1686,1681,1686,1709,1713,1718,1728,1747,1757,1767,1777,0,0,0,0,0,0,0,0,0,0,0,0,0,0,0,0,0,0,0,0,0,1782,1782,1793,1798,1798,1798,1803,0,0,0,0,0,0,0,0,0,0,0,0,0,0,0,0,0,0,0,0,0,0,0,0,1824,1824,1814,1808,1803,0,0,0,0,0,0,0,0,0,1243,1243,1243,1243,1246,1248,1248,1251,0,0,1695,1752,1757,1757,1742,1723,1690,1654,1628,1595,1539,1517,1505,1502,1502,1498,1495,1495,1491,1491,1491,1491,1491,1491,1495,1495,1498,1505,1509,1513,1517,1520,1520,1520,1520,1520,1520,1520,1517,1517,1509,1505,1498,1491,1487,1484,1477,1477,1473,1473,1473,1477,1477,1480,1484,1487,1491,1491,1495,1495,1495,1495,1495,1495,1491,1491,1495,1498,1498,1498,1498,1502,1502,1502,1502,1505,1505,1505,1509,1509,1509,1509,1509,1505,1505,1505,1505,1505,1502,1502,1495,1491,1491,1491,1491,1491,1491,1491,1491,1498,1502,1513,1532,1539,1551,1558,1574,1582,1586
1446,1449,1459,1463,1466,1473,1480,1487,1491,1498,1502,1505,1509,1513,1517,1520,1532,1535,1539,1543,1543,1543,1539,1539,1535,1535,1532,1535,1532,1535,1543,1547,1551,1555,1562,1570,1574,1578,1590,1595,1603,1611,1615,1615,1619,1628,1628,1628,1632,1637,1637,1637,1637,1632,1632,1624,1619,1619,1615,1615,1615,1619,1619,1628,1637,1641,1645,1650,1654,1658,1663,1667,1667,1672,1676,1681,1681,1686,1695,1699,1699,1699,1704,1704,1704,1704,1699,1699,1699,1704,1709,1709,1713,1718,1718,1723,1723,1733,1733,1733,1737,1733,1733,1733,1728,1728,1728,1728,0,0,0,0,0,0,1179,1179,1184,1186,1197,1202,1204,1216,0,1690,1695,1695,1699,1713,1718,1728,1733,1752,1757,1767,1777,1793,1798,1798,1798,1793,1788,0,0,0,0,0,1742,0,1737,0,0,1742,0,1762,1772,1777,1782,1788,1793,1798,1798,1803,1803,1803,0,0,0,0,0,0,0,0,0,0,0,0,0,0,0,0,0,0,0,0,1803,1824,1835,1830,1824,1819,1814,1808,1798,0,0,0,0,0,0,0,0,1243,1243,1243,1243,1243,1248,1248,1251,0,0,1681,1757,1757,1757,1747,1728,1690,1658,1628,1599,1539,1517,1505,1502,1498,1498,1495,1495,1491,1491,1491,1491,1491,1491,1495,1495,1498,1505,1509,1509,1513,1517,1520,1517,1517,1520,1517,1517,1517,1513,1509,1505,1498,1491,1487,1484,1477,1477,1473,1473,1473,1477,1480,1480,1484,1484,1487,1491,1491,1491,1491,1491,1491,1491,1491,1491,1491,1495,1498,1498,1502,1502,1502,1502,1505,1505,1505,1505,1509,1509,1505,1505,1505,1505,1505,1505,1502,1498,1498,1498,1491,1491,1491,1487,1487,1487,1484,1487,1487,1495,1502,1509,1532,1543,1551,1562,1582,1586,1590
1446,1449,1456,1463,1466,1477,1484,1487,1491,1498,1502,1505,1509,1513,1517,1520,1532,1535,1539,1547,1547,1547,1543,1539,1535,1535,1532,1532,1532,1532,1535,1539,1543,1547,1555,1558,1562,1562,1574,1582,1586,1599,1603,1607,1615,1624,1624,1628,1632,1637,1637,1637,1637,1637,1632,1628,1624,1624,1619,1619,1619,1619,1619,1628,1637,1641,1645,1654,1658,1663,1667,1672,1676,1681,1686,1686,1690,1695,1699,1704,1704,1709,1709,1709,1709,1704,1704,1709,1709,1709,1709,1713,1713,1718,1723,1723,1728,1733,1737,1737,1737,1737,1737,1733,1733,1728,1733,1733,0,0,0,0,0,0,1181,1181,1184,1188,1200,1202,1207,1214,0,1704,1709,1709,1713,1718,1728,1733,1737,1752,1762,1772,1777,1793,1798,1798,1793,1793,1782,1772,0,1762,1757,1747,1747,1742,1742,1737,1742,1747,1752,1757,1772,1777,1782,1788,1793,1798,1798,1803,1803,1803,1803,0,0,0,0,0,0,0,0,0,0,0,0,0,0,0,0,0,0,0,1777,1819,1830,1830,1830,1824,1814,1808,1803,1793,1793,0,0,0,0,0,0,1243,1243,1243,1243,1243,1251,1251,1253,1381,0,1645,1704,1752,1757,1747,1728,1695,1663,1632,1599,1539,1513,1505,1498,1495,1495,1495,1495,1491,1491,1491,1491,1491,1495,1495,1498,1502,1505,1509,1513,1513,1517,1517,1520,1520,1520,1517,1517,1517,1513,1509,1505,1498,1495,1491,1487,1480,1480,1480,1480,1480,1480,1484,1484,1484,1491,1487,1491,1491,1491,1491,1491,1491,1491,1487,1491,1491,1495,1498,1498,1498,1502,1502,1505,1505,1505,1505,1509,1509,1505,1505,1505,1502,1502,1502,1502,1498,1495,1495,1495,1487,1484,1484,1484,1480,1484,1480,1484,1484,1491,1498,1509,1532,1543,1555,1566,1582,1586,1590
1446,1449,1459,1466,1473,1484,1487,1495,1498,1502,1502,1505,1509,1513,1517,1520,1532,1539,1543,1547,1551,1551,1543,1539,1539,1535,1532,1532,1532,1532,1532,1535,1543,1543,1543,1547,1547,1551,1555,1558,1566,1582,1590,1599,1607,1619,1624,1624,1632,1637,1637,1637,1641,1641,1637,1632,1628,1624,1624,1619,1619,1619,1624,1624,1637,1641,1645,1658,1658,1667,1672,1676,1681,1686,1690,1690,1695,1699,1704,1709,1709,1709,1713,1709,1709,1709,1709,1709,1709,1713,1713,1718,1718,1723,1723,1728,1728,1733,1737,1737,1737,1737,1737,1737,1733,1733,1733,1733,1733,0,0,0,0,0,0,1184,1186,1188,1197,1200,1204,1209,0,1718,1718,1718,1718,1728,1733,1737,1742,1762,1767,1772,1782,1793,1798,1793,1788,1788,1782,1772,1767,1762,1757,1747,1747,1747,1742,1742,1742,1747,1752,1757,1767,1772,1777,1782,1788,1788,1788,1793,1793,1793,1793,0,0,0,0,0,0,0,0,0,0,0,0,0,0,0,0,1695,1723,1742,1757,1808,1830,1835,1835,1824,1819,1814,0,1798,1793,0,0,0,0,0,0,1241,1241,1243,1243,1243,1253,1253,1256,1372,0,1628,1695,1752,1757,1752,1733,1704,1672,0,1607,1543,1517,1509,1498,1495,1495,1495,1495,1491,1491,1491,1491,1491,1495,1498,1498,1502,1505,1509,1513,1513,1517,1520,1520,1520,1520,1520,1517,1517,1513,1509,1505,1498,1495,1491,1487,1484,1484,1480,1480,1480,1484,1484,1484,1484,1487,1487,1491,1491,1491,1487,1487,1487,1487,1487,1487,1491,1495,1495,1498,1498,1505,1505,1505,1505,1505,1505,1509,1505,1505,1505,1505,1502,1502,1502,1502,1495,1495,1491,1487,1484,1484,1480,1480,1480,1480,1477,1477,1480,1491,1498,1509,1532,1547,1558,1570,1586,1595,1595
1446,1453,1463,1470,1477,1487,1491,1495,1498,1502,1505,1505,1509,1513,1517,1520,1532,1539,1543,1551,1551,1551,1547,1543,1539,1539,1532,1532,1528,1532,1532,1535,1535,1535,1532,1532,1528,1524,1524,1528,1539,1551,1570,1582,1595,1611,1619,1624,1632,1637,1637,1637,1641,1641,1641,1632,1628,1624,1624,1624,1619,1624,1624,1628,1641,1641,1650,1658,1663,1667,1672,1681,1686,1686,1690,1695,1699,1699,1709,1709,1713,1713,1713,1713,1713,1713,1709,1709,1713,1713,1713,1718,1718,1723,1723,1728,1728,1737,1737,1737,1737,1737,1742,1737,1737,1733,1733,1733,1733,0,0,0,0,1177,1177,1179,1179,1184,1188,1191,1195,1200,1728,1728,1728,1728,1733,1737,1737,1742,1752,1762,1767,1777,1782,1793,1798,1793,1793,1788,1782,1772,1767,1762,1757,1752,1747,1747,1742,1737,1742,1742,1747,1752,1762,1767,1772,1777,1777,1782,1782,1782,1782,1782,1782,0,0,0,0,0,0,0,0,0,0,0,0,0,0,0,0,1681,1709,1728,1747,1803,1835,1841,1835,1835,1824,1819,0,0,1798,1793,0,0,0,0,0,1238,1241,1241,1241,1241,1251,1256,1256,0,0,1603,1672,1752,1757,1757,1737,1709,1676,0,1607,1543,1517,1509,1498,1495,1495,1495,1495,1491,1491,1495,1495,1495,1498,1498,1502,1505,1509,1509,1513,1517,1520,1520,1520,1520,1520,1520,1517,1513,1509,1509,1505,1498,1495,1491,1491,1484,1484,1484,1484,1484,1484,1487,1487,1487,1491,1491,1491,1491,1491,1487,1487,1487,1491,1491,1491,1491,1495,1495,1498,1502,1505,1505,1505,1509,1509,1509,1509,1505,1505,1505,1502,1502,1498,1495,1495,1491,1484,1484,1484,1480,1477,1477,1477,1473,1473,1473,1473,1477,1487,1498,1509,1535,1551,1562,1574,1590,1595,1599
1446,1453,1463,1470,1477,1487,1491,1495,1498,1502,1505,1505,1509,1513,1517,1520,1532,1539,1543,1551,1551,1555,1547,1547,1539,1539,1532,1532,1532,1528,1528,1528,1524,1517,1509,1505,1502,1491,1491,1495,1505,1520,1517,1535,1555,1590,1603,1615,1624,1632,1637,1637,1641,1641,1641,1632,1628,1628,1628,1624,1624,1624,1628,1632,1641,1645,1650,1663,1667,1672,1676,1686,1686,1690,1695,1699,1699,1704,1709,1713,1713,1718,1713,1718,1718,1713,1713,1713,1718,1718,1718,1723,1723,1728,1728,1728,1733,1737,1737,1737,1737,1742,1737,1737,1737,1737,1737,1733,1733,0,0,0,0,0,0,1173,1175,1175,1179,1181,1186,1188,1747,1742,1747,1747,1747,1752,1757,1757,1762,1772,1777,1782,1788,1793,1793,1793,1788,1782,1777,1772,1767,1762,1757,1752,1747,1747,1742,1737,1737,1737,1742,1742,1752,1757,1762,1762,1762,1762,1767,1762,1762,1757,1757,0,0,0,0,0,0,0,0,0,0,0,0,0,0,0,0,1615,1686,1704,1733,1798,1830,1841,1841,1835,1830,1819,0,0,0,0,0,0,0,0,0,1236,1238,1238,1238,1241,1251,1256,1258,1348,0,1590,1663,1757,1757,1757,1742,1709,1676,0,1611,1547,1520,1509,1498,1495,1495,1495,1495,1495,1495,1498,1498,1498,1502,1502,1505,1505,1509,1509,1513,1517,1520,1520,1520,1520,1517,1517,1517,1513,1509,1505,1505,1498,1495,1491,1491,1487,1487,1487,1487,1484,1487,1487,1487,1487,1491,1491,1491,1491,1491,1491,1491,1491,1495,1495,1495,1495,1505,1505,1505,1505,1505,1509,1509,1509,1509,1509,1509,1505,1505,1505,1502,1502,1498,1495,1491,1487,1484,1484,1484,1480,1477,1477,1477,1473,1473,1473,1473,1477,1487,1502,1513,1543,1558,1570,1582,1595,1599,1603
1449,1456,1466,1473,1477,1487,1491,1495,1498,1505,1505,1505,1509,1513,1517,1524,1532,1539,1547,1551,1555,1555,1551,1547,1543,1539,1524,1520,1513,1505,1491,1484,1477,1466,1446,1439,1432,1429,1423,1426,1436,1449,1484,1505,1528,1566,1586,1599,1615,1628,1632,1637,1637,1641,1641,1637,1632,1632,1628,1628,1628,1628,1632,1641,1645,1650,1654,1667,1672,1676,1681,1686,1690,1695,1699,1699,1704,1709,1713,1713,1718,1718,1723,1723,1723,1718,1723,1723,1718,1723,1723,1723,1723,1728,1728,1733,1733,1737,1737,1737,1737,1737,1737,1737,1737,1733,1733,1733,1733,0,0,0,0,0,1166,1168,1170,1173,1175,1177,1179,1181,1752,1752,1752,1752,1757,1762,1762,1762,1767,1772,1777,1777,1777,1782,1782,1782,1777,1772,1767,1762,1757,1757,1752,1742,1742,1737,1728,1723,1713,1713,1718,1723,1723,1728,1733,1742,1737,1737,1733,1733,1728,1728,1718,0,0,0,0,0,0,0,0,0,0,0,0,0,0,0,0,1570,1628,1654,1690,1772,1814,1835,1841,1841,1835,1824,1814,0,1793,0,1777,0,0,0,0,1233,1233,1236,1236,1238,1248,1253,1258,1331,0,0,1641,1747,1762,1762,1742,1713,1681,1650,1611,1547,1520,1513,1498,1495,1498,1495,1495,1498,1498,1498,1502,1502,1505,1505,1509,1509,1513,1513,1517,1517,1520,1520,1520,1517,1517,1517,1513,1509,1505,1505,1502,1495,1495,1491,1491,1487,1487,1487,1487,1487,1487,1487,1487,1487,1491,1495,1495,1498,1498,1502,1502,1502,1505,1505,1505,1509,1509,1509,1513,1509,1509,1513,1513,1513,1513,1509,1509,1509,1505,1505,1505,1498,1498,1495,1491,1487,1484,1484,1484,1480,1480,1477,1477,1473,1473,1473,1473,1477,1491,1505,1517,1547,1562,1574,1586,1599,1603,1607
1453,1456,1466,1473,1480,1487,1495,1498,1502,1505,1509,1509,1513,1517,1520,1524,1535,1539,1547,1555,1555,1555,1551,1547,1539,1532,1509,1502,1491,1480,1459,1453,1442,1432,1423,1406,1400,1394,1388,1388,1400,1413,1426,1470,1495,1520,1562,1582,1599,1619,1624,1628,1632,1637,1632,1632,1628,1628,1628,1628,1628,1628,1632,1637,1645,1654,1658,1667,1672,1676,1681,1690,1690,1695,1699,1699,1704,1709,1713,1718,1718,1723,1723,1728,1728,1723,1723,1723,1723,1723,1723,1723,1723,1728,1728,1728,1733,1733,1733,1737,1737,1737,1737,1733,1733,1733,1733,1728,1728,0,0,0,0,0,0,1164,1164,1164,1166,1168,1170,1173,1757,1757,1757,1757,1757,1762,1757,1762,1762,1752,1747,1742,1733,1737,1737,1737,1728,1728,1728,1723,1709,1704,1704,1709,1713,1713,1713,1718,1695,1695,1690,1690,1681,1676,1676,1681,1667,1667,1658,1663,1658,1699,1641,0,0,0,0,0,0,1081,1079,1075,1073,1069,1071,0,0,0,1517,1539,1570,1628,1663,1747,1798,1824,1835,1830,1824,1814,1803,1788,1777,1772,1737,0,0,0,0,1238,1238,1238,1238,1238,1248,1253,1261,1331,1406,0,1704,1737,1767,1762,1747,1718,1690,1650,1619,1558,1532,1517,1502,1498,1498,1498,1498,1498,1502,1502,1502,1505,1505,1509,1509,1509,1513,1513,1517,1517,1517,1520,1517,1517,1517,1513,1513,1505,1505,1502,1502,1495,1491,1491,1491,1487,1487,1487,1487,1484,1491,1491,1491,1491,1491,1495,1498,1498,1502,1502,1505,1505,1509,1509,1513,1513,1513,1517,1517,1517,1517,1513,1517,1513,1513,1509,1513,1505,1505,1505,1502,1498,1498,1495,1491,1491,1487,1484,1484,1480,1480,1480,1477,1473,1473,1473,1477,1477,1495,1505,1520,1551,1566,1578,1586,1603,1607,1607
1453,1459,1466,1473,1480,1491,1495,1498,1502,1509,1513,1513,1517,1520,1524,1528,1535,1539,1547,1555,1555,1555,1547,1539,1528,1517,1491,1477,1463,1453,1439,1419,1410,1403,0,1375,1366,1360,1357,1357,1366,1378,1391,1432,1459,1487,1539,1558,1578,1611,1615,1619,1624,1628,1628,1624,1624,1624,1624,1624,1628,1632,1632,1641,1650,1654,1658,1672,1676,1676,1681,1690,1690,1695,1699,1704,1704,1704,1713,1718,1723,1723,1728,1728,1733,1728,1728,1728,1723,1728,1728,1728,1723,1723,1723,1728,1728,1728,1728,1728,1728,1733,1728,1728,1728,1728,1728,1728,1728,0,0,0,0,0,0,1153,1155,1157,1159,1162,1164,1166,1757,1762,1762,1762,1757,1747,1742,1737,1718,1718,1704,1699,1695,1704,1704,1709,1699,1699,1704,1695,1681,1672,1667,1672,1672,1676,1686,1690,1667,1667,1658,1654,1637,1632,1624,1628,1628,1619,1611,1615,1611,0,0,1328,0,0,0,1086,1082,1081,1077,1075,1075,1071,1071,1071,0,0,1502,1520,1547,1603,1632,1672,1757,1788,1803,1803,1793,1788,1772,1747,1737,1709,1654,0,0,0,0,1248,1246,1243,1241,1238,0,0,1263,1334,0,0,1699,1733,1772,1762,1747,1718,1690,1654,1624,1558,1535,1517,1505,1498,1502,1502,1502,1502,1505,1505,1505,1505,1509,1509,1509,1509,1513,1513,1517,1517,1517,1517,1517,1517,1513,1509,1509,1505,1502,1502,1502,1495,1491,1491,1491,1487,1487,1487,1487,1487,1491,1491,1491,1495,1498,1498,1502,1502,1509,1509,1513,1513,1513,1513,1517,1517,1520,1520,1520,1517,1517,1520,1517,1517,1513,1513,1513,1509,1505,1505,1502,1498,1498,1495,1491,1491,1491,1487,1487,1484,1484,1480,1480,1477,1477,1477,1477,1480,1495,1509,1524,1555,1566,1578,1586,1603,1603,1603
1453,1459,1470,1473,1477,1491,1495,1498,1502,1509,1513,1517,1520,1520,1524,1528,1535,1539,1543,1547,1551,1551,1535,1528,1509,1498,1480,1449,1432,1423,1410,1391,0,1345,1337,1331,1323,1320,1317,1317,1325,1331,1340,1354,1400,1429,1487,1513,1539,1582,1595,1599,1603,1611,1611,1607,1611,1611,1615,1615,1624,1628,1632,1641,1654,1654,1658,1672,1676,1676,1681,1686,1690,1690,1699,1699,1699,1704,1713,1718,1723,1723,1733,1737,1737,1733,1733,1733,1728,1728,1728,1728,1723,1723,1723,1723,1723,1728,1728,1728,1728,1728,1728,1728,1723,1723,1728,1723,1723,0,0,0,0,0,0,0,1155,1155,1157,1159,1164,1168,1767,1762,1757,1757,1733,1718,1704,1695,1686,1672,1658,1650,1650,1650,1654,1650,1641,1637,1637,1628,1624,1611,1603,1607,1611,1615,1619,1624,1607,1603,1599,1590,1582,0,1570,1574,1570,0,0,0,1555,0,1446,0,0,0,0,1086,1081,1081,1079,1075,1075,1073,1071,1071,0,0,1487,1505,1528,1578,1607,1641,1718,1747,1762,1767,1757,1747,1723,1709,1699,1667,1615,0,0,0,0,1261,1256,1251,1243,1241,0,0,1263,1337,1403,0,0,1737,1782,1762,1752,1728,1695,1658,1628,1562,1539,1520,1509,1502,1502,1502,1502,1505,1505,1505,1505,1505,1509,1509,1509,1509,1513,1513,1513,1513,1517,1517,1513,1513,1509,1509,1509,1505,1502,1502,1502,1498,1495,1491,1491,1491,1491,1491,1487,1491,1495,1495,1495,1495,1502,1505,1509,1513,1520,1520,1520,1520,1532,1532,1535,1539,1539,1535,1535,1535,1535,1532,1528,1528,1524,1520,1520,1513,1509,1505,1505,1502,1498,1495,1495,1491,1491,1491,1491,1491,1487,1487,1487,1484,1484,1484,1487,1487,1505,1513,1528,1555,1562,1574,1582,1595,1599,1599
1453,1459,1466,1473,1477,1487,1495,1498,1502,1509,1513,1517,1520,1524,1528,1532,1535,1535,1535,1524,1517,1509,1498,1470,1453,1436,1449,1391,1375,1363,1351,1343,1325,1320,1314,1309,1306,1303,1303,1306,1309,1317,1323,1331,1372,1403,1432,1491,1520,1566,1582,1586,1590,1599,1599,1603,1603,1607,1611,1615,1624,1628,1632,1641,1654,1658,1663,1672,1676,1681,1681,1686,1690,1690,1695,1699,1699,1704,1713,1718,1723,1728,1733,1737,1742,1737,1737,1737,1728,1728,1728,1728,1723,1723,1723,1723,1723,1723,1723,1723,1723,1723,1723,1723,1723,1723,1723,1723,1709,0,0,0,0,0,0,1159,1159,1157,1157,1162,1166,1170,1184,1762,1752,1747,1723,1690,1672,1658,1650,1641,1628,1619,1615,1611,1607,1599,1595,1578,1578,1570,1566,1551,1547,0,0,1551,1555,0,1555,0,0,0,1528,1528,0,0,0,1528,0,1520,1517,0,0,0,0,0,1100,1086,1082,1082,1081,1077,1077,1075,1075,1073,1463,1459,1466,1473,1487,1524,1551,1578,1637,1663,1676,1676,1672,1663,1650,1619,1603,1619,1578,1513,0,0,1351,1274,1266,1258,1248,1243,1246,1253,1261,1309,1410,1566,1615,1737,1788,1767,1757,1728,1699,1663,1628,1566,1543,1520,1509,1502,1505,1502,1502,1505,1505,1505,1505,1505,1509,1509,1509,1509,1509,1509,1513,1513,1513,1513,1513,1513,1509,1509,1509,1505,1502,1502,1502,1498,1498,1498,1495,1495,1495,1495,1498,1498,1502,1505,1505,1513,1517,1520,1524,1528,1532,1535,1532,1539,1539,1539,1539,1547,1543,1543,1543,1539,1539,1539,1532,1532,1528,1524,1520,1513,1509,1509,1505,1502,1498,1498,1498,1495,1495,1495,1491,1491,1491,1487,1487,1487,1487,1491,1491,1495,1505,1517,1528,1551,1562,1570,1578,1590,1590,1590
1459,1463,1470,1473,1480,1487,1495,1498,1502,1509,1517,1520,1524,1528,1532,1532,1535,1532,1528,1509,1502,1491,1473,1442,1423,1406,1391,1375,1348,1334,1325,1317,1300,1298,1295,1292,1290,1292,1292,1295,1298,1306,1311,1320,1354,1381,1410,1470,1502,1528,1566,1578,1582,1590,1590,1590,1595,1599,1603,1611,1619,1628,1632,1641,1654,1663,1667,1672,1676,1681,1681,1686,1690,1690,1695,1699,1699,1704,1713,1718,1728,1728,1737,1737,1742,1737,1737,1737,1733,1728,1728,1723,1723,1718,1718,1718,1718,1723,1723,1723,1718,1718,1713,1718,1718,1713,1704,1699,1654,0,0,0,0,0,0,1170,1164,1159,1159,1164,1166,1173,1191,0,0,0,1292,1323,0,1551,1555,1555,1551,1547,1582,1574,1517,1509,1498,0,1480,1517,1509,1453,1439,1442,1442,1446,1449,1505,1502,0,1491,1466,1470,1477,1477,1484,1491,1491,1484,1480,1495,0,1351,0,0,0,1100,1086,1084,1082,1082,1079,1079,1079,1079,1075,0,1456,1456,1463,1466,1480,1517,1539,1562,1611,1628,1628,1628,0,0,1574,1558,1535,1513,1484,0,1366,1325,1298,1282,1268,1261,1246,1248,1256,1261,1309,1477,1645,1628,1747,1788,1772,1762,1737,1704,1667,1637,1570,1543,1524,1513,1505,1505,1505,1502,1505,1505,1505,1505,1505,1505,1509,1509,1509,1509,1509,1513,1513,1517,1517,1513,1513,1509,1509,1509,1505,1502,1502,1502,1502,1498,1498,1498,1498,1498,1498,1498,1502,1505,1509,1513,1513,1520,1524,1528,1528,1535,1535,1535,1535,1539,1543,1543,1547,1547,1547,1547,1543,1539,1539,1535,1532,1532,1528,1528,1517,1513,1513,1509,1502,1502,1498,1498,1498,1498,1498,1498,1495,1495,1495,1495,1491,1495,1498,1498,1498,1509,1520,1532,1547,1558,1566,1574,1582,1586,1590
1463,1466,1473,1477,1480,1491,1495,1498,1502,1513,1517,1520,1524,1528,1532,1535,1532,1528,1517,1495,1484,1466,1449,1432,0,1378,1360,1345,1320,1311,1303,1295,1290,1287,1287,1284,1282,1284,1287,1290,1292,1298,1303,1309,1340,1366,1394,1449,1480,1509,1555,1566,1570,1578,1582,1586,1586,1595,1599,1603,1619,1624,1632,1641,1658,1663,1667,1676,1676,1681,1681,1690,1690,1695,1695,1699,1699,1704,1713,1723,1728,1733,1737,1742,1742,1742,1742,1737,1733,1728,1728,1723,1718,1718,1713,1713,1713,1713,1713,1713,1709,1709,1709,1695,1672,1658,1632,1607,1578,1539,0,0,0,0,0,1181,1173,1166,1162,1164,1170,1179,1195,1204,1223,1261,1303,0,1470,1498,1505,1505,1502,0,0,1480,1466,1459,1449,1446,1439,1429,1426,1423,1416,1416,1416,1423,1423,1436,1442,1446,1449,1463,1466,1477,1477,1480,1484,1484,1473,1470,1466,0,0,0,0,1102,1098,1086,1086,1086,1086,1084,1082,1084,1082,1082,1456,1449,1453,1456,1459,1466,1491,1509,1528,1570,1582,1590,1582,1578,1566,1558,1528,1509,1491,0,0,1372,1337,1306,0,1271,1263,1248,1251,1253,1261,1317,1369,1615,1681,1747,1788,1777,1762,1742,1713,1672,0,1570,1547,1528,1517,1505,1505,1505,1502,1505,1505,1505,1505,1505,1505,1505,1509,1509,1509,1513,1513,1513,1517,1517,1517,1513,1513,1513,1509,1505,1505,1505,1505,1502,1502,1502,1502,1502,1502,1502,1505,1505,1509,1513,1513,1517,1520,1524,1528,1532,1532,1535,1535,1535,1539,1539,1543,1543,1547,1547,1547,1547,1543,1543,1539,1535,1535,1532,1528,1517,1517,1513,1509,1505,1502,1502,1502,1502,1502,1502,1502,1498,1498,1498,1498,1498,1498,1502,1502,1502,1513,1520,1528,1543,1551,1562,1570,1582,1586,1586
1466,1470,1473,1477,1484,1491,1495,1498,1502,1509,1517,1520,1524,1528,1532,1532,1528,1520,1509,1480,1463,1446,1429,1381,1343,1328,1317,1309,1300,1284,1284,1282,1279,1276,1274,1274,1274,1276,1279,1279,1282,1287,1292,1298,1303,1337,1357,1406,1432,1459,1517,1532,1543,1562,1566,1570,1574,1582,1590,1599,1615,1624,1632,1645,1658,1663,1672,1676,1681,1681,1686,1690,1690,1695,1699,1699,1704,1709,1718,1723,1733,1737,1742,1747,1747,1747,1742,1737,1733,1733,1723,1723,1718,1718,1713,1713,1713,1713,1709,1709,1704,1704,1695,1676,1645,1624,1595,0,0,0,0,0,1303,1243,0,1202,1188,1175,1173,1177,1181,1191,1209,1219,1233,1279,1309,0,0,1436,1456,1459,1459,0,0,0,0,1419,1416,1413,1410,1403,1400,1397,1397,1394,1397,1400,1403,1403,1419,1423,1432,1449,1459,1466,1473,1473,1484,1480,1477,1473,1473,0,0,0,0,1096,1094,1088,1090,1090,1088,1086,1086,1086,1084,1086,1453,1449,1449,1449,1453,1453,1470,1484,1498,1532,1543,1547,1547,1543,1535,1528,1505,1491,1473,1459,1432,1378,1345,1314,1298,1279,1268,1251,1253,1253,1258,1261,1328,1728,1737,1757,1793,1777,1762,1742,1713,1676,1637,1570,1547,1528,1517,1505,1505,1505,1502,1502,1502,1502,1502,1502,1502,1505,1505,1509,1509,1513,1513,1517,1517,1517,1517,1517,1517,1513,1513,1505,1509,1509,1509,1509,1509,1509,1505,1505,1505,1505,1509,1509,1509,1513,1517,1517,1520,1524,1524,1524,1528,1528,1532,1532,1535,1539,1539,1543,1543,1547,1547,1547,1547,1543,1543,1539,1535,1535,1532,1524,1520,1513,1513,1509,1505,1505,1505,1505,1505,1505,1505,1505,1505,1505,1505,1505,1505,1505,1509,1509,1517,1524,1528,1543,1551,1558,1570,1582,1590,1590
1466,1470,1477,1480,1484,1491,1495,1498,1502,1509,1513,1517,1520,1524,1524,1524,1517,1509,1495,1456,1432,1413,1388,1363,1343,1311,1303,1295,1290,1282,1279,1276,1274,1274,1271,1271,1268,1271,1274,1276,1279,1284,1287,1292,1298,1328,1348,1366,1410,1432,1487,1505,1520,1543,1555,1562,1570,1582,1595,1603,1619,1628,1641,1650,1667,1672,1676,1681,1686,1686,1686,1690,1695,1699,1699,1704,1709,1713,1723,1728,1733,1737,1742,1747,1747,1747,1742,1737,1733,1728,1728,1723,1718,1718,1713,1713,1709,1709,1709,1704,1699,1695,1681,1658,1637,0,0,0,0,1463,1416,1357,1303,0,1228,0,1195,1181,1179,1181,1188,1197,1219,1228,1246,1287,0,0,1381,1394,1419,1423,1426,0,0,0,0,1400,1400,1397,1397,1391,1391,1391,1391,1388,1391,1394,1397,1400,1413,1416,1426,1442,1453,1459,1463,1466,1470,1473,1466,0,0,0,0,0,0,0,1096,1092,1092,1092,1092,1092,1090,1088,1088,1088,1463,1449,1446,1446,1439,1436,1442,1449,1456,1466,1487,1491,1495,1495,1491,1487,1473,1466,1459,1446,1426,1413,1351,1325,1311,1284,1271,1253,1253,1256,1256,1258,1300,1681,1737,1767,1793,1777,1767,1752,1723,1686,1641,1566,1543,1524,1517,1505,1505,1505,1505,1502,1502,1502,1502,1502,1502,1502,1505,1505,1509,1513,1513,1517,1520,1520,1520,1520,1520,1520,1520,1517,1517,1517,1517,1517,1517,1517,1517,1513,1513,1513,1513,1513,1513,1513,1513,1517,1520,1520,1520,1524,1524,1528,1528,1528,1535,1535,1539,1543,1543,1543,1547,1551,1547,1547,1543,1543,1539,1535,1532,1524,1520,1517,1513,1509,1505,1505,1505,1505,1509,1509,1509,1509,1509,1509,1509,1509,1509,1513,1513,1513,1520,1524,1532,1535,1551,1558,1570,1586,1590,1595
1477,1477,1484,1487,1487,1495,1495,1498,1502,1509,1513,1513,1517,1520,1520,1520,1513,1502,1484,1466,1423,1400,1375,1348,1331,1300,1292,1284,1284,1279,1276,1274,1271,1268,1268,1266,1266,1266,1268,1271,1274,1282,1284,1290,1295,1320,1337,1351,1388,1406,1432,1477,1495,1509,1539,1555,1566,1586,1595,1603,1624,1637,1650,1658,1672,1676,1681,1686,1690,1690,1690,1695,1699,1699,1704,1709,1713,1718,1728,1733,1737,1737,1747,1747,1747,1742,1742,1737,1733,1728,1723,1718,1718,1713,1713,1713,1709,1704,1704,1699,1690,1681,1663,1637,0,0,1513,1484,1459,1439,1394,1348,1300,0,1236,1214,1200,1186,1184,1188,1195,1204,1226,1238,1253,1295,1320,1366,1385,1397,1419,1426,1429,1423,0,0,1416,1400,1397,1397,1397,1391,1391,1388,1388,1388,1391,1391,1394,1397,1406,0,1413,1429,1439,1442,1446,1449,1453,1453,1453,1456,1453,1453,1446,1449,0,0,0,0,1094,1100,1100,1098,1098,1096,1094,0,1466,1456,1449,1442,1439,1432,1436,1439,1449,1456,1473,1484,1487,1487,1484,1480,1470,1463,1459,1449,1432,1423,1369,1343,1317,1292,1279,1256,1256,1256,1256,1256,1284,1762,1782,1788,1793,1782,1777,1757,1737,1690,1641,1562,1543,1524,1517,1505,1505,1505,1505,1502,1502,1502,1502,1502,1502,1502,1502,1505,1509,1509,1513,1517,1520,1520,1524,1520,1524,1520,1520,1517,1520,1520,1520,1520,1520,1517,1517,1517,1517,1517,1517,1513,1517,1517,1513,1513,1513,1513,1517,1517,1520,1524,1524,1524,1532,1535,1535,1539,1547,1547,1547,1551,1551,1547,1547,1543,1539,1539,1535,1524,1520,1517,1513,1509,1505,1505,1505,1505,1509,1509,1509,1509,1509,1513,1513,1513,1513,1517,1517,1517,1520,1524,1532,1535,1551,1562,1574,1586,1595,1603
1480,1480,1487,1491,1491,1495,1495,1498,1502,1505,1509,1513,1513,1517,1517,1513,1505,1495,1477,1459,1416,1391,1369,1345,1328,1298,1290,1282,1279,1274,1271,1268,1266,1266,1263,1263,1261,1263,1266,1268,1271,1276,1282,1284,1290,1311,1323,1337,1366,1385,1403,1446,1463,1480,1520,1535,1555,1582,1599,1611,1632,1645,1654,1663,1681,1681,1686,1690,1690,1695,1695,1699,1704,1704,1709,1713,1718,1718,1728,1733,1737,1742,1747,1747,1752,1742,1742,1737,1733,1728,1723,1718,1713,1713,1709,1709,1704,1704,1699,1690,1672,1658,1628,1595,0,1517,1453,1429,1413,1400,1385,1328,1298,0,0,1221,1204,1193,1191,1195,1200,1209,1233,1248,1266,1309,1334,1381,1391,1403,1419,1426,1429,1429,0,0,1423,1413,1410,1406,1403,1397,1397,1397,1397,1397,1397,1397,1400,1403,1406,1410,1413,1429,1432,1436,1439,1442,1446,1446,1446,1442,1442,1442,1442,1446,0,0,0,0,0,1106,1104,1102,1102,1102,1100,0,1473,1463,1456,1446,1439,1426,1426,1429,1436,1446,1463,1473,1480,1484,1480,1473,1470,1463,1459,1453,1439,1406,1378,1351,1323,1295,1282,1256,1253,1253,1253,1258,1295,1562,1667,1788,1793,1788,1777,1762,1737,1699,1637,1555,0,1524,1517,1505,1505,1505,1505,1502,1498,1498,1498,1498,1502,1502,1502,1502,1509,1509,1513,1517,1520,1520,1524,1524,1524,1524,1524,1524,1524,1520,1520,1520,1520,1520,1520,1517,1517,1517,1513,1513,1513,1513,1513,1509,1505,1502,1502,1502,1502,1505,1505,1509,1520,1524,1528,1532,1535,1539,1543,1547,1551,1547,1547,1543,1539,1539,1535,1528,1520,1517,1517,1509,1505,1505,1505,1505,1505,1505,1505,1505,1509,1509,1509,1513,1517,1517,1517,1517,1520,1524,1528,1535,1555,1562,1574,1603,1611,1615
1480,1484,1487,1491,1491,1495,1495,1498,1498,1502,1505,1505,1502,1502,1502,1495,1487,1480,1470,1456,1419,1394,1369,1348,1331,1300,1290,1279,1274,1266,1263,1261,1261,1258,1256,1256,1256,1256,1258,1258,1263,1268,1271,1276,1279,1292,1300,1309,1328,1340,1351,1381,1400,1416,1463,1487,1517,1566,1595,1615,1641,1654,1663,1672,1686,1690,1695,1699,1699,1699,1704,1709,1709,1713,1713,1723,1723,1728,1733,1737,1742,1747,1747,1747,1752,1742,1737,1737,1733,1723,1723,1718,1713,1713,1709,1709,1704,1699,1695,1686,1667,1645,1615,0,0,1509,1439,1419,1406,1397,1391,1334,1300,1268,1243,1219,1202,1193,1193,1193,1197,1207,1233,1251,1268,1314,1340,1385,1397,1410,1423,1426,1429,1432,1432,1429,1426,1419,1416,1416,1413,1406,1406,1403,1403,1403,1403,1403,1403,1406,1410,1413,1416,1426,1429,1432,1436,1436,1439,1439,1439,1442,1439,1442,1436,1439,0,0,0,0,0,1112,1108,1106,1106,1106,1104,1484,1480,1470,1459,1453,1439,1426,1419,1423,1429,1436,1453,1463,1473,1477,1477,1473,1473,1466,1463,1459,1446,1413,1388,1357,1328,1300,1282,1256,1251,1251,1251,1256,1268,0,1767,1788,1788,1788,1782,0,0,0,0,0,0,1517,1513,1505,1505,1505,1505,1502,1498,1498,1498,1498,1498,1498,1498,1502,1502,1505,1509,1509,1517,1517,1520,1517,1524,1524,1524,1524,1524,1524,1524,1520,1524,1520,1520,1520,1517,1517,1513,1513,1509,1505,1505,1502,1498,1498,1495,1495,1495,1498,1498,1502,1513,1517,1520,1528,1535,1535,1539,1543,1551,1551,1551,1547,1547,1543,1539,1532,1524,1520,1517,1509,1509,1505,1502,1502,1502,1502,1502,1502,1505,1505,1505,1509,1509,1513,1513,1513,1520,1524,1532,1539,1558,1574,1590,1611,1619,1628
1480,1484,1487,1487,1487,1491,1491,1491,1491,1495,1495,1495,1495,1495,1491,1491,1484,1477,1466,1456,1426,1406,1385,1360,1340,1306,1292,1279,1271,1263,1261,1258,1256,1253,1253,1251,1251,1251,1253,1256,1258,1263,1266,1268,1274,1282,1287,1292,1309,1317,1325,1340,1366,1385,1406,1456,1487,1551,1582,1611,1654,1667,1676,1690,1690,1695,1695,1699,1704,1704,1709,1713,1718,1718,1718,1728,1728,1733,1737,1742,1742,1747,1747,1747,1747,1742,1737,1733,1733,1723,1718,1718,1713,1709,1709,1704,1699,1695,1695,1686,1658,1632,1599,1562,0,1495,1436,1419,1410,1400,1394,1337,0,0,1243,1216,1200,1191,1188,1191,1195,1204,1228,1246,1266,1311,1337,1381,1397,1406,1419,1426,1432,1429,1436,1429,1429,1423,1423,1423,1419,1416,1413,1413,1413,1410,1410,1410,1410,1410,1416,1413,1416,1423,1429,1429,1429,1432,1432,1436,1436,1436,1429,1432,1426,1429,0,1292,0,0,1118,1116,1112,1110,1110,1110,1110,1470,1487,1477,1470,1459,1449,1429,1423,1423,1426,1429,1442,1453,1463,1473,1477,1477,1473,1473,1466,1459,1449,1423,1394,1363,1331,1306,1284,1253,1248,1246,1243,1243,1253,1271,0,1793,1793,1793,0,0,0,0,0,0,0,1517,1513,1509,1505,1505,1505,1502,1502,1502,1502,1498,1498,1498,1498,1498,1502,1502,1505,1509,1513,1517,1517,1517,1520,1520,1524,1524,1524,1524,1524,1524,1520,1520,1520,1520,1517,1513,1513,1509,1505,1502,1502,1498,1495,1491,1491,1491,1495,1495,1498,1498,1509,1513,1517,1524,1532,1535,1539,1543,1551,1551,1551,1547,1547,1543,1539,1532,1524,1524,1517,1509,1505,1502,1498,1498,1498,1498,1498,1498,1498,1498,1502,1502,1505,1509,1509,1513,1520,1524,1532,1543,1566,1582,1599,1619,1628,1637
1480,1480,1480,1480,1484,1484,1484,1484,1487,1487,1487,1487,1487,1487,1484,1480,1473,1470,1463,1456,1429,1413,1391,1369,1345,1306,1292,1279,1268,1258,1256,1253,1253,1251,1248,1248,1248,1248,1251,1253,1253,1256,1261,1263,1268,1274,1276,1282,1284,1298,1303,1314,1340,1354,1372,1426,1456,1491,1562,1599,1654,1672,1686,1695,1695,1699,1699,1704,1709,1709,1713,1718,1718,1723,1728,1733,1733,1733,1737,1742,1747,1747,1747,1747,1747,1742,1737,1733,1728,1718,1718,1713,1713,1709,1704,1704,1699,1695,1690,1681,1663,1615,1578,1543,1513,1480,1429,1416,1406,1397,1391,1334,1300,1271,1243,1216,1197,1184,1184,1184,1184,1191,1219,1236,1256,1300,1328,1375,1394,1406,1423,1426,1432,1432,1432,1432,1429,1429,1426,1426,1426,1423,1423,1423,1423,1419,1419,1416,1416,1416,1413,1413,1413,1410,1410,1410,1410,1410,1413,1416,1419,1426,1426,1429,1426,1426,0,1282,0,0,1128,1124,1120,1120,1120,1120,1126,1463,1498,1491,1487,1477,1466,1442,1432,1426,1426,1429,1439,1449,1459,1470,1480,1484,1484,1480,1477,1470,1459,1442,1413,0,1348,1317,1290,1253,1246,1241,1241,1241,1246,1248,0,1798,1793,0,0,0,0,0,0,0,0,1517,1509,1509,1505,1505,1505,1505,1502,1502,1502,1498,1498,1498,1498,1498,1502,1502,1505,1509,1513,1513,1517,1517,1520,1524,1524,1524,1524,1524,1524,1520,1520,1520,1520,1517,1513,1513,1509,1505,1505,1502,1498,1491,1491,1491,1491,1487,1491,1491,1495,1498,1505,1509,1517,1520,1528,1535,1539,1543,1551,1551,1551,1551,1551,1543,1539,1532,1528,1520,1517,1509,1505,1502,1498,1495,1491,1491,1491,1491,1495,1495,1495,1498,1502,1505,1509,1509,1520,1528,1535,1547,1574,1586,1603,1624,1637,1641
1466,1463,1463,1463,1463,1463,1466,1470,1473,1477,1480,1480,1477,1477,1473,1473,1470,1466,1463,1456,1436,1423,1400,1375,1354,1309,1292,1276,1266,1253,1253,1251,1251,1248,1246,1246,1246,1246,1248,1248,1251,1253,1258,1261,1263,1268,1271,1271,1274,1282,1287,1292,1311,1325,1343,1357,1385,1419,1487,1524,1562,1628,1654,1667,1690,1699,1704,1709,1709,1713,1713,1718,1723,1728,1733,1733,1733,1737,1737,1742,1747,1747,1747,1747,1747,1742,1733,1728,1723,1718,1713,1713,1709,1699,1686,1676,1663,1632,1624,1607,1586,1566,1520,1498,1480,1459,1426,1413,1406,1397,1391,1369,0,0,1243,1216,1195,1179,1179,1177,1179,1181,1209,1226,1246,1292,1320,1372,1388,1400,1413,1429,1429,1432,1436,1436,1432,1432,1436,1439,1439,1439,1442,1442,1439,1439,1432,1429,1426,1419,1416,1416,1413,1410,1410,1406,1406,1403,1406,1410,1413,1419,1419,1419,1419,1419,0,1274,0,0,1132,1128,1124,1124,1124,1159,0,1466,1502,1495,1491,1487,1477,1453,1439,1432,1426,1429,1436,1446,1453,1463,1480,1487,1484,1484,1484,1480,1470,1449,1426,1391,1357,1323,1292,1251,1246,1238,1238,1238,1241,0,1798,1798,1798,0,0,0,0,0,0,0,0,0,1517,1509,1509,1505,1509,1505,1505,1502,1502,1502,1498,1498,1498,1498,1502,1502,1505,1509,1513,1513,1517,1520,1520,1524,1524,1524,1524,1520,1520,1520,1517,1517,1517,1513,1513,1513,1505,1502,1502,1498,1498,1491,1491,1491,1491,1487,1491,1491,1495,1498,1505,1509,1513,1520,1528,1535,1539,1539,1547,1551,1551,1551,1551,1547,1543,1535,1528,1520,1517,1505,1502,1498,1495,1487,1487,1487,1484,1484,1484,1484,1484,1487,1495,1498,1502,1509,1520,1528,1539,1551,1578,1599,1615,1632,1641,1645
1453,1423,1419,1416,1416,1416,1426,1432,1439,1446,1456,1459,1463,1466,1463,1463,1459,1456,1456,1453,1442,1429,1406,1381,1357,1311,1290,1268,1256,1251,1246,1243,1243,1241,1241,1241,1241,1241,1243,1243,1246,1248,1251,1253,1256,1261,1261,1263,1263,1268,1268,1271,1274,1287,1298,1311,1351,1378,1410,1477,1509,1578,1607,1632,1672,1690,1699,1709,1713,1718,1718,1728,1728,1728,1733,1733,1737,1737,1742,1742,1747,1747,1747,1747,1747,1742,1733,1728,1723,1713,1713,1709,1709,1695,1676,1654,1641,1603,1586,1570,1551,1535,1502,1480,1466,1449,1426,1416,1406,1400,1394,1340,1306,0,0,1214,1195,1175,1175,1173,1170,1175,1202,1219,1238,1287,1314,1343,1381,1397,1410,1426,1429,1432,1432,1432,1436,1436,1436,1439,1439,1442,1446,1449,1449,1446,1442,1442,1436,1429,1426,1419,1419,1413,1413,1410,1410,1406,1406,1410,1410,1419,1419,1416,1416,0,1340,0,0,0,1138,1132,1128,1128,1132,1181,0,1484,1502,1502,1498,1491,1484,1459,1449,1439,1429,1429,1432,1439,1446,1456,1477,1487,1491,1487,1487,1484,1473,1456,1436,1403,0,0,1300,1253,1243,1236,1236,1236,1238,1241,1798,1798,1793,1788,0,0,0,0,0,0,0,1547,1524,1513,1509,1509,1509,1505,1505,1505,1502,1502,1502,1498,1502,1502,1502,1502,1505,1505,1513,1513,1517,1517,1520,1520,1520,1520,1517,1517,1517,1517,1513,1513,1513,1513,1513,1505,1505,1502,1502,1498,1498,1498,1498,1498,1498,1495,1498,1498,1502,1502,1509,1513,1517,1520,1528,1532,1535,1539,1547,1547,1551,1551,1551,1547,1543,1535,1528,1524,1517,1505,1502,1498,1491,1487,1484,1484,1480,1480,1480,1484,1484,1484,1491,1495,1502,1509,1520,1532,1547,1574,1590,1603,1619,1637,1641,1645
1413,1403,1394,1391,1391,1394,1403,1410,1416,1423,1439,1442,1449,1456,1456,1456,1456,1453,1453,1453,1446,1436,1413,1388,1360,1311,1287,1266,1253,1246,1241,1241,1238,1236,1236,1236,1236,1238,1238,1241,1243,1246,1251,1251,1253,1256,1258,1258,1261,1266,1266,1268,1271,1279,1284,1295,1325,1348,1372,0,1463,1528,1558,1590,1641,1667,1686,1713,1713,1718,1723,1728,1728,1733,1733,1737,1737,1737,1737,1742,1747,1747,1747,1747,1747,1742,1733,1728,1723,1713,1709,1709,1704,1686,1667,1641,1615,0,0,0,0,0,1480,1463,1453,1442,1432,1413,1406,1397,1391,1343,1311,1279,0,1216,1195,1173,1170,1166,1164,1168,1195,1211,1231,1279,1306,1334,1375,1391,1403,1419,1426,1429,1432,1432,1432,1436,1439,1439,1442,1442,1449,1453,1453,1453,1449,1446,1439,1436,1432,1429,1423,1419,1416,1416,1413,1410,1410,1413,1416,1423,1423,1419,1416,1406,1340,0,0,0,1142,1136,1134,1132,1136,0,1426,1477,1505,1502,1502,1498,1491,1470,1456,1446,1436,1426,1426,1429,1432,1442,1466,1477,1484,1491,1491,1487,1473,1463,1446,1413,1378,1351,0,1256,1243,1236,1233,1233,1238,1241,1798,1793,1793,1788,1782,0,0,0,0,0,0,1562,1547,1517,1513,1509,1509,1509,1505,1505,1505,1505,1502,1502,1502,1505,1505,1509,1509,1509,1513,1517,1517,1517,1520,1520,1520,1520,1517,1517,1517,1513,1513,1513,1513,1513,1509,1505,1505,1502,1502,1502,1502,1502,1502,1502,1502,1502,1502,1505,1505,1505,1509,1513,1517,1520,1528,1532,1535,1539,1543,1543,1543,1547,1547,1543,1539,1535,1528,1524,1517,1505,1502,1498,1495,1487,1484,1484,1480,1480,1480,1480,1480,1484,1491,1495,1502,1509,1524,1535,1551,1578,1590,1607,1624,1637,1641,1641
0,1385,1372,1366,1369,1372,1375,1388,1394,1403,1419,1426,1436,1442,1449,1449,1453,1453,1449,1449,1446,1439,1416,1391,1360,1309,1284,1261,1248,1243,1238,1236,1236,1233,1233,1233,1233,1236,1238,1238,1243,1243,1248,1251,1253,1256,1258,1258,1261,1263,1266,1266,1268,1274,1279,1287,1306,1323,1343,1388,1416,1442,1505,1539,1566,1628,1654,1699,1709,1718,1723,1728,1733,1733,1733,1737,1737,1737,1737,1742,1747,1747,1747,1747,1747,1742,1733,1728,1723,1713,1709,1704,1709,1681,1650,0,0,0,1517,1502,1453,1449,1442,1426,1423,1419,1413,1403,1397,1394,1391,1345,1314,0,0,1219,1195,1170,1162,1157,1155,1157,1184,1200,1219,1263,1287,1317,1354,1369,1385,1410,1419,1426,1432,1436,1436,1439,1439,1442,1446,1449,1453,1456,1459,1456,1456,1456,1449,1442,1439,1436,1429,1429,1426,1432,1426,1423,1423,1423,1426,1426,1426,1426,1423,0,1337,0,0,0,1149,1144,1138,1166,1207,0,1439,1491,1505,1505,1505,1505,1502,1484,1470,1459,1446,1426,1423,1419,1426,1432,1453,1463,1473,1484,1487,1484,1477,1463,1449,1426,0,1357,0,1263,1251,1236,1238,1236,1238,1241,1798,1793,1793,1782,1777,0,1762,0,1667,0,1599,1574,1555,1520,1513,1509,1509,1509,1505,1505,1505,1505,1505,1505,1505,1509,1509,1509,1513,1513,1517,1517,1520,1517,1520,1520,1520,1517,1517,1517,1517,1513,1513,1513,1509,1513,1509,1509,1509,1505,1505,1505,1505,1505,1505,1509,1509,1509,1509,1509,1513,1509,1513,1517,1520,1520,1524,1528,1532,1532,1535,1535,1539,1539,1543,1539,1539,1532,1528,1524,1517,1509,1502,1498,1495,1487,1487,1484,1484,1480,1480,1480,1480,1484,1491,1495,1502,1513,1528,1539,1555,1582,1595,1611,1619,1632,1637,1641
1375,1363,1348,1345,1345,1348,1354,1366,1375,1385,1403,1413,1419,1426,1439,1442,1442,1449,1446,1449,1446,1442,1419,1388,0,1306,1279,1256,1246,1238,1233,1233,1233,1231,1231,1231,1231,1231,1236,1238,1241,1243,1248,1251,1253,1256,1258,1258,1261,1263,1266,1268,1268,1274,1276,1279,1284,1292,1300,1311,1340,1360,1381,1436,1463,1532,1566,1603,1658,1681,1699,1723,1728,1728,1728,1733,1737,1737,1737,1742,1747,1747,1747,1747,1747,1742,1733,1728,1723,1713,1709,1704,1704,1654,0,0,0,1484,1453,1429,1423,1423,1419,1406,1406,1406,1403,1400,1394,1391,1388,1354,1323,0,0,1228,1197,1170,1159,1155,1153,1155,1179,1195,1211,1253,1279,1303,1340,1357,1372,1400,1410,1416,1429,1432,1436,1439,1442,1446,1446,1449,1456,1459,1463,1466,1466,1466,1459,1459,1453,1453,1442,1442,1439,1436,1432,1429,1429,1429,1429,1429,1429,1426,1423,1394,1331,1274,0,1175,1149,1144,1140,1173,1221,1331,1400,1495,1509,1509,1509,1509,1505,1491,1480,1466,1453,1429,1419,1416,1416,1423,1439,1449,1463,1470,1480,1480,1470,1459,1449,1432,1397,0,0,0,1258,1241,1243,1243,1246,1248,1793,1793,1788,1782,1777,1772,1762,1747,1676,1641,1611,1582,1558,1524,1513,1509,1513,1509,1505,1505,1505,1505,1509,1509,1509,1509,1513,1513,1513,1517,1517,1520,1520,1520,1520,1520,1520,1517,1517,1513,1513,1513,1513,1509,1509,1509,1509,1509,1509,1505,1505,1505,1509,1509,1513,1513,1517,1517,1517,1520,1517,1517,1517,1517,1517,1517,1520,1520,1524,1524,1524,1524,1524,1524,1528,1528,1524,1524,1520,1520,1517,1509,1505,1498,1498,1491,1487,1487,1487,1484,1484,1484,1484,1484,1495,1498,1505,1513,1535,1547,1566,1590,1603,1615,1624,1632,1637,1641
1340,1325,1314,1303,1306,1311,1317,1331,1340,1348,1360,1381,1391,1400,1416,1423,1429,1439,1439,1442,1442,1439,1416,1385,0,1295,1268,1243,1233,1231,1226,1226,1226,1226,1223,1226,1226,1228,1233,1238,1241,1243,1251,1253,1253,1258,1261,1263,1263,1268,1271,1271,1274,1276,1279,1282,1284,1290,1292,1298,1317,1328,1343,1388,1413,1477,1517,1555,1624,1650,1676,1713,1723,1728,1728,1733,1733,1737,1737,1742,1747,1747,1752,1752,1752,1747,1737,1733,1728,1718,1713,1713,1709,1645,0,0,0,1453,1413,1400,1397,1400,1397,1394,1394,1397,1397,1394,1391,1388,1388,1354,1323,0,1261,1228,1197,1170,1159,1153,1151,1155,1179,1193,1211,1248,1271,1295,1328,1343,1357,1385,1397,1406,1423,1429,1432,1439,1442,1446,1446,1449,1456,1463,1466,1473,1470,1470,1466,1466,1459,1456,1453,1449,1446,1446,1439,1439,1436,1436,1436,1432,1432,1429,1423,1381,0,0,0,1175,1151,1147,1142,1188,1238,1354,1406,1495,1509,1509,1509,1509,1509,1498,1487,1473,1459,1432,0,1413,1406,1410,1419,1429,1439,1453,1463,1466,1456,1446,1439,1423,1391,1351,0,1282,1263,1251,1251,1251,1251,1256,1263,1788,1777,1777,1772,1767,1762,1752,1690,1654,1619,1595,1566,1528,1513,1509,1509,1509,1505,1505,1505,1509,1509,1509,1509,1509,1513,1513,1517,1517,1520,1520,1520,1520,1517,1517,1517,1517,1513,1513,1513,1513,1513,1509,1509,1509,1513,1513,1513,1513,1517,1517,1520,1520,1524,1528,1532,1532,1535,1532,1532,1528,1524,1524,1520,1520,1520,1520,1524,1524,1524,1520,1520,1520,1524,1520,1520,1520,1520,1517,1517,1509,1505,1505,1502,1498,1498,1498,1495,1495,1495,1495,1495,1498,1502,1509,1517,1524,1543,1558,1574,1599,1607,1619,1628,1632,1637,1641
1325,1314,1303,1292,1295,1298,1303,1309,1328,1337,1348,1369,1378,1388,1406,1413,1419,1432,1436,1436,1439,1436,1410,1378,0,1290,1263,1236,1228,1228,1221,1223,1223,1221,1221,1223,1226,1226,1233,1236,1241,1246,1251,1256,1256,1261,1261,1263,1266,1271,1274,1276,1279,1284,1284,1287,1290,1292,1292,1295,1306,1314,1325,1357,1378,1403,0,1505,1547,1619,1654,1704,1723,1723,1728,1733,1733,1737,1742,1742,1747,1747,1752,1757,1752,1747,1742,1737,1733,1723,1718,1713,1709,1637,0,0,0,1432,1400,1394,1397,1400,1397,1394,1394,1397,1397,1394,1394,1391,1391,1357,1325,0,1263,1226,1195,1164,1157,1153,1151,1153,1179,1193,1209,1246,1266,1287,1317,1328,1343,1369,1385,1394,1406,1423,1429,1436,1442,1446,1449,1449,1459,1463,1466,1473,1473,1473,1473,1470,1466,1463,1459,1456,1453,1453,1446,1442,1442,1442,1439,1436,1436,1436,1410,1360,0,1256,0,1173,1151,1147,1144,1202,1246,1357,1426,1502,1509,1509,1513,1513,1509,1502,1491,1484,1466,1436,1419,1413,1403,1397,1391,1394,1403,1410,1416,1416,1413,1397,1388,1375,1357,1334,0,1279,1274,1263,1263,1263,0,0,0,0,1777,1772,1772,1767,1762,1747,1704,1672,1641,1611,1582,1532,1517,1513,1509,1509,1505,1505,1505,1505,1509,1509,1509,1509,1513,1513,1513,1513,1517,1517,1517,1517,1517,1517,1517,1517,1513,1513,1513,1513,1513,1513,1513,1513,1517,1517,1517,1517,1520,1524,1524,1524,1532,1532,1535,1539,1535,1535,1535,1532,1528,1528,1524,1524,1520,1520,1520,1520,1520,1520,1520,1517,1517,1520,1520,1517,1517,1517,1513,1509,1509,1505,1505,1502,1502,1502,1502,1502,1498,1502,1502,1502,1509,1517,1524,1528,1551,1562,1578,1603,1611,1624,1628,1637,1637,1637
1323,1311,1300,1290,1290,1292,1298,1300,1317,1328,1337,1360,1372,1378,1397,1406,1413,1423,1426,1429,1429,1426,1400,1369,0,0,1253,1231,1226,1223,1219,1219,1219,1219,1219,1221,1223,1223,1231,1236,1241,1246,1253,1256,1258,1258,1263,1266,1268,1274,1276,1279,1282,1287,1290,1292,1295,1298,1298,1300,1306,1311,1317,1340,1357,1375,1429,1463,1543,1582,1619,1690,1713,1728,1728,1733,1737,1737,1742,1747,1752,1752,1757,1757,1757,1752,1747,1737,1733,1723,1718,1718,1713,1699,0,0,1477,1429,1394,1394,1397,1397,1397,1391,1391,1391,1391,1391,1391,1388,1388,1354,1323,1295,1261,1226,1193,1164,1153,1151,1149,1153,1162,1191,1204,1236,1253,1271,1292,1300,1314,1325,1351,1366,1381,1406,1416,1426,1439,1442,1446,1449,1459,1463,1466,1473,1477,1477,1477,1477,1473,1470,1466,1466,1466,1463,1456,1456,1453,1456,1449,1446,1442,1442,1406,1351,0,0,0,1170,1151,1149,1144,1226,0,1375,1442,1509,1509,1513,1517,1517,1517,1509,1505,1498,1484,1449,1429,1413,1403,1394,1378,1378,1381,1388,1394,1394,1388,1381,1366,1357,1343,1325,0,1282,1274,1266,1266,1266,1268,1282,0,1595,1747,1762,1767,1767,1762,1747,1709,1676,1645,1619,1590,1535,1520,1509,1505,1505,1502,1502,1505,1505,1505,1505,1509,1509,1513,1513,1513,1513,1513,1513,1513,1513,1513,1513,1513,1513,1513,1513,1513,1513,1513,1517,1517,1517,1517,1517,1517,1517,1520,1524,1528,1528,1532,1535,1535,1539,1539,1539,1539,1535,1532,1532,1528,1520,1520,1520,1520,1517,1517,1517,1517,1513,1517,1513,1513,1513,1513,1513,1513,1513,1509,1509,1509,1509,1509,1505,1505,1505,1505,1509,1509,1509,1513,1520,1528,1535,1558,1570,1586,1607,1615,1624,1628,1637,1641,1637
1320,1309,1298,1284,1284,1287,1290,1295,1311,1320,1328,1351,1360,1369,1388,1397,1403,1410,1416,1419,1419,1413,1388,1360,1331,1300,1251,1228,1223,1221,1216,1216,1216,1216,1216,1216,1219,1221,1226,1233,1238,1243,1253,1256,1258,1261,1266,1266,1268,1276,1279,1282,1287,1295,1298,1300,1306,1306,1306,1309,1311,1314,1320,1331,1340,1348,1360,1400,1426,1547,1586,1595,1676,1699,1713,1733,1737,1742,1747,1752,1752,1757,1757,1757,1762,1757,1752,1747,1742,1733,1728,1728,1723,1641,0,0,0,1432,1397,1397,1397,1397,1394,1388,1388,1388,1388,1388,1388,1388,1385,1354,1323,0,0,1228,1195,1166,1153,1149,1149,1153,1159,1186,1202,1216,1246,1263,1274,1290,1298,1309,1334,1348,1363,1391,1406,1416,1432,1442,1446,1449,1459,1466,1470,1477,1477,1480,1480,1477,1477,1473,1470,1470,1470,1466,1463,1459,1459,1459,1456,1453,1449,1449,1446,0,0,0,1186,1164,1149,1149,1144,1231,0,1385,1449,1513,1513,1517,1517,1517,1517,1513,1509,1505,1491,1456,1436,1419,1403,1391,1372,1366,1366,1369,1372,1369,1366,1357,1343,1337,1323,0,1298,1279,1274,1268,1268,1268,1279,1284,1360,1586,1723,1747,1767,1767,1762,1747,1709,1681,1650,1619,1590,1539,1520,1513,1509,1505,1502,1502,1502,1505,1505,1505,1505,1505,1509,1509,1509,1509,1509,1513,1513,1509,1509,1509,1513,1513,1509,1509,1513,1513,1513,1513,1513,1517,1520,1520,1520,1520,1524,1524,1528,1528,1532,1532,1539,1539,1543,1543,1539,1535,1535,1532,1528,1524,1520,1520,1517,1517,1513,1513,1509,1505,1505,1505,1505,1502,1505,1505,1505,1509,1509,1509,1509,1509,1513,1513,1509,1509,1513,1513,1513,1517,1520,1524,1532,1547,1566,1582,1595,1615,1628,1632,1637,1641,1641,1637
1320,1306,1295,1282,1279,1282,1284,1287,1303,1311,1320,1340,1348,1357,1372,1378,1385,1391,1400,1400,1400,1391,1369,1345,1320,0,1248,1228,1221,1216,1214,1211,1214,1214,1214,1216,1219,1221,1223,1231,1236,1241,1251,1256,1258,1261,1266,1268,1271,1279,1284,1287,1292,1303,1311,1314,1323,1328,1328,1331,1334,1337,1337,1340,1345,1348,1357,1385,1406,1432,0,1551,1641,1672,1695,1728,1737,1747,1752,1757,1762,1762,1767,1767,1767,1762,1757,1752,1747,1737,1728,1728,1728,1645,0,0,0,1432,1397,1397,1397,1397,1394,1388,1388,1388,1388,1388,1388,1388,1385,1357,1323,0,0,1228,1195,0,1151,1147,1147,1149,1157,1184,1197,1211,1241,1256,1266,1279,1287,1295,1320,1334,1348,1378,1394,1406,1429,1436,1442,1449,1459,1463,1470,1477,1477,1480,1480,1477,1477,1473,1473,1473,1473,1470,1466,1463,1463,1459,1456,1453,1449,1449,1446,0,0,0,1179,1162,1151,1151,1147,1236,0,1397,1505,1513,1517,1517,1520,1520,1520,1517,1513,1509,1498,1466,1442,1426,1410,1397,1369,1357,1354,1354,1328,1325,1323,1314,1311,1298,1295,1287,1282,1271,1268,1268,1268,1271,1290,1323,1369,1547,1699,1742,1762,1762,1757,1747,1713,1681,1650,1624,1595,1535,1520,1513,1505,1505,1502,1502,1502,1502,1502,1502,1502,1502,1505,1502,1502,1502,1502,1502,1502,1498,1502,1502,1502,1505,1505,1505,1509,1509,1513,1513,1513,1513,1517,1517,1520,1520,1520,1524,1520,1524,1532,1532,1535,1535,1539,1543,1539,1539,1535,1532,1532,1524,1524,1520,1520,1517,1517,1513,1509,1505,1502,1502,1502,1502,1502,1502,1502,1505,1509,1509,1513,1513,1517,1517,1517,1517,1520,1520,1524,1520,1528,1532,1539,1547,1570,1586,1599,1624,1628,1637,1641,1641,1641,1637
1320,1306,1295,1279,1276,1276,1279,1284,1298,1303,1314,1334,1343,1348,1366,1372,1375,1381,1391,1391,1394,1381,1360,1340,0,1290,1248,1231,1221,1216,1214,1211,1211,1211,1211,1214,1216,1219,1221,1228,1233,1238,1248,1253,1256,1258,1263,1266,1271,1279,1284,1290,1292,1306,1314,1320,1331,1337,1340,1343,1348,1348,1351,1354,1354,1357,1363,1381,1397,1416,0,1558,1603,1637,1663,1709,1723,1737,1757,1762,1762,1767,1767,1767,1767,1767,1762,1757,1752,1742,1737,1733,1733,1650,0,0,0,1432,1397,1397,1397,1397,1394,1388,1388,1385,1388,1385,1385,1385,1381,1354,1320,0,0,1226,1193,1164,1149,1144,1144,1147,1153,1179,1193,1207,1236,1251,1261,1271,1276,1284,1303,1317,1334,1363,1378,1391,1406,1419,1429,1439,1456,1463,1470,1477,1477,1480,1480,1477,1477,1473,1473,1477,1473,1470,1466,1463,1463,1459,1456,1453,1453,1453,1436,0,0,0,1159,1155,1149,1149,1149,1238,0,1406,1513,1513,1517,1517,1520,1520,1520,1520,1517,1509,1502,1473,1453,1432,0,1394,1351,1334,1323,1317,1311,1306,1300,1295,1290,1284,1279,1276,1274,1268,1268,1263,1266,1268,1287,1323,1429,1532,1686,1737,1757,1757,1752,1742,1709,1681,1654,1624,1595,1543,1524,1517,1509,1505,1502,1502,1505,1505,1505,1502,1502,1502,1505,1505,1502,1502,1502,1502,1498,1498,1495,1498,1502,1505,1505,1505,1509,1509,1513,1509,1513,1513,1517,1517,1517,1517,1517,1520,1520,1520,1528,1532,1535,1535,1535,1539,1539,1535,1532,1532,1528,1524,1524,1520,1520,1520,1517,1513,1509,1505,1502,1502,1502,1498,1498,1502,1502,1505,1509,1513,1513,1517,1517,1517,1517,1520,1520,1520,1524,1524,1528,1532,1539,1547,1570,1586,1599,1624,1632,1637,1641,1641,1637,1632
1320,1306,1295,1279,1274,1274,1276,1279,1292,1300,1306,1325,1334,1343,1354,1363,1369,1375,1378,1381,1381,1369,1351,1331,1311,1290,1251,1231,1221,1216,1211,1211,1211,1211,1211,1214,1216,1216,1219,1228,1231,1238,1246,1251,1253,1258,1263,1266,1268,1276,1282,1287,1292,1306,1317,1323,1340,1343,1351,1360,1363,1363,1366,1366,1369,1369,1372,1385,1397,1410,1456,0,1562,1595,1632,1681,1704,1723,1752,1762,1762,1767,1772,1772,1772,1767,1762,1757,1757,1742,1737,1737,1733,1654,0,0,0,1439,1397,1397,1397,1397,1394,1388,1388,1385,1388,1385,1385,1381,1375,1345,1311,1274,0,1216,1186,1162,1144,1140,1142,1144,1149,1173,1186,1200,1226,1238,1251,1258,1261,1266,1282,1290,1303,1317,1348,1363,1378,1410,1423,1432,1453,1463,1470,1473,1480,1477,1480,1477,1477,1477,1477,1477,1473,1473,1466,1463,1463,1459,1453,1453,1453,1453,1429,0,0,0,1153,1153,1153,1153,1153,0,0,1426,1513,1517,1517,1517,1520,1524,1524,1524,1520,1513,1505,1480,1459,1439,1416,0,1343,1323,1309,1298,1292,1282,1279,1276,1274,1268,1268,1266,1266,1263,1263,1263,1266,1266,1282,1314,1360,1484,1672,1733,1747,1747,1742,1737,1704,1681,1654,1624,1599,1547,1528,1520,1509,1509,1505,1505,1505,1509,1505,1505,1505,1509,1509,1509,1505,1505,1502,1498,1498,1498,1495,1498,1502,1505,1505,1509,1509,1513,1513,1513,1513,1513,1517,1517,1517,1517,1517,1517,1520,1520,1524,1528,1528,1532,1535,1535,1535,1532,1532,1532,1528,1524,1524,1524,1520,1520,1520,1517,1513,1505,1505,1505,1502,1498,1498,1498,1498,1502,1509,1509,1513,1517,1517,1517,1517,1520,1524,1520,1524,1520,1524,1528,1535,1547,1570,1582,1595,1619,1624,1628,1628,1628,1624,1619
1323,1309,1298,1279,1274,1271,1274,1276,1284,1292,1300,1320,1328,1337,1345,1357,1363,1366,1372,1372,1369,1345,1328,1311,1295,1282,1246,1231,1219,1216,1209,1209,1209,1209,1209,1211,1211,1214,1216,1221,1226,1228,1238,1243,1248,1251,1256,1258,1263,1271,1276,1282,1287,1306,1317,1328,1345,1351,1360,1369,1372,1375,1378,1381,1381,1385,1385,1394,1397,1410,1436,1449,1466,1513,1539,1570,1632,1658,1690,1742,1757,1767,1772,1772,1772,1772,1767,1762,1757,1747,1742,1737,1737,1667,0,0,0,1446,1400,1400,1400,1397,1394,1391,1388,1388,1388,1385,1381,1381,1372,1363,1303,1266,0,1214,1184,1162,1144,1138,1140,1142,1147,1170,1184,1197,1221,1233,1243,1253,1256,1258,1263,1282,1292,1306,1334,1351,1366,1400,1419,1429,1453,1463,1470,1473,1480,1477,1477,1477,1477,1477,1477,1477,1477,1473,1463,1463,1459,1456,1453,1449,1449,1449,1419,0,0,0,1155,1155,1155,1157,1155,0,0,1413,1505,1517,1517,1520,1524,1524,1524,1524,1520,1517,1509,1477,1453,1429,1406,1378,1354,1309,1295,1287,1282,1274,1268,1268,1266,1261,1263,1261,1261,1261,1261,1261,1263,1263,1274,1303,1348,1615,1686,1723,1742,1742,1737,1728,1699,1672,1650,1624,1599,1551,1532,1520,1509,1509,1505,1509,1509,1509,1509,1509,1513,1509,1513,1513,1509,1509,1505,1505,1502,1502,1498,1502,1505,1509,1513,1513,1513,1517,1517,1513,1513,1513,1513,1517,1517,1517,1517,1513,1513,1513,1517,1517,1520,1520,1520,1520,1524,1524,1524,1524,1524,1524,1524,1524,1520,1520,1520,1520,1517,1509,1505,1502,1498,1491,1491,1487,1491,1498,1502,1502,1509,1509,1513,1517,1517,1517,1517,1520,1520,1520,1524,1528,1532,1543,1562,1574,1590,1615,1619,1619,1619,1619,1615,1611
1325,1311,1300,1279,1274,1268,1268,1268,1274,1279,1284,1290,1309,1317,1328,1340,1345,1345,1348,1345,1345,1328,1317,1300,1287,0,1243,1231,1219,1216,1209,1209,1209,1209,1209,1209,1209,1211,1214,1219,1221,1226,1233,1238,1243,1248,1253,1256,1258,1266,1271,1276,1284,1300,1314,1325,1348,1360,1369,1388,1394,1400,1403,1410,1413,1413,1416,1419,1419,1423,1432,1442,1449,1477,1498,1520,1578,1611,1645,1718,1742,1757,1772,1772,1772,1772,1767,1762,1757,1747,1742,1737,1737,1667,0,0,0,1449,1400,1400,1400,1397,1397,1391,1391,1388,1388,1385,1385,1385,1372,1360,1295,1258,1236,1209,1181,1164,1142,1138,1140,1142,1144,1166,1179,1193,1216,1228,1241,1248,1251,1253,1256,1268,1282,1292,1323,1340,1354,1394,1413,1426,1453,1463,1470,1477,1480,1480,1477,1477,1477,1477,1477,1477,1473,1470,1463,1459,1456,1456,1449,1446,1446,1446,0,0,0,1186,1157,1157,1159,1159,1159,0,0,1397,1498,1517,1517,1520,1524,1524,1524,1513,1502,1495,1484,1446,1423,1366,1351,1331,1317,1287,1276,1271,1266,1261,1258,1258,1258,1256,1256,1253,1253,1253,1253,1256,1256,1256,1261,1266,1268,1290,1650,1650,1667,1704,1713,1704,1681,1658,1641,1619,1595,1551,1535,1520,1513,1509,1509,1513,1513,1513,1513,1513,1517,1517,1520,1517,1517,1513,1513,1509,1509,1505,1505,1513,1513,1517,1520,1517,1517,1524,1520,1520,1520,1520,1520,1517,1517,1517,1513,1513,1517,1513,1513,1517,1517,1520,1524,1520,1520,1524,1524,1524,1524,1528,1532,1532,1532,1532,1535,1532,1528,1513,1509,1505,1498,1491,1491,1491,1491,1495,1502,1502,1505,1509,1513,1517,1517,1517,1517,1517,1517,1517,1524,1528,1532,1539,1558,1574,1586,1607,1611,1611,1611,1611,1607,1603
1328,1317,1303,1282,1274,1268,1266,1266,1268,1271,1276,1282,1298,1306,1314,1325,1331,1334,1331,1331,1328,1323,1303,1290,1279,1266,1241,1228,1219,1216,1209,1207,1207,1207,1207,1207,1209,1209,1211,1216,1219,1221,1231,1236,1238,1243,1251,1253,1256,1263,1268,1274,1279,1295,1306,1320,1345,1357,1369,1391,1400,1406,1410,1419,1423,1423,1429,1429,1429,1429,1436,1436,1436,1439,1459,1473,1491,1543,1578,1658,1690,1718,1752,1762,1767,1767,1767,1757,1757,1747,1737,1733,1733,1672,0,0,0,1453,1406,1403,1403,1400,1397,1394,1391,1391,1391,1388,1385,1381,1372,1357,1328,1251,1231,1207,1179,1164,1142,1138,1140,1142,1144,1164,1177,1191,1211,1223,1233,1243,1241,1243,1246,1253,1261,1268,1298,1317,1334,1378,1406,1426,1453,1463,1473,1477,1480,1477,1477,1477,1477,1473,1477,1477,1473,1470,1459,1456,1453,1449,1442,1439,1436,1429,0,0,0,1188,1162,1162,1164,1164,1164,0,0,1317,1360,1419,1429,1432,1432,1442,1439,1429,1410,1403,1394,1381,1354,1340,1325,1314,1300,1290,1268,1263,1263,1258,1256,1256,1256,1253,1253,1253,1253,1253,1253,1253,1253,1253,1258,1258,1263,1276,1624,1658,1628,1663,1690,1686,1667,1650,1628,1611,1590,1551,1539,1524,1517,1517,1517,1520,1520,1520,1520,1524,1524,1528,1532,1532,1528,1528,1520,1520,1517,1509,1509,1513,1513,1517,1520,1520,1524,1524,1524,1524,1524,1524,1524,1520,1520,1520,1520,1517,1517,1517,1517,1517,1517,1517,1517,1517,1520,1520,1520,1528,1528,1528,1532,1532,1535,1535,1535,1535,1532,1520,1513,1509,1502,1495,1491,1491,1495,1495,1502,1502,1505,1509,1513,1513,1513,1513,1517,1517,1517,1517,1520,1528,1532,1539,1558,1570,1586,1599,1603,1603,1603,1599,1595,1590
1331,1320,1306,1284,1274,1268,1266,1263,1266,1266,1271,1274,1287,1295,1303,1314,1317,1320,1320,1317,1314,1309,1292,1282,1271,1261,1238,1228,1219,1216,1209,1207,1207,1204,1204,1207,1207,1209,1209,1214,1216,1219,1226,1231,1236,1241,1246,1248,1253,1258,1263,1271,1274,1292,1300,1314,1340,1351,1366,1391,1400,1410,1416,1426,1429,1432,1432,1436,1436,1436,1436,1436,1426,1413,1410,1410,1410,1413,0,1586,1551,1599,1632,1695,1718,1737,1757,1752,1747,1737,1728,1723,1723,1667,0,0,0,1459,1416,1406,1406,1403,1400,1397,1394,1394,1394,1391,1388,1385,1366,1348,1320,1241,1221,1197,1170,1159,1140,1138,1140,1142,1142,1162,1173,1184,1204,1216,1226,1236,1236,1238,1241,1246,1253,1261,1290,1309,1325,1375,1406,1429,1459,1466,1473,1477,1480,1477,1477,1477,1473,1473,1473,1473,1470,1466,1456,1453,1449,1446,1436,1436,1432,1419,1372,0,0,1193,1170,1170,1170,1170,1173,1209,1231,0,0,0,0,0,1385,1394,1388,1385,1378,0,0,0,0,0,1306,1295,1287,1271,1266,1261,1261,1258,1256,1256,1256,1253,1253,1253,1251,1251,1251,1251,1251,1253,1251,1253,1258,1274,1477,1547,1595,1637,1672,1667,1663,1637,1619,1603,1586,1551,1539,1528,1520,1520,1520,1520,1524,1524,1524,1528,1532,1532,1535,1535,1535,1532,1528,1524,1520,1513,1513,1517,1517,1517,1520,1520,1524,1528,1524,1524,1528,1524,1524,1524,1520,1520,1520,1520,1517,1517,1520,1520,1517,1517,1513,1517,1517,1517,1520,1520,1524,1528,1532,1535,1535,1535,1539,1539,1535,1524,1517,1513,1505,1498,1495,1495,1495,1498,1502,1502,1505,1505,1513,1513,1513,1513,1513,1513,1517,1513,1520,1524,1528,1535,1555,1562,1570,1582,1590,1590,1590,1586,1582,1578
1334,1323,1309,1284,1276,1268,1266,1263,1263,1261,1261,1263,1274,1279,1284,1290,1295,1298,1292,1290,1287,1279,1266,1258,1253,1246,1236,1221,1214,1211,1209,1204,1204,1204,1204,1204,1204,1204,1207,1209,1211,1214,1219,1226,1228,1233,1241,1243,1246,1251,1258,1263,1268,1284,1292,1303,1328,1340,1354,1381,1394,1403,1413,1429,1432,1436,1439,1439,1439,1442,1439,1432,1423,1406,1397,1391,1381,1381,1400,0,0,0,1566,1645,1681,1704,1742,1747,1737,1728,1723,1718,1709,1663,0,0,0,1477,1436,1416,1413,1410,1406,1403,1400,1397,1397,1391,1388,1381,1369,1348,1317,1236,1219,1195,1170,1159,1140,1140,1140,1142,1142,1159,1170,1181,1202,1211,1223,1231,1233,1233,1236,1241,1246,1253,1263,0,1325,1375,1406,1432,1459,1466,1477,1477,1480,1477,1477,1477,1473,1473,1473,1470,1470,1466,1456,1449,1446,1442,1436,1429,1419,1403,1351,0,0,1193,1175,1175,1175,1173,1175,1202,1219,0,0,0,0,0,0,0,0,0,0,0,1320,1311,1306,1290,1282,1276,1274,1263,1261,1261,1261,1261,1261,1261,1258,1256,1256,1253,1253,1251,1251,1251,1251,1251,1251,1253,1258,1274,0,1442,0,1603,1645,1650,1645,1624,1611,1599,1582,1551,1539,1532,1524,1524,1520,1524,1524,1528,1528,1528,1532,1535,1539,1539,1539,1535,1532,1528,1524,1517,1517,1517,1520,1520,1524,1524,1524,1524,1524,1520,1520,1520,1524,1524,1520,1520,1520,1520,1520,1520,1520,1520,1520,1517,1517,1513,1513,1513,1517,1520,1524,1524,1532,1532,1535,1535,1539,1539,1535,1528,1520,1517,1509,1502,1498,1498,1498,1498,1498,1502,1502,1502,1509,1509,1509,1509,1509,1509,1513,1513,1520,1528,1528,1535,1551,1555,1566,1574,1578,1582,1582,1578,1574,1570
1337,1325,1311,1287,1279,1271,1266,1263,1261,1261,1261,1263,1268,1271,1276,1282,1284,1284,1282,1276,1271,1266,1253,1248,1241,1236,1231,1219,1214,1209,1207,1202,1202,1202,1202,1202,1202,1204,1204,1207,1209,1211,1216,1221,1226,1228,1236,1241,1243,1248,1256,1258,1263,1279,1287,1298,1320,1331,1345,1360,1385,1397,1406,1426,1429,1436,1439,1439,1442,1442,1439,1432,1423,1403,1391,1378,1363,1351,1357,1372,1391,0,0,1582,1624,1658,1690,1723,1723,1718,1709,1704,1699,1654,1611,0,0,0,1442,1419,1416,1410,1410,1406,1403,1400,1400,1394,1388,1385,1369,1348,1317,1236,1216,1193,1166,1157,1140,1140,1140,1142,1142,1157,1168,1179,1200,1209,1219,1228,1231,1231,1233,1236,1241,1246,1258,1298,1323,1378,1413,1442,1466,1473,1477,1480,1480,1480,1477,1477,1473,1473,1473,1470,1466,1463,1453,1449,1446,1439,1429,1410,1394,1372,1328,0,0,1195,1179,1177,1177,1177,1188,1197,1207,1219,1246,1261,1279,0,0,1300,1263,1266,1263,1258,1253,1251,1248,1248,1251,1253,1256,1261,1261,1261,1263,1263,1266,1263,1263,1258,1256,1256,1253,1251,1248,1251,1251,1251,1251,1251,1258,1271,1331,1381,1480,1532,1599,1611,1611,1599,1590,1582,1570,1551,1539,1532,1528,1524,1524,1528,1528,1528,1528,1528,1532,1535,1539,1539,1539,1539,1535,1532,1528,1517,1517,1517,1517,1517,1520,1520,1520,1520,1520,1520,1520,1520,1524,1524,1524,1524,1524,1524,1528,1528,1524,1524,1520,1520,1520,1517,1517,1520,1520,1520,1524,1528,1532,1535,1535,1535,1543,1539,1539,1532,1524,1520,1517,1509,1502,1498,1498,1502,1502,1502,1502,1502,1509,1509,1509,1509,1509,1509,1513,1513,1520,1524,1532,1535,1547,1555,1562,1566,1574,1574,1574,1570,1570,1566
1340,1328,1314,1292,1282,1274,1268,1266,1261,1261,1261,1261,1266,1268,1271,1274,1276,1276,1274,1263,1261,1253,1248,1236,1231,1226,1223,1214,1211,1207,1204,1202,1202,1202,1202,1202,1202,1202,1204,1207,1209,1211,1214,1221,1223,1228,1233,1238,1241,1246,1253,1258,1261,1276,1284,1295,1314,1325,1340,1351,1378,1391,1403,1419,1429,1432,1439,1439,1439,1442,1439,1436,1426,1400,1388,1375,1357,1343,1337,1340,1351,1369,1432,0,1558,1595,1632,1681,1686,1695,1695,1686,1676,1667,1603,0,0,1480,1449,1419,1419,1416,1413,1406,1406,1400,1400,1391,1388,1385,1369,1351,1323,1243,1219,1195,1168,1157,1140,1140,1140,1140,1142,1153,1164,1175,1193,1204,1211,1219,1226,1226,1228,1228,1231,1236,1248,1290,1323,1381,1419,1449,1470,1477,1480,1480,1480,1477,1477,1473,1470,1463,1459,1446,1439,1429,1423,1406,1400,1388,1378,1351,1331,1311,1284,0,1243,1200,1184,1184,1181,1181,1186,1188,1191,1193,1197,1204,1211,1216,1223,1228,1231,1236,1231,1231,1228,1231,1231,1233,1238,1248,1256,1263,1274,1276,1279,1282,1282,1282,1276,1271,1266,1263,1261,1253,1253,1251,1253,1253,1253,1253,1261,1274,1323,1360,1449,1498,1539,1586,1599,1586,1582,1574,1566,1555,1539,1535,1528,1528,1524,1528,1524,1528,1528,1528,1528,1532,1535,1539,1535,1535,1532,1528,1528,1517,1513,1513,1513,1509,1509,1509,1513,1513,1513,1513,1513,1513,1517,1520,1520,1524,1524,1524,1528,1528,1528,1524,1524,1520,1520,1520,1520,1520,1520,1524,1524,1528,1532,1532,1535,1539,1539,1539,1539,1535,1528,1528,1520,1513,1509,1505,1502,1502,1505,1505,1505,1505,1509,1509,1509,1509,1509,1509,1513,1513,1520,1528,1532,1535,1547,1555,1558,1566,1570,1574,1574,1574,1570,1566
1340,1328,1314,1292,1284,1274,1268,1266,1261,1261,1261,1261,1263,1266,1268,1268,1268,1268,1263,1256,1251,1243,1236,1226,1221,1219,1216,1211,1209,1207,1204,1202,1202,1202,1202,1202,1202,1202,1204,1207,1207,1209,1211,1219,1223,1226,1233,1236,1238,1243,1251,1256,1261,1271,1279,1287,1298,1317,1323,1334,1360,1372,1385,1406,1416,1426,1432,1436,1439,1439,1439,1436,1429,1406,1394,1375,1363,1345,1325,1314,1311,1314,1325,1369,1400,1532,1570,1539,1595,1611,1624,1637,1632,1628,1582,1551,0,1484,1453,1426,1423,1416,1416,1410,1406,1403,1400,1394,1388,1381,1369,1357,1303,1251,1223,1200,1173,1157,1140,1140,1140,1140,1142,1151,1162,1173,1191,1200,1209,1216,1223,1223,1226,1228,1228,1231,1243,1282,0,1334,1403,1432,1449,1453,1456,1453,1453,1449,1446,1442,1436,1426,1423,1406,1400,1394,1388,1372,1366,1357,1348,1340,1323,0,0,1246,1228,1202,1191,1191,1188,1188,1191,1193,1195,1197,1204,1207,1211,1214,1216,1221,1221,1228,1228,1228,1231,1233,1236,1241,1243,1253,1263,1271,1282,1287,1290,1292,1292,1290,1284,1276,1271,1266,1263,1256,1256,1253,1256,1253,1256,1256,1261,1271,1309,1340,1378,1463,1505,1562,1578,1578,1574,1570,1562,1555,1539,1532,1528,1528,1524,1524,1524,1524,1524,1524,1524,1528,1528,1532,1532,1532,1528,1524,1520,1513,1505,1505,1502,1498,1498,1498,1498,1498,1502,1502,1505,1509,1517,1517,1520,1524,1528,1528,1528,1528,1528,1528,1524,1524,1520,1520,1520,1520,1520,1524,1524,1528,1532,1535,1535,1539,1543,1547,1543,1539,1535,1532,1528,1520,1517,1513,1509,1509,1505,1509,1505,1505,1513,1513,1509,1509,1509,1513,1513,1513,1520,1528,1532,1535,1547,1555,1558,1562,1566,1570,1570,1570,1570,1562
1340,1328,1314,1292,1282,1271,1266,1263,1261,1261,1261,1261,1261,1261,1263,1263,1261,1258,1253,1243,1238,1231,1226,1214,1211,1209,1207,1204,1204,1202,1202,1200,1200,1200,1200,1202,1202,1202,1204,1204,1207,1207,1209,1216,1219,1221,1228,1231,1236,1238,1246,1248,1253,1266,1271,1276,1284,1303,1311,1325,1351,1363,1378,1400,1410,1419,1429,1432,1436,1439,1439,1439,1439,1423,1413,1397,1381,1363,1331,1320,1311,1309,1311,1340,1360,1388,0,1513,1539,1558,1574,1599,1599,1595,1566,0,1513,1484,1459,1429,1426,1423,1419,1416,1410,1406,1403,1394,1388,1381,1369,1360,1343,1268,1236,1209,1181,1162,1140,1140,1138,1140,1142,1149,1159,1168,1188,1197,1207,1214,1223,1223,1226,1223,1226,1226,1238,1271,0,1317,1372,1400,1410,1423,1423,1419,1416,1413,1410,1403,1397,1391,1385,1375,1366,1360,1354,1345,1337,1328,1320,0,1284,1268,1253,1238,1223,1202,1195,1195,1193,1193,1195,1197,1200,1202,1211,1214,1216,1221,1226,1228,1231,1233,1236,1236,1238,1243,1246,1248,1251,1263,1274,1282,1292,1298,1300,1303,1300,1298,1292,1282,1276,1271,1266,1258,1258,1256,1256,1256,1258,1261,1263,1271,1306,1334,1369,1442,1484,1543,1558,1566,1566,1562,1558,1551,1539,1532,1532,1528,1524,1524,1524,1520,1520,1520,1517,1520,1520,1520,1520,1520,1513,1509,1505,1502,1491,1491,1491,1487,1484,1484,1484,1484,1484,1487,1491,1495,1498,1509,1513,1517,1520,1528,1528,1528,1528,1524,1524,1524,1520,1520,1524,1520,1520,1520,1524,1528,1532,1532,1535,1535,1543,1543,1543,1543,1539,1539,1535,1524,1520,1517,1513,1513,1509,1509,1509,1509,1513,1513,1517,1513,1517,1517,1517,1520,1524,1528,1532,1535,1547,1551,1555,1562,1566,1570,1570,1570,1566,1566
1340,1328,1314,1303,1282,1271,1263,1261,1261,1258,1258,1258,1258,1261,1261,1261,1258,1256,1251,1241,1236,1228,1223,1214,1209,1207,1204,1202,1202,1202,1200,1200,1200,1200,1200,1202,1202,1202,1204,1204,1207,1207,1209,1214,1216,1219,1226,1231,1233,1238,1243,1248,1251,1261,1266,1271,1279,1295,1306,1317,1343,1354,1369,1394,1403,1413,1426,1429,1432,1436,1439,1442,1442,1432,1423,1413,1397,1363,1345,1331,1323,1314,1309,1323,1337,1354,1403,1432,0,1509,1532,1547,1558,1558,1543,0,1502,1477,1456,1429,1426,1423,1419,1416,1413,1410,1406,1394,1388,1381,1369,1354,1306,1266,0,0,1181,1162,1140,1140,1138,1140,1142,1149,1159,1168,1186,1195,1204,1211,1219,1221,1221,1221,1221,1221,1228,1258,0,1295,1343,1366,1375,1385,1385,1385,1378,1375,1372,1369,1363,1354,1351,1343,1337,1334,1328,0,0,0,1298,1290,1279,1256,1241,1228,1219,1204,1197,1197,1200,1197,1200,1204,1209,1211,1221,1223,1226,1228,1233,1236,1238,1243,1248,1248,1251,1258,1258,1263,1266,1279,1287,1295,1306,1309,1311,1311,1309,1303,1298,1287,1282,1274,1268,1263,1261,1258,1258,1261,1261,1263,1268,1274,1303,1323,1351,1413,1446,1498,1524,1543,1547,1551,1551,1547,1539,1535,1532,1528,1524,1524,1520,1520,1517,1517,1517,1517,1517,1517,1513,1513,1509,1502,1502,1495,1491,1487,1484,1484,1480,1480,1477,1477,1477,1480,1484,1487,1491,1502,1509,1513,1520,1524,1528,1524,1524,1528,1524,1524,1524,1524,1524,1524,1520,1520,1524,1528,1532,1532,1535,1535,1543,1543,1543,1543,1543,1539,1535,1528,1524,1520,1520,1517,1517,1517,1513,1513,1517,1517,1517,1517,1517,1520,1520,1520,1524,1528,1532,1535,1543,1551,1555,1562,1566,1566,1570,1570,1570,1566
1340,1325,1314,1303,1279,1268,1261,1261,1258,1258,1256,1256,1256,1258,1258,1258,1256,1253,1251,1241,1233,1228,1221,1211,1207,1204,1202,1200,1200,1200,1200,1200,1200,1200,1202,1202,1202,1204,1204,1204,1207,1207,1209,1214,1214,1219,1223,1228,1231,1236,1243,1246,1251,1258,1263,1268,1276,1292,1300,1311,1334,1348,1360,1385,1397,1406,1413,1426,1429,1432,1439,1442,1446,1439,1436,1429,1419,1388,1366,1348,1337,1325,1311,1311,1320,1334,1366,1391,1413,1459,1484,1502,1520,1524,1524,1517,1487,1470,1453,1429,1423,1419,1419,1416,1413,1410,1406,1397,1385,1378,1363,1348,1295,1263,0,0,1179,1162,1142,1140,1140,1140,1142,1149,1155,1162,1170,1184,1191,1197,1204,1207,1207,1204,1204,1207,1211,1231,1238,1251,1266,1298,1306,1311,1317,1317,1317,1309,1309,0,1306,1298,1292,1287,1284,1276,1271,1268,1266,1256,1251,1241,1236,1223,1216,1214,1214,1211,1214,1216,1221,1223,1231,1233,1261,1258,1256,1251,1248,1253,1256,1256,1258,1263,1266,1268,1274,1276,1282,1284,1298,1306,1314,1320,1328,1331,1328,1325,1323,1314,1309,1295,1287,1282,1274,1268,1266,1266,1263,1266,1268,1271,1276,1284,1303,1320,1345,1400,1429,1456,1509,1532,1539,1547,1547,1547,1539,1539,1535,1532,1524,1524,1520,1520,1517,1517,1517,1517,1513,1513,1513,1509,1505,1502,1495,1495,1484,1484,1484,1480,1477,1477,1473,1473,1473,1477,1480,1484,1487,1502,1509,1513,1520,1524,1524,1528,1528,1528,1528,1524,1524,1524,1524,1520,1524,1524,1524,1524,1532,1535,1535,1535,1547,1547,1551,1547,1547,1543,1543,1532,1528,1524,1524,1520,1520,1517,1517,1517,1520,1520,1520,1520,1520,1524,1524,1524,1528,1532,1535,1539,1547,1551,1558,1562,1566,1570,1570,1570,1570,1570
1340,1325,1311,1300,1279,1266,1258,1258,1256,1256,1253,1253,1253,1256,1256,1256,1256,1253,1248,1238,1233,1228,1221,1211,1207,1202,1202,1200,1200,1200,1200,1200,1200,1202,1202,1202,1204,1204,1204,1204,1207,1207,1209,1211,1214,1216,1221,1226,1228,1233,1238,1243,1246,1248,1256,1261,1266,1284,1292,1303,1325,1337,1348,1372,1385,1394,1403,1419,1423,1429,1436,1442,1449,1449,1449,1446,1439,1410,1410,1369,1354,1340,1320,1311,1311,1314,1317,1337,1348,1363,1400,1419,1436,1456,1456,1456,1449,1442,1432,1426,1419,1416,1416,1416,1413,1406,1403,1394,1381,1378,1360,1343,1320,1258,0,0,1177,1164,1144,1140,1140,1140,1142,1147,1153,1159,1166,1177,1184,1191,1197,1197,1197,1197,1197,1197,1204,1209,1221,1231,1243,1266,1274,1279,1284,1284,1282,1276,1274,1271,1271,1263,1258,1256,1251,1243,1241,1236,1233,1226,1223,1219,1219,1214,1209,1216,1226,1236,1258,1268,1282,0,0,0,0,0,1274,1263,1261,1263,1266,1266,1268,1274,1276,1279,1284,1292,0,1300,1311,1323,1328,1331,1337,1337,1337,1331,1325,1320,1314,1298,1290,1282,1279,1271,1268,1266,1266,1268,1271,1274,1279,1287,1306,1320,1345,1391,1416,1442,1498,1520,1532,1547,1547,1547,1543,1543,1539,1535,1532,1528,1524,1520,1520,1517,1517,1520,1517,1513,1513,1509,1502,1498,1495,1491,1484,1484,1480,1477,1473,1473,1470,1473,1470,1477,1477,1484,1487,1502,1509,1517,1524,1528,1528,1532,1532,1532,1532,1528,1528,1528,1524,1520,1520,1520,1520,1524,1532,1535,1535,1539,1547,1551,1555,1551,1551,1547,1547,1539,1535,1532,1528,1524,1524,1524,1520,1520,1524,1520,1524,1524,1524,1524,1528,1528,1532,1535,1535,1539,1551,1555,1558,1562,1570,1574,1570,1574,1574,1578
1337,1325,1311,1298,1274,1263,1256,1253,1251,1248,1246,1246,1246,1246,1246,1248,1248,1246,1243,1238,1233,1226,1221,1209,1207,1204,1202,1200,1197,1200,1200,1200,1202,1202,1202,1202,1204,1204,1204,1207,1207,1207,1209,1211,1214,1216,1219,1223,1228,1231,1236,1241,1243,1248,1253,1258,1266,1282,1290,1300,1323,1334,1345,1369,1378,1388,1397,1413,1419,1426,1436,1442,1449,1453,1463,1466,1456,1446,1429,1406,1388,1348,1331,1323,1317,1317,1311,1323,1331,1340,1369,1388,1403,1423,1429,1436,1436,1432,1426,1419,1416,1416,1416,1413,1410,1410,1403,1391,1381,1372,1357,1337,1317,1256,1226,1202,1179,1162,1144,1140,1140,1140,1140,1147,1153,1159,1164,1175,1179,1184,1191,1191,1191,1191,1191,1191,1195,1197,1202,1209,1216,1236,1243,1246,1248,1248,1246,1246,1236,1231,1231,1228,1221,1219,1216,1214,1211,1211,1211,1214,1211,1214,1214,1216,1216,1226,1243,1258,1287,0,0,0,0,1323,0,1298,1290,1276,1274,1274,1276,1276,1279,1284,1292,1295,1306,1306,1314,1317,1331,1337,1343,1345,1345,1345,1343,1334,1328,1323,1314,1298,1292,1287,1282,1274,1271,1268,1271,1271,1274,1276,1282,1287,1309,1317,1340,1381,1403,1432,1484,1509,1524,1543,1547,1551,1551,1547,1547,1539,1535,1532,1532,1528,1524,1520,1520,1524,1520,1517,1517,1517,1509,1505,1498,1495,1487,1484,1484,1477,1477,1473,1470,1470,1470,1477,1480,1487,1495,1513,1520,1524,1535,1539,1543,1543,1543,1539,1539,1532,1528,1528,1524,1524,1520,1520,1520,1524,1532,1535,1539,1543,1551,1555,1558,1558,1555,1551,1551,1539,1539,1532,1528,1528,1528,1528,1524,1524,1524,1524,1524,1528,1528,1532,1535,1535,1539,1543,1543,1551,1562,1566,1570,1574,1586,1586,1590,1590,1595,1595
1337,1325,1311,1298,1274,1263,1256,1253,1248,1246,1243,1243,1241,1241,1243,1243,1243,1243,1243,1238,1233,1228,1223,1211,1209,1204,1202,1200,1197,1197,1200,1200,1202,1202,1204,1204,1204,1204,1204,1207,1207,1207,1209,1211,1214,1214,1216,1223,1226,1231,1236,1238,1241,1246,1251,1256,1263,1279,1290,1300,1320,1334,1345,1354,1375,1385,1394,1410,1416,1423,1432,1442,1446,1453,1470,1473,1470,1463,1449,1429,1410,1363,1343,1331,1323,1320,1314,1317,1323,1328,1348,1363,1378,1400,1406,1416,1419,1423,1419,1416,1416,1413,1413,1413,1410,1406,1400,1397,1381,1369,1351,1325,1303,1251,1223,1197,1175,1162,1147,1140,1140,1140,1142,1149,1153,1157,1162,1170,1175,1179,1184,1184,1184,1184,1184,1184,1186,1186,1186,1191,1197,1200,1211,1214,1216,1216,1211,1207,1197,1195,1191,1191,1188,1188,1188,1188,1193,1197,1200,1204,1207,0,0,0,0,1246,1266,0,1363,1337,1360,1363,1363,1345,0,1320,1309,1292,1287,1284,1284,1287,1290,1295,1300,1306,1317,1320,1328,1334,1348,1354,1357,1357,1354,1354,1348,1337,1331,1323,1317,1300,1292,1287,1282,1274,1271,1271,1271,1271,1276,1279,1284,1290,1306,1320,1337,1372,1391,1413,1463,1487,1505,1532,1543,1547,1551,1551,1551,1555,1547,1543,1543,1535,1532,1532,1528,1532,1528,1528,1524,1524,1520,1517,1509,1509,1502,1498,1491,1487,1484,1480,1477,1477,1480,1491,1498,1505,1513,1528,1539,1547,1551,1555,1558,1555,1555,1551,1547,1539,1535,1532,1528,1520,1520,1520,1524,1524,1532,1535,1543,1543,1555,1558,1562,1562,1562,1558,1555,1543,1543,1532,1532,1528,1524,1524,1524,1520,1524,1524,1524,1524,1532,1532,1535,1535,1539,1543,1547,1555,1562,1570,1574,1578,1590,1595,1599,1599,1603,1603
1337,1325,1311,1300,1276,1263,1258,1251,1248,1246,1241,1238,1236,1236,1238,1238,1238,1238,1241,1236,1233,1228,1223,1214,1209,1207,1202,1200,1197,1197,1200,1200,1202,1202,1204,1204,1204,1204,1204,1207,1207,1209,1209,1211,1214,1214,1216,1223,1226,1228,1233,1236,1238,1243,1248,1253,1261,1279,1290,1298,1320,1334,1343,1351,1372,1378,1388,1406,1413,1419,1432,1436,1446,1453,1470,1477,1480,1477,1466,1449,1432,1381,1357,1343,1331,1325,1317,1314,1317,1320,1337,1345,1357,1366,1388,1394,1403,1410,1413,1406,1410,1413,1413,1413,1410,1403,1400,1394,1378,1363,1340,1311,1287,1238,1216,1193,1173,1159,1147,1140,1140,1140,1144,1147,1151,1155,1157,1162,1164,1166,1168,1170,1170,1170,1175,1179,1179,1179,1188,1193,1200,1207,1209,1211,1211,1207,1204,1200,1193,1193,1188,1186,1186,0,0,1184,1184,1191,1193,1202,0,1226,0,0,0,1351,0,0,1416,1436,1436,1436,1426,1391,0,1348,1331,1317,1303,1300,1298,1300,1303,1311,1320,1331,1357,1369,1381,1403,1410,1413,1397,1391,1381,1372,1354,1345,1337,1325,1320,1303,1295,1290,1284,1279,1276,1274,1274,1276,1279,1282,1284,1290,1306,1317,1334,1366,1385,1406,1456,1480,1498,1528,1539,1547,1551,1558,1558,1558,1551,1551,1547,1543,1539,1539,1539,1535,1532,1532,1532,1528,1524,1520,1513,1513,1505,1502,1498,1498,1491,1491,1487,1487,1491,1502,1505,1517,1528,1535,1543,1551,1555,1558,1562,1562,1558,1555,1551,1543,1539,1532,1528,1524,1520,1520,1520,1520,1528,1532,1539,1543,1555,1555,1558,1558,1558,1555,1555,1539,1535,1532,1524,1524,1520,1520,1517,1517,1517,1520,1520,1524,1532,1532,1535,1539,1543,1547,1547,1555,1566,1570,1578,1582,1595,1599,1607,1603,1611,1611
1340,1325,1314,1300,1276,1266,1258,1253,1246,1243,1238,1236,1233,1233,1233,1233,1233,1236,1236,1233,1233,1228,1226,1216,1211,1207,1204,1200,1197,1197,1200,1200,1202,1202,1204,1204,1204,1204,1204,1207,1207,1209,1209,1211,1214,1216,1216,1221,1223,1226,1231,1233,1236,1238,1246,1251,1258,1276,1287,1298,1320,1331,1340,1348,1363,1372,1378,1394,1403,1410,1426,1432,1439,1446,1459,1473,1477,1480,1470,1459,1442,1394,1372,1354,1340,1334,1323,1317,1317,1320,1323,1325,1334,1337,1351,1360,1372,1391,1394,1400,1406,1410,1413,1413,1406,1403,1400,1394,1378,1366,1340,1309,1282,1233,1214,1188,1168,1159,1149,1142,1142,1142,1144,1147,1149,1153,1155,1157,1159,1162,1162,1164,1168,1173,1186,1193,1204,1211,1233,1243,1251,1263,1261,1261,1248,1241,1228,1219,1197,1191,1186,1184,1181,0,1179,1179,1181,1188,0,0,0,0,0,0,0,1436,1442,1446,1446,1453,1446,1442,1429,1394,1375,1354,1340,1325,1311,1306,1306,1309,1314,1325,1337,1351,1385,1394,1406,1429,1429,1429,1413,1403,1394,1381,1360,1348,1337,1328,1320,1303,1295,1290,1287,1279,1276,1276,1276,1276,1279,1282,1284,1290,1306,1317,1331,1360,1378,1400,1449,1470,1487,1517,1532,1547,1551,1558,1558,1562,1558,1555,1551,1547,1543,1543,1543,1539,1539,1535,1535,1532,1528,1524,1520,1520,1513,1509,1509,1505,1502,1502,1505,1502,1505,1513,1520,1524,1535,1543,1551,1555,1558,1562,1562,1566,1566,1558,1555,1547,1543,1535,1528,1524,1520,1520,1517,1517,1524,1528,1535,1535,1547,1551,1555,1555,1555,1551,1547,1535,1528,1524,1517,1513,1513,1509,1509,1509,1513,1513,1517,1520,1524,1528,1535,1535,1543,1547,1551,1558,1570,1574,1582,1586,1603,1607,1611,1615,1619,1619
1337,1325,1314,1303,1279,1268,1261,1256,1246,1241,1236,1233,1228,1228,1226,1226,1228,1231,1231,1233,1233,1231,1226,1216,1214,1209,1207,1200,1200,1197,1200,1200,1202,1202,1202,1204,1204,1204,1204,1207,1207,1209,1209,1211,1214,1216,1216,1221,1221,1223,1231,1233,1236,1238,1246,1251,1258,1276,1287,1295,1317,1328,1337,1345,1360,1366,1375,1391,1397,1406,1413,1429,1436,1442,1459,1466,1473,1477,1473,1466,1456,1423,1397,1378,1363,1340,1334,1325,1323,1320,1320,1323,1328,1331,1343,1351,1360,1378,1388,1394,1400,1410,1410,1413,1406,1403,1397,1394,1378,1366,1343,1311,1284,1233,1214,1188,1168,1159,1149,1142,1142,1142,1142,1144,1147,1149,1151,1153,1155,1155,1157,1162,1173,1181,1204,1219,1231,1258,1268,1279,1292,1295,1295,1284,1271,1261,1246,1231,1200,1191,1179,1179,1175,1175,1173,1173,1173,1179,0,0,0,0,0,0,1484,1484,1480,1473,1466,1463,1453,1446,1432,1400,1381,1363,1351,1328,1323,1320,1317,1320,1331,1345,1360,1375,1410,1423,1439,1456,1456,1449,1429,1416,1406,1394,1363,1351,1343,1331,1320,1303,1298,1292,1287,1279,1276,1276,1276,1276,1279,1282,1284,1290,1300,1311,1323,1354,1372,1394,1439,1463,1473,1502,1517,1532,1539,1555,1558,1562,1558,1558,1555,1551,1547,1547,1547,1547,1543,1539,1539,1539,1532,1528,1524,1524,1517,1513,1513,1509,1509,1513,1509,1513,1513,1524,1528,1535,1543,1547,1558,1558,1566,1566,1566,1570,1566,1566,1562,1551,1547,1539,1532,1524,1520,1520,1517,1513,1520,1520,1524,1528,1539,1543,1547,1551,1551,1547,1543,1532,1524,1520,1513,1509,1509,1509,1505,1509,1509,1513,1513,1517,1524,1528,1532,1535,1543,1543,1551,1558,1570,1574,1582,1590,1615,1619,1624,1632,1632,1632
1328,1320,1311,1300,1279,1271,1261,1258,1248,1243,1238,1233,1226,1226,1223,1226,1226,1228,1228,1231,1231,1231,1228,1221,1216,1214,1209,1202,1200,1200,1200,1202,1202,1202,1202,1202,1204,1204,1204,1207,1207,1209,1209,1211,1214,1216,1216,1219,1221,1223,1228,1231,1233,1236,1243,1251,1256,1274,1284,1292,1303,1325,1334,1343,1354,1363,1369,1385,1394,1400,1406,1423,1432,1436,1453,1459,1466,1466,1470,1463,1456,1426,1403,1388,1369,1345,1337,1328,1323,1320,1320,1323,1325,1325,1337,1343,1351,1360,1378,1388,1397,1403,1406,1410,1406,1403,1400,1394,1381,1369,1345,1314,1287,1233,1216,1188,1168,1159,1149,1142,1142,1142,1142,1142,1147,1149,1151,1151,1153,1153,1155,1173,1188,1204,1236,1256,0,0,0,0,1328,1328,1328,1311,0,0,0,0,0,0,0,0,0,0,0,0,0,0,0,0,0,1517,1495,1502,1502,1505,1498,1487,1473,1466,1453,1442,1429,1400,1385,1369,1372,1343,1337,1331,1331,1334,1354,1369,1385,1423,1439,1449,1463,1480,1477,1459,1442,1432,1419,1403,1372,1357,1348,1334,1323,1303,1298,1292,1287,1279,1276,1276,1276,1274,1276,1276,1279,1284,1295,1300,1311,1334,1357,1378,1419,1442,1463,1477,1509,1524,1532,1547,1558,1562,1562,1562,1562,1558,1558,1555,1555,1555,1551,1551,1547,1547,1543,1539,1535,1528,1524,1524,1520,1520,1520,1524,1528,1524,1528,1535,1539,1543,1547,1551,1555,1558,1566,1566,1570,1570,1570,1570,1562,1558,1551,1543,1539,1528,1524,1520,1517,1513,1517,1517,1517,1520,1532,1535,1543,1547,1551,1543,1539,1524,1520,1517,1509,1505,1505,1505,1502,1505,1505,1505,1509,1513,1524,1524,1532,1535,1543,1543,1551,1555,1570,1574,1582,1595,1615,1624,1628,1637,1637,1637
1323,1311,1303,1295,1279,1271,1263,1258,1248,1241,1236,1233,1226,1223,1221,1223,1223,1226,1228,1228,1231,1228,1226,1221,1216,1214,1209,1202,1200,1200,1200,1202,1202,1202,1202,1202,1204,1204,1204,1207,1207,1209,1209,1211,1214,1214,1216,1219,1221,1221,1226,1231,1231,1236,1243,1248,1253,1271,1279,1290,1300,1320,1328,1337,1351,1357,1363,1378,1388,1394,1403,1416,1426,1432,1446,1453,1459,1463,1466,1466,1453,1439,1423,1416,1400,1372,1360,1348,1343,1331,1325,1320,1323,1323,1328,1334,1340,1345,1363,1372,1381,1394,1400,1403,1403,1403,1400,1394,1385,1372,1348,1317,1287,1236,1216,1191,1168,1159,1149,1142,1142,1140,1140,1140,1140,1144,1147,1149,1149,1151,1159,1191,0,0,0,1354,1385,1345,1354,1360,1366,1369,1357,1345,1328,1311,1287,0,0,0,0,0,0,0,0,0,0,0,0,0,1513,1551,1543,1539,1535,1528,1517,1502,1473,1463,1449,1439,1429,1406,1397,1388,1385,1372,1372,0,1372,1378,1406,1426,1446,1477,1491,1502,1509,1509,1505,1484,1470,1456,1436,1423,1385,1366,1351,1334,1323,1303,1298,1292,1287,1279,1276,1276,1274,1274,1274,1274,1276,1279,1290,1295,1303,1311,1343,1363,1385,1429,1449,1466,1498,1513,1524,1543,1555,1558,1562,1566,1562,1562,1558,1558,1558,1558,1555,1555,1551,1551,1547,1543,1539,1535,1528,1528,1528,1528,1528,1532,1535,1535,1539,1539,1543,1543,1547,1551,1555,1555,1562,1562,1562,1566,1566,1566,1562,1558,1555,1547,1539,1528,1528,1520,1520,1513,1517,1513,1517,1520,1532,1535,1539,1543,1543,1543,1535,1524,1520,1513,1509,1505,1505,1505,1502,1505,1509,1509,1513,1517,1524,1528,1532,1539,1539,1543,1551,1555,1566,1570,1582,1590,1619,1628,1628,1637,1641,1641
1311,1306,1298,1290,1276,1268,1263,1256,1246,1241,1236,1231,1223,1221,1221,1221,1221,1223,1221,1223,1223,1226,1223,1219,1216,1214,1211,1202,1200,1200,1202,1202,1202,1202,1202,1202,1204,1204,1204,1204,1207,1207,1209,1211,1211,1214,1214,1216,1219,1219,1223,1226,1228,1231,1238,1243,1251,1263,1274,1282,1290,1309,1317,1325,1340,1345,1354,1369,1375,1385,1391,1406,1413,1419,1432,1439,1446,1456,1466,1470,1473,1477,1480,1480,1456,1436,1413,0,0,1366,1343,1328,1323,1323,1325,1328,1334,1340,1357,1363,1372,1388,1394,1397,1400,1403,1400,1397,1388,1381,1357,1328,1300,1246,1221,1193,1170,1162,1151,1144,1142,1142,1140,1138,1140,1140,1142,1144,1151,1166,0,0,0,0,1394,1429,1442,1453,1459,1459,1459,1449,1442,1432,1416,1400,1375,0,0,0,0,0,0,0,0,0,0,0,0,0,1562,1558,1551,1551,1547,1535,1528,1505,1477,0,1453,1439,1426,1413,1403,1400,1397,1394,1394,1394,1400,1419,1436,1456,1473,1502,1509,1517,1520,1517,1509,1491,1477,1463,1446,1432,1391,1372,1351,1334,1323,1303,1295,1292,1287,1276,1276,1274,1274,1271,1274,1274,1274,1276,1284,1290,1295,1306,1331,1348,1369,1413,1432,1449,1487,1505,1517,1539,1547,1555,1562,1566,1562,1562,1562,1562,1558,1558,1558,1555,1555,1551,1547,1547,1539,1539,1532,1532,1528,1532,1532,1539,1539,1535,1539,1539,1543,1543,1543,1547,1551,1551,1555,1555,1558,1558,1562,1562,1558,1555,1555,1547,1543,1528,1528,1524,1520,1513,1513,1513,1517,1520,1528,1532,1539,1539,1543,1539,1535,1524,1517,1513,1509,1505,1505,1505,1509,1509,1509,1513,1517,1520,1528,1532,1535,1539,1547,1547,1551,1558,1566,1574,1582,1590,1615,1628,1632,1637,1641,1641
1290,1284,1282,1276,1266,1261,1256,1253,1243,1238,1233,1231,1223,1221,1219,1216,1216,1216,1219,1219,1221,1223,1221,1216,1214,1211,1209,1204,1202,1202,1202,1202,1202,1202,1202,1202,1204,1204,1204,1204,1207,1207,1207,1211,1211,1211,1211,1214,1216,1219,1219,1223,1226,1228,1236,1241,1248,1253,1266,1274,1284,1300,1309,1317,1334,1340,1348,1354,1372,1378,1388,1400,1406,1413,1426,1432,1436,1449,1477,1495,0,0,0,0,0,0,0,0,0,0,1357,1334,1323,1323,1323,1325,1331,1337,1351,1357,1363,1378,1385,1391,1397,1397,1400,1397,1391,1385,1363,1337,1309,1251,1226,1197,1170,1162,1153,1147,1144,1142,1138,1136,1136,1138,1140,1142,1162,0,0,0,0,1446,1463,1487,1495,1502,1502,1498,1491,1484,1480,1477,1473,1470,0,0,0,0,0,0,0,0,0,0,0,0,0,1570,1570,1566,1566,1562,1558,1547,1539,1517,1477,1463,1449,1439,1426,1413,1406,1406,1410,1410,1410,1416,1423,1446,1463,1480,1509,1517,1524,1524,1524,1517,1509,1491,1480,1466,1453,1436,1400,1378,1357,1340,1325,1303,1298,1290,1284,1276,1274,1271,1271,1271,1271,1271,1274,1274,1276,1282,1284,1292,1311,1325,1340,1375,1397,1416,1456,1480,1502,1528,1539,1551,1555,1562,1562,1562,1562,1562,1562,1558,1558,1558,1555,1555,1551,1547,1543,1543,1535,1535,1535,1535,1539,1543,1547,1543,1547,1543,1543,1539,1539,1539,1543,1543,1547,1547,1547,1551,1555,1555,1555,1555,1551,1547,1539,1532,1532,1524,1520,1513,1517,1513,1517,1517,1528,1532,1539,1539,1543,1539,1535,1528,1524,1520,1517,1513,1517,1517,1520,1520,1524,1528,1532,1535,1539,1543,1551,1555,1558,1562,1566,1570,1574,1582,1582,1595,1619,1628,1637,1641,1645,1645
1276,1274,1271,1268,1261,1256,1251,1248,1241,1238,1233,1228,1223,1221,1219,1216,1216,1216,1216,1216,1219,1221,1219,1216,1214,1211,1209,1204,1202,1202,1202,1202,1202,1202,1202,1202,1204,1204,1204,1204,1207,1207,1207,1209,1209,1211,1211,1211,1214,1214,1216,1221,1223,1226,1233,1238,1243,1248,1261,1268,1276,1295,1303,1311,1331,1337,1345,1354,1369,1375,1381,1397,1403,1406,1419,1426,1429,1442,1480,0,1532,0,0,0,0,1637,1607,1570,0,0,0,1340,1320,1320,1323,1323,1328,1334,1345,1351,1357,1369,1378,1385,1391,1397,1397,1397,1394,1388,1369,1345,1320,1261,1231,1202,1173,1162,1153,1144,1144,1140,1138,1134,1134,1136,1138,1140,1177,0,0,0,1491,1505,1513,1513,1513,1505,1505,1498,1498,1487,1487,1480,1480,1470,0,0,0,0,0,0,0,0,0,0,0,0,0,1586,1586,1582,1582,1578,1566,1551,1528,1502,1459,1446,1432,1423,1416,1410,1406,1410,1413,1419,1426,1432,1446,1470,1484,1502,1524,1524,1528,1528,1520,1513,1505,1491,1480,1470,1456,1442,1403,1385,1363,1343,1328,1300,1295,1290,1284,1274,1271,1268,1268,1268,1268,1268,1268,1271,1274,1276,1282,1287,1303,1314,1325,1357,1378,1394,1439,1470,1495,1524,1539,1547,1555,1566,1566,1562,1566,1566,1562,1562,1562,1562,1562,1558,1555,1551,1555,1547,1543,1547,1551,1555,1558,1558,1558,1558,1555,1547,1543,1539,1535,1539,1543,1539,1543,1543,1543,1551,1555,1555,1555,1551,1551,1547,1547,1539,1535,1535,1532,1528,1524,1524,1524,1524,1532,1535,1539,1539,1543,1539,1535,1528,1524,1520,1520,1520,1524,1528,1528,1532,1539,1539,1543,1547,1551,1555,1558,1562,1570,1574,1574,1582,1586,1590,1599,1607,1628,1637,1637,1645,1645,1645
1266,1263,1261,1258,1253,1251,1248,1246,1238,1236,1231,1228,1223,1219,1219,1216,1214,1214,1214,1216,1216,1216,1216,1214,1211,1211,1207,1204,1202,1202,1202,1202,1202,1202,1202,1202,1204,1204,1204,1204,1207,1207,1207,1209,1209,1209,1211,1211,1211,1214,1214,1219,1221,1223,1231,1236,1238,1243,1256,1261,1268,1287,1298,1306,1325,1337,1345,1354,1366,1372,1381,1394,1397,1403,1406,1419,1429,1439,1484,1517,1562,1624,1663,1699,1704,1690,1632,1641,1513,1442,0,1345,1317,1317,1320,1320,1323,1325,1334,1337,1343,1348,1360,1366,1375,1385,1388,1388,1391,1388,1375,1354,1314,1268,1238,1204,1173,1162,1153,1147,1142,1140,1136,1132,1132,1132,1132,1151,1191,0,1473,1491,1502,1509,1513,1509,1509,1505,1505,1502,1498,1491,1487,1484,1484,1480,0,0,0,0,0,0,0,0,0,0,0,0,0,1599,1595,1590,1590,1586,1562,1539,1513,1487,1446,1432,1423,1413,1410,1406,1410,1413,1419,1436,1446,1459,1473,1498,1509,1520,1532,1532,1528,1520,1517,1509,1502,1487,1484,1473,1463,1453,1423,1400,1381,1354,1337,1306,1295,1290,1282,1274,1271,1268,1266,1266,1266,1266,1268,1266,1271,1274,1276,1282,1295,1306,1314,1343,0,1381,1426,1459,1487,1528,1535,1551,1558,1566,1566,1566,1566,1566,1566,1566,1566,1566,1566,1562,1562,1558,1555,1555,1551,1551,1558,1558,1566,1566,1566,1562,1558,1551,1547,1543,1539,1539,1539,1539,1539,1543,1547,1551,1555,1555,1555,1551,1551,1547,1547,1539,1539,1535,1535,1532,1528,1528,1532,1532,1535,1539,1543,1543,1543,1539,1539,1532,1528,1528,1524,1528,1535,1535,1539,1543,1551,1555,1558,1558,1566,1570,1570,1574,1582,1586,1590,1595,1603,1611,1615,1624,1641,1650,1650,1650,1650,1645
1256,1253,1243,1241,1241,1241,1241,1238,1233,1231,1228,1226,1221,1219,1216,1214,1211,1211,1211,1211,1211,1211,1211,1211,1209,1207,1207,1204,1202,1202,1202,1202,1202,1202,1204,1204,1204,1204,1204,1204,1207,1207,1207,1207,1207,1207,1209,1209,1211,1211,1211,1216,1216,1219,1226,1228,1233,1238,1246,1251,1258,1276,1287,1300,1320,1331,1340,1348,1360,1366,1372,1385,1391,1397,1403,1419,1429,1442,1502,1535,1619,1663,1704,1742,1752,1747,1728,1686,0,0,0,0,1317,1317,1317,1320,1320,1323,1328,1331,1334,1340,1351,1357,1363,1375,1381,1385,1388,1388,1378,1363,1323,0,0,0,1191,1168,1157,1149,1144,1140,1136,1132,1132,1132,1132,1164,0,0,1442,1491,1495,1502,1502,1505,1502,1498,1495,1491,1487,1480,1470,1470,1463,0,0,0,0,0,0,0,0,0,0,0,0,0,0,1599,1599,1595,1590,1574,1543,1517,1491,1463,1446,1419,1413,1406,1403,1403,1406,1416,1423,1439,1453,1466,1480,1505,1517,1524,1532,1528,1524,1513,1509,1502,1495,1487,1480,1477,1470,1463,1436,1416,1391,1369,1345,1309,1300,1292,1287,1276,1274,1268,1266,1266,1263,1266,1266,1266,1268,1271,1274,1279,1290,1298,1306,1320,1345,0,1385,1453,1484,1532,1543,1555,1562,1570,1570,1570,1570,1574,1574,1570,1574,1570,1574,1566,1570,1566,1562,1558,1562,1562,1570,1570,1574,1574,1570,1562,1562,1555,1547,1543,1543,1543,1543,1539,1543,1543,1547,1547,1555,1558,1555,1555,1555,1551,1551,1543,1543,1539,1539,1535,1535,1535,1535,1539,1539,1539,1543,1543,1543,1539,1539,1535,1532,1532,1532,1532,1539,1547,1551,1558,1562,1566,1570,1570,1578,1582,1586,1590,1595,1599,1603,1607,1619,1624,1632,1650,1650,1654,1654,1650,1650,1645
1236,1236,1236,1236,1236,1236,1236,1233,1231,1231,1228,1226,1221,1219,1216,1214,1211,1211,1211,1209,1209,1209,1209,1209,1207,1207,1207,1204,1202,1202,1202,1202,1202,1202,1204,1204,1204,1204,1207,1207,1207,1207,1207,1207,1207,1207,1207,1209,1209,1209,1211,1214,1216,1219,1223,1228,1231,1236,1243,1248,1256,1274,1287,1298,1320,1328,1340,1348,1357,1363,1369,1381,1388,1394,1403,1423,1432,1449,1505,1547,1624,1663,1695,1737,1742,1747,1742,1713,0,0,0,0,0,1314,1314,1317,1320,1320,1325,1325,1328,1334,1343,1348,1354,1369,1375,1378,1385,1385,1378,1369,1337,0,0,0,1197,1173,1159,1149,1147,1140,1136,1132,1132,1130,1130,1173,0,1375,1463,1484,1484,1491,1495,1495,1495,1491,1487,1484,1477,1466,1463,1459,1446,0,0,0,0,0,0,0,0,0,0,0,0,0,0,0,1562,1558,1547,1543,1513,1487,1463,0,1426,1410,1400,1400,1403,1400,1406,1413,1419,1446,1459,1473,1491,1517,1524,1528,1528,1528,1520,1509,1502,1498,1495,1484,1480,1477,1473,1466,1442,1423,1403,1378,1357,1323,1311,1303,1295,1284,1276,1271,1268,1266,1263,1263,1263,1263,1263,1268,1268,1274,1284,1290,1295,1303,1323,1345,0,1449,1484,1539,1547,1558,1570,1578,1578,1574,1578,1578,1578,1578,1578,1574,1578,1574,1570,1570,1570,1566,1570,1570,1574,1574,1578,1578,1578,1566,1566,1555,1551,1547,1547,1547,1547,1543,1551,1551,1551,1555,1558,1558,1558,1558,1558,1555,1551,1551,1547,1547,1547,1551,1547,1547,1551,1547,1547,1551,1551,1547,1543,1539,1539,1535,1535,1535,1539,1543,1558,1566,1574,1578,1590,1595,1599,1603,1607,1611,1611,1619,1624,1632,1637,1641,1650,1658,1658,1672,1676,1672,1663,1658,1654,1650
