# .PCD v0.7 - Point Cloud Data file format
VERSION 0.7
FIELDS x y z
SIZE 4 4 4
TYPE F F F
COUNT 1 1 1
WIDTH 1679
HEIGHT 1
VIEWPOINT 0 0 0 1 0 0 0
POINTS 1679
DATA ascii
-53.77608746 -18.5472703 929
-48.97168467 -18.5472703 929
-44.16728188 -18.5472703 929
-39.40525032 -18.56723507 930
-34.59567595 -18.56723507 930
-29.78610157 -18.56723507 930
-24.89595775 -18.50734076 927
-20.08021323 -18.48737599 926
-15.25829858 -18.44744645 924
-10.47975371 -18.44744645 924
-5.695038708 -18.42748169 923
-0.9216654279 -18.42748169 923
3.855880883 -18.44744645 924
8.662459598 -18.50734076 927
13.50006782 -18.56723507 930
18.42776893 -18.68702368 936
23.31809156 -18.72695322 938
28.34922437 -18.84674183 944
33.30160603 -18.88667137 946
38.35542229 -18.96653045 950
43.31397408 -18.98649521 951
48.18143445 -18.96653045 950
53.09444054 -18.96653045 950
58.00744662 -18.96653045 950
62.7879886 -18.92660091 948
67.40503695 -18.84674183 944
71.82756216 -18.72695322 938
76.59676241 -18.70698845 937
81.18178269 -18.64709414 934
86.01204341 -18.64709414 934
90.45325786 -18.56723507 930
94.95553278 -18.50734076 927
99.7495924 -18.50734076 927
104.543652 -18.50734076 927
109.3377116 -18.50734076 927
114.1317713 -18.50734076 927
118.7975398 -18.48737599 926
123.5864278 -18.48737599 926
127.5435104 -18.36758738 920
132.3013689 -18.36758738 920
136.91025 -18.34762261 919
141.6629369 -18.34762261 919
146.2563033 -18.32765784 918
151.1683108 -18.34762261 919
155.9209978 -18.34762261 919
160.6736847 -18.34762261 919
165.4263716 -18.34762261 919
170.3642371 -18.36758738 920
175.1220956 -18.36758738 920
179.8799541 -18.36758738 920
184.2364261 -18.32765784 918
188.3663469 -18.26776353 915
192.4652381 -18.20786923 912
196.965516 -18.18790446 911
201.0126914 -18.12801015 908
205.4819397 -18.10804538 907
209.709122 -18.06811585 905
214.1525124 -18.04815108 904
218.3434936 -18.00822154 902
223.0082636 -18.00822154 902
227.1682153 -17.968292 900
231.5650614 -17.94832723 899
236.2143167 -17.94832723 899
241.1314958 -17.968292 900
246.3321135 -18.00822154 902
251.2751506 -18.02818631 903
256.5119694 -18.06811585 905
263.2125258 -18.20786923 912
268.810357 -18.26776353 915
274.7381712 -18.34762261 919
281.923858 -18.50734076 927
287.6458073 -18.56723507 930
293.3987862 -18.62712937 933
298.543515 -18.64709414 934
305.3226437 -18.76688276 940
310.5139168 -18.78684753 941
316.0506876 -18.82677706 943
320.2468405 -18.78684753 941
324.7678046 -18.76688276 940
329.6290948 -18.76688276 940
333.7787034 -18.72695322 938
339.7126877 -18.78684753 941
344.2129655 -18.76688276 940
349.0742558 -18.76688276 940
354.3120732 -18.78684753 941
359.9419325 -18.82677706 943
364.0449968 -18.78684753 941
368.5194167 -18.76688276 940
370.9974258 -18.64709414 934
374.2181461 -18.56723507 930
377.8050504 -18.50734076 927
381.3609252 -18.44744645 924
385.3036704 -18.40751692 922
390.0718721 -18.40751692 922
395.2683168 -18.42748169 923
401.3419339 -18.48737599 926
407.8851668 -18.56723507 930
415.3572878 -18.68702368 936
420.6468211 -18.70698845 937
425.9466975 -18.72695322 938
430.7976446 -18.72695322 938
434.7197034 -18.68702368 936
438.6210759 -18.64709414 934
442.0269747 -18.58719984 931
444.4419262 -18.48737599 926
447.7754229 -18.42748169 923
450.5875879 -18.34762261 919
453.3583803 -18.26776353 915
456.0878 -18.18790446 911
458.775847 -18.10804538 907
762.3682921 -29.48796365 1477
771.5707183 -29.54785796 1480
781.3306773 -29.62771703 1484
790.6003341 -29.68761134 1487
-187.8939849 -13.71328114 927
-182.5073689 -13.66890159 924
-178.1135184 -13.69848796 926
-173.3246304 -13.69848796 926
-168.7177464 -13.71328114 927
-164.2773517 -13.74286751 929
-159.6446098 -13.75766069 930
-154.8350354 -13.75766069 930
-150.1867787 -13.77245387 931
-145.8404711 -13.81683343 934
-141.0102104 -13.81683343 934
-136.6173585 -13.86121298 937
-132.1934771 -13.90559253 940
-127.7385662 -13.94997208 943
-122.9920494 -13.96476526 944
-118.360306 -13.99435163 946
-113.5879313 -14.00914481 947
-97.95558494 -13.87600616 938
-92.90612053 -13.84641979 936
-87.78325537 -13.80204024 933
-82.78033522 -13.77245387 931
-77.63061358 -13.71328114 927
-72.75798163 -13.69848796 926
-67.82229209 -13.66890159 924
-62.77083057 -13.60972886 920
-58.01297205 -13.60972886 920
-53.25511353 -13.60972886 920
-48.497255 -13.60972886 920
-43.69185366 -13.59493567 919
-38.93916672 -13.59493567 919
-34.18647978 -13.59493567 919
-29.40176478 -13.58014249 918
-24.57367998 -13.53576294 915
-19.79830959 -13.50617657 913
-15.06013886 -13.49138339 912
-10.34365301 -13.49138339 912
-5.627167174 -13.49138339 912
-0.9096827788 -13.4765902 911
3.805804508 -13.49138339 912
8.578358048 -13.58014249 918
13.35490581 -13.60972886 920
18.23089105 -13.69848796 926
23.14407595 -13.77245387 931
28.04891479 -13.81683343 934
32.98478314 -13.86121298 937
37.951681 -13.90559253 940
42.85851694 -13.92038571 941
47.72497876 -13.92038571 941
52.53555169 -13.90559253 940
57.21366051 -13.86121298 937
61.99320393 -13.84641979 936
66.69100054 -13.81683343 934
70.98523467 -13.71328114 927
75.69754748 -13.69848796 926
80.31259872 -13.66890159 924
85.09114359 -13.66890159 924
89.38338062 -13.59493567 919
94.13606755 -13.59493567 919
98.88875449 -13.59493567 919
103.7542178 -13.60972886 920
108.5120763 -13.60972886 920
113.2699348 -13.60972886 920
117.8995022 -13.59493567 919
122.6521892 -13.59493567 919
127.2662419 -13.58014249 918
131.7261456 -13.55055612 916
136.4633177 -13.55055612 916
141.0463409 -13.53576294 915
145.7783415 -13.53576294 915
150.5103421 -13.53576294 915
155.4120065 -13.55055612 916
159.9743433 -13.53576294 915
164.7063439 -13.53576294 915
179.0978674 -13.55055612 916
183.2329597 -13.50617657 913
187.5428874 -13.4765902 911
191.8321288 -13.44700384 909
196.1006838 -13.41741747 907
200.1271729 -13.37303792 904
204.5757349 -13.35824474 903
209.0139536 -13.34345155 902
213.6787236 -13.34345155 902
217.8593617 -13.31386518 900
222.266551 -13.299072 899
226.9158062 -13.299072 899
231.3074807 -13.28427882 898
235.9515644 -13.28427882 898
240.595648 -13.28427882 898
245.5128271 -13.299072 899
250.4403494 -13.31386518 900
255.6616535 -13.34345155 902
262.0580849 -13.43221065 908
267.6352298 -13.4765902 911
272.9444508 -13.50617657 913
279.7949831 -13.60972886 920
285.4807314 -13.65410841 923
291.5119772 -13.71328114 927
296.3060369 -13.71328114 927
302.3993418 -13.77245387 931
307.8740536 -13.80204024 933
321.6583256 -13.77245387 931
326.4730716 -13.77245387 931
335.7415511 -13.75766069 930
341.6496775 -13.80204024 933
346.4747666 -13.80204024 933
352.4294373 -13.84641979 936
357.6517399 -13.86121298 937
362.1106451 -13.84641979 936
366.1671651 -13.81683343 934
369.4085717 -13.75766069 930
372.6086057 -13.69848796 926
376.1748237 -13.65410841 923
379.2972839 -13.59493567 919
383.6320709 -13.58014249 918
387.5334434 -13.55055612 916
392.2706156 -13.55055612 916
398.3080316 -13.59493567 919
404.3764771 -13.63931522 922
410.0321944 -13.66890159 924
417.0553861 -13.74286751 929
422.3138899 -13.75766069 930
427.1234643 -13.75766069 930
431.9330386 -13.75766069 930
435.3337659 -13.71328114 927
443.0020496 -13.65410841 923
445.3497705 -13.58014249 918
448.6263797 -13.53576294 915
454.5858643 -13.43221065 908
454.7293125 -13.299072 899
457.8456026 -13.25469245 896
460.4147031 -13.19551972 892
773.6560446 -21.95308437 1484
782.9101867 -21.99746392 1487
790.6003341 -21.99746392 1487
800.4378668 -22.05663666 1491
-196.6374219 -9.102031885 946
-186.0697714 -8.832627136 918
-179.5445869 -8.746032752 909
-175.2283102 -8.765275948 911
-170.1426447 -8.746032752 909
-165.8056817 -8.765275948 911
-161.2711999 -8.774897546 912
-156.726375 -8.784519145 913
-152.3376961 -8.803762341 915
-147.7670132 -8.813383939 916
-143.029841 -8.813383939 916
-138.896567 -8.851870332 920
-134.5761173 -8.880735126 923
-129.9433753 -8.890356725 924
-126.1130489 -8.957707912 931
-121.5588793 -8.976951108 933
-117.2342566 -9.015437501 937
-96.07584024 -8.851870332 920
-91.21872304 -8.842248734 919
-86.37194901 -8.832627136 918
-81.62443366 -8.832627136 918
-76.8769183 -8.832627136 918
-71.97225828 -8.813383939 916
-67.2350861 -8.813383939 916
-62.49791392 -8.813383939 916
-57.76074174 -8.813383939 916
-53.02356955 -8.813383939 916
-48.28639737 -8.813383939 916
-43.50168237 -8.803762341 915
-38.6849393 -8.784519145 913
-33.96328187 -8.784519145 913
-29.20959638 -8.774897546 912
-24.41254109 -8.746032752 909
-19.66820022 -8.726789555 907
-14.9775723 -8.726789555 907
-10.28694439 -8.726789555 907
-5.596316476 -8.726789555 907
-0.9056885624 -8.726789555 907
3.789112383 -8.736411154 908
8.522290349 -8.774897546 912
13.296841 -8.813383939 916
18.09307654 -8.842248734 919
22.97006034 -8.890356725 924
27.92879096 -8.948086314 930
32.77356788 -8.957707912 931
37.70943623 -8.986572707 934
42.63078837 -9.005815903 936
47.47139226 -9.005815903 936
52.1443295 -8.976951108 933
56.78623722 -8.948086314 930
61.52957954 -8.938464716 929
66.11977141 -8.909599921 926
70.60235854 -8.871113528 922
75.20706661 -8.851870332 920
79.61725155 -8.813383939 916
84.35442373 -8.813383939 916
88.99433435 -8.803762341 915
93.72633494 -8.803762341 915
98.56594028 -8.813383939 916
103.3031125 -8.813383939 916
108.0402846 -8.813383939 916
112.7774568 -8.813383939 916
117.3863379 -8.803762341 915
122.1183385 -8.803762341 915
126.5730706 -8.784519145 913
131.294728 -8.784519145 913
135.8674081 -8.774897546 912
140.5838939 -8.774897546 912
145.1410591 -8.765275948 911
149.8523734 -8.765275948 911
154.7333514 -8.774897546 912
159.2750019 -8.765275948 911
163.9863162 -8.765275948 911
168.6976304 -8.765275948 911
173.4089447 -8.765275948 911
178.1202589 -8.765275948 911
182.2294934 -8.736411154 908
186.719428 -8.726789555 907
190.7769466 -8.697924761 904
195.2358517 -8.688303163 903
199.2416544 -8.659438368 900
203.66953 -8.64981677 899
208.0870625 -8.640195172 898
212.7311461 -8.640195172 898
216.8910979 -8.620951975 896
221.5248383 -8.620951975 896
226.1585788 -8.620951975 896
230.5347386 -8.611330377 895
235.4260598 -8.620951975 896
240.0598002 -8.620951975 896
244.6935407 -8.620951975 896
249.8838153 -8.640195172 898
254.8113376 -8.64981677 899
260.6150337 -8.688303163 903
265.8725389 -8.707546359 905
271.4496839 -8.736411154 908
278.2743582 -8.803762341 915
283.9342485 -8.832627136 918
289.3107002 -8.851870332 920
294.0685587 -8.851870332 920
299.8008512 -8.880735126 923
304.9042074 -8.890356725 924
310.3530612 -8.909599921 926
315.1419493 -8.909599921 926
323.6677176 -8.880735126 923
328.4410909 -8.880735126 923
333.2144642 -8.880735126 923
339.0863894 -8.909599921 926
344.2466331 -8.919221519 927
350.1702742 -8.948086314 930
354.9798486 -8.948086314 930
360.1762933 -8.957707912 931
364.9910393 -8.957707912 931
369.0113582 -8.938464716 929
370.9990653 -8.871113528 922
374.1370402 -8.832627136 918
377.6463708 -8.803762341 915
381.1246718 -8.774897546 912
384.5719433 -8.746032752 909
390.1294004 -8.765275948 911
395.2741293 -8.774897546 912
401.3063737 -8.803762341 915
407.3696477 -8.832627136 918
413.0150218 -8.851870332 920
418.6810822 -8.871113528 922
423.9085565 -8.880735126 923
428.2174856 -8.871113528 922
432.9856873 -8.871113528 922
436.8043144 -8.851870332 920
440.6022552 -8.832627136 918
442.4389877 -8.774897546 912
445.6845674 -8.746032752 909
449.3945912 -8.726789555 907
452.5832834 -8.697924761 904
453.2118621 -8.620951975 896
456.8236258 -8.601708779 894
459.3823832 -8.563222386 890
463.9850941 -8.563222386 890
468.0613019 -8.553600788 889
471.0638171 -8.524735994 886
800.4378668 -14.3458029 1491
808.1487006 -14.3458029 1491
815.8595344 -14.3458029 1491
-178.3594741 -4.01836159 903
-174.074227 -4.027261616 905
-169.3939422 -4.027261616 905
-164.7136575 -4.027261616 905
-160.0333727 -4.027261616 905
-155.6964097 -4.036161641 907
-151.1722711 -4.040611654 908
-146.9604247 -4.053961693 911
-142.5614027 -4.062861718 913
-138.1416943 -4.071761744 915
-133.8471025 -4.085111783 918
-129.3808499 -4.094011808 920
-125.5712098 -4.125161898 927
-121.1680147 -4.138511937 930
-116.8589068 -4.156311988 934
-90.52391231 -4.058411706 912
-85.80742647 -4.058411706 912
-81.09094063 -4.058411706 912
-76.45819871 -4.062861718 913
-71.73654128 -4.062861718 913
-67.01488385 -4.062861718 913
-62.29322643 -4.062861718 913
-57.571569 -4.062861718 913
-52.79202558 -4.058411706 912
-48.07553974 -4.058411706 912
-43.31151108 -4.053961693 911
-38.51545435 -4.045061667 909
-33.77728361 -4.040611654 908
-29.04945605 -4.036161641 907
-24.27825869 -4.022811603 904
-19.55977574 -4.013911577 902
-14.89500575 -4.013911577 902
-10.23023577 -4.013911577 902
-5.565465779 -4.013911577 902
-0.9006957919 -4.013911577 902
3.768247227 -4.01836159 903
8.456878033 -4.027261616 905
13.22425999 -4.053961693 911
17.95526203 -4.058411706 912
22.82090411 -4.085111783 918
27.68854329 -4.102911834 922
32.49194753 -4.107361847 923
37.42681732 -4.125161898 927
42.31196837 -4.134061924 929
47.01493657 -4.125161898 927
51.64132953 -4.11181186 924
56.4198744 -4.11181186 924
61.06595515 -4.102911834 922
65.69134957 -4.094011808 920
70.14290718 -4.076211757 916
74.88007937 -4.076211757 916
79.35649636 -4.062861718 913
84.07815378 -4.062861718 913
88.70254964 -4.058411706 912
93.41903548 -4.058411706 912
98.13552132 -4.058411706 912
102.8520072 -4.058411706 912
107.568493 -4.058411706 912
112.2849788 -4.058411706 912
117.0014647 -4.058411706 912
121.7179505 -4.058411706 912
126.2958021 -4.053961693 911
130.7195047 -4.045061667 909
135.4204758 -4.045061667 909
139.9672979 -4.040611654 908
144.6630974 -4.040611654 908
149.3588969 -4.040611654 908
154.0546964 -4.040611654 908
158.7504959 -4.040611654 908
163.2662884 -4.036161641 907
167.9569163 -4.036161641 907
172.6475443 -4.036161641 907
177.3381722 -4.036161641 907
181.4267203 -4.022811603 904
185.8959686 -4.01836159 903
189.9328008 -4.005011552 900
194.5872276 -4.005011552 900
198.7988952 -3.996111526 898
202.9898764 -3.9872115 896
207.3918941 -3.982761487 895
212.020463 -3.982761487 895
216.6490319 -3.982761487 895
221.0303633 -3.978311475 894
225.6537606 -3.978311475 894
230.2771579 -3.978311475 894
234.9005552 -3.978311475 894
239.7918764 -3.982761487 895
244.4204452 -3.982761487 895
249.0490141 -3.982761487 895
253.9610217 -3.9872115 896
259.749203 -4.005011552 900
264.9911935 -4.013911577 902
270.2538703 -4.022811603 904
276.4496083 -4.045061667 909
281.7691726 -4.053961693 911
287.1094231 -4.062861718 913
291.8310805 -4.062861718 913
295.9031153 -4.053961693 911
300.6144296 -4.053961693 911
305.3257438 -4.053961693 911
309.3564059 -4.045061667 909
314.057377 -4.045061667 909
320.8623636 -4.071761744 915
323.4593192 -4.045061667 909
328.1602903 -4.045061667 909
334.3259974 -4.062861718 913
339.790366 -4.071761744 915
346.0284753 -4.089561795 919
350.7811622 -4.089561795 919
357.0813306 -4.107361847 923
361.8547038 -4.107361847 923
366.2308636 -4.102911834 922
368.5847547 -4.076211757 916
372.0992568 -4.062861718 913
375.1700011 -4.045061667 909
379.4530723 -4.040611654 908
382.4565861 -4.022811603 904
387.1316992 -4.022811603 904
391.8068124 -4.022811603 904
396.9205117 -4.027261616 905
402.488312 -4.036161641 907
408.0767987 -4.045061667 909
412.7777698 -4.045061667 909
418.397286 -4.053961693 911
423.1086002 -4.053961693 911
426.880683 -4.045061667 909
431.5816541 -4.045061667 909
435.3227074 -4.036161641 907
438.557944 -4.022811603 904
441.2718489 -4.005011552 900
444.9353284 -3.996111526 898
448.5781216 -3.9872115 896
450.6827781 -3.964961436 891
454.7796722 -3.960511423 890
457.8339032 -3.947161385 887
462.4210994 -3.947161385 887
466.4817925 -3.942711372 886
470.5321424 -3.938261359 885
474.5721491 -3.933811346 884
810.3167722 -6.652769188 1495
818.0482923 -6.652769188 1495
823.5703681 -6.634969137 1491
-177.5693989 0.6486936925 899
-173.4971853 0.6508584101 902
-168.4580641 0.6494152651 900
-164.1676453 0.6508584101 902
-159.5028754 0.6508584101 902
-155.1814271 0.6523015551 904
-150.6728032 0.6530231276 905
-146.4764716 0.6551878452 908
-142.2491104 0.6573525627 911
-137.6887707 0.6580741353 912
-133.5554967 0.6609604253 916
-129.3808499 0.6638467154 920
-125.1648305 0.6667330055 924
-95.13596789 0.6573525627 911
-90.22613628 0.6559094177 909
-85.5251652 0.6559094177 909
-81.00202512 0.6573525627 911
-76.37445479 0.6580741353 912
-71.65796895 0.6580741353 912
-67.01488385 0.6587957078 913
-62.29322643 0.6587957078 913
-57.571569 0.6587957078 913
-52.79202558 0.6580741353 912
-48.02282533 0.6573525627 911
-43.21642543 0.6559094177 909
-38.43071188 0.6544662727 907
-33.74008396 0.6544662727 907
-28.95337185 0.6523015551 904
-24.25140221 0.6515799826 903
-19.51640595 0.6494152651 900
-14.86197913 0.6494152651 900
-10.20755232 0.6494152651 900
-5.5531255 0.6494152651 900
-0.8986986837 0.6494152651 900
3.764074195 0.6508584101 902
8.438188799 0.6515799826 903
13.18071138 0.6551878452 908
17.89619867 0.6559094177 909
22.67174787 0.6580741353 912
27.47832659 0.6602388528 915
32.24552973 0.6609604253 916
37.06345017 0.6624035704 918
41.85651123 0.6631251429 919
46.55848087 0.6624035704 918
51.19421846 0.6609604253 916
56.05351158 0.6624035704 918
60.60233076 0.6602388528 915
65.33433136 0.6602388528 915
69.83660628 0.6580741353 912
74.55309212 0.6580741353 912
79.26957796 0.6580741353 912
83.9860638 0.6580741353 912
88.60528808 0.6573525627 911
93.31660233 0.6573525627 911
98.02791659 0.6573525627 911
102.7392308 0.6573525627 911
107.0967014 0.6551878452 908
111.7925009 0.6551878452 908
116.3600093 0.6544662727 907
121.0506372 0.6544662727 907
125.7412651 0.6544662727 907
130.431893 0.6544662727 907
134.8245661 0.6530231276 905
139.5048508 0.6530231276 905
144.1851356 0.6530231276 905
148.8654203 0.6530231276 905
153.5457051 0.6530231276 905
158.2259898 0.6530231276 905
162.7262676 0.6523015551 904
167.4013808 0.6523015551 904
171.8861438 0.6515799826 903
176.5560854 0.6515799826 903
180.6239472 0.6494152651 900
185.0725091 0.6486936925 899
189.5107279 0.64797212 898
194.1548116 0.64797212 898
198.1347564 0.6458074025 895
202.536774 0.64508583 894
207.1601713 0.64508583 894
211.3097799 0.6436426849 892
215.922834 0.6436426849 892
220.5358882 0.6436426849 892
224.8965332 0.6429211124 891
229.5044157 0.6429211124 891
234.3750506 0.6436426849 892
238.9881047 0.6436426849 892
243.6011588 0.6436426849 892
248.7707471 0.64508583 894
253.677583 0.6458074025 895
258.5947621 0.646528975 896
263.8160662 0.64797212 898
268.7591033 0.6486936925 899
273.7124835 0.6494152651 900
279.2948 0.6515799826 903
284.2792097 0.6523015551 904
288.9543229 0.6523015551 904
293.6294361 0.6523015551 904
298.3045492 0.6523015551 904
302.9796624 0.6523015551 904
307.3144495 0.6515799826 903
311.984391 0.6515799826 903
316.6543326 0.6515799826 903
321.3242742 0.6515799826 903
325.9942157 0.6515799826 903
332.1288933 0.6544662727 907
337.5622324 0.6559094177 909
343.0162579 0.6573525627 911
348.4909697 0.6587957078 913
354.3732381 0.6609604253 916
359.1104103 0.6609604253 916
366.9752143 0.6580741353 912
370.46903 0.6559094177 909
374.3445446 0.6544662727 907
378.1993728 0.6530231276 905
381.6104432 0.6508584101 902
385.4187271 0.6494152651 900
390.0731539 0.6494152651 900
394.7275807 0.6494152651 900
400.2695231 0.6508584101 902
404.9342931 0.6508584101 902
410.053164 0.6515799826 903
414.7231056 0.6515799826 903
419.8574913 0.6523015551 904
424.5326045 0.6523015551 904
428.7329303 0.6515799826 903
432.922913 0.6508584101 902
436.1322916 0.6486936925 899
438.8203386 0.6458074025 895
442.9534339 0.64508583 894
446.5755407 0.6436426849 892
449.6711444 0.6414779674 889
453.246707 0.6400348223 887
457.3177432 0.6393132498 886
461.8997679 0.6393132498 886
465.9552893 0.6385916773 885
470.5321424 0.6385916773 885
474.5721491 0.6378701048 884
479.1438305 0.6378701048 884
818.0482923 1.078750913 1495
823.5703681 1.075864622 1491
-176.5818049 5.268483134 894
-172.3431021 5.28026945 896
-167.5221859 5.274376292 895
-163.0756211 5.28026945 896
-158.7955455 5.292055766 898
-154.3231228 5.297948924 899
-150.1733354 5.315628397 902
-145.9925185 5.333307871 905
-141.624526 5.345094187 907
-137.0848726 5.350987345 908
-132.8264819 5.368666818 911
-128.8183245 5.398132608 916
-104.6733698 5.374559976 912
-99.62807845 5.356880502 909
-94.71824684 5.345094187 907
-89.82910158 5.333307871 905
-85.05472974 5.327414713 904
-80.37961659 5.327414713 904
-75.95573519 5.345094187 907
-71.34367961 5.350987345 908
-66.64788011 5.350987345 908
-62.02030977 5.356880502 909
-57.31933869 5.356880502 909
-52.56048161 5.350987345 908
-47.8119677 5.345094187 907
-43.02625414 5.333307871 905
-38.30359816 5.327414713 904
-33.5540857 5.315628397 902
-28.82525958 5.303842082 900
-24.14397629 5.297948924 899
-19.47303616 5.292055766 898
-14.79592589 5.28026945 896
-10.16218542 5.28026945 896
-5.528444943 5.28026945 896
-0.8947044674 5.28026945 896
3.739036008 5.28026945 896
8.372776483 5.28026945 896
13.03554936 5.292055766 898
17.6993208 5.297948924 899
22.3734354 5.303842082 900
27.08792413 5.315628397 902
31.78789666 5.321521555 903
36.45783824 5.321521555 903
41.21887124 5.333307871 905
45.89915598 5.333307871 905
50.57944072 5.333307871 905
55.25972547 5.333307871 905
60.07247432 5.345094187 907
64.76310223 5.345094187 907
69.45373015 5.345094187 907
74.22610487 5.350987345 908
78.92190437 5.350987345 908
83.61770387 5.350987345 908
88.21624181 5.345094187 907
92.90686972 5.345094187 907
97.59749763 5.345094187 907
102.2881255 5.345094187 907
106.9787535 5.345094187 907
111.4231424 5.333307871 905
116.1034271 5.333307871 905
120.7837119 5.333307871 905
125.4639966 5.333307871 905
130.1442814 5.333307871 905
134.6755887 5.327414713 904
139.3507018 5.327414713 904
144.025815 5.327414713 904
148.8654203 5.333307871 905
153.5457051 5.333307871 905
158.2259898 5.333307871 905
162.7262676 5.327414713 904
167.4013808 5.327414713 904
171.8861438 5.321521555 903
176.5560854 5.321521555 903
180.6239472 5.303842082 900
185.0725091 5.297948924 899
189.5107279 5.292055766 898
193.7223955 5.28026945 896
197.9133767 5.268483134 894
202.0836716 5.256696819 892
206.6967258 5.256696819 892
211.0728855 5.250803661 891
215.4387021 5.244910503 890
220.0414131 5.244910503 890
224.644124 5.244910503 890
229.246835 5.244910503 890
233.849546 5.244910503 890
238.7201808 5.250803661 891
243.6011588 5.256696819 892
248.214213 5.256696819 892
253.3941444 5.268483134 894
258.3061519 5.274376292 895
263.2285026 5.28026945 896
268.4601499 5.292055766 898
273.4083585 5.297948924 899
278.3669103 5.303842082 900
283.0213371 5.303842082 900
287.6757639 5.303842082 900
292.0053794 5.297948924 899
296.6546347 5.297948924 899
301.3038899 5.297948924 899
305.9531451 5.297948924 899
310.2569027 5.292055766 898
314.9009863 5.292055766 898
319.54507 5.292055766 898
324.1891536 5.292055766 898
330.2979733 5.315628397 902
334.9627433 5.315628397 902
340.3805676 5.327414713 904
346.2007771 5.345094187 907
351.6651457 5.356880502 909
356.3661168 5.356880502 909
361.8615149 5.368666818 911
364.9632887 5.345094187 907
368.8388033 5.333307871 905
373.1063597 5.327414713 904
377.363573 5.321521555 903
380.3412288 5.297948924 899
384.9904841 5.297948924 899
388.3394955 5.28026945 896
392.9732359 5.28026945 896
397.6069764 5.28026945 896
402.2407169 5.28026945 896
406.8744574 5.28026945 896
412.4267429 5.292055766 898
417.0708266 5.292055766 898
422.1845259 5.297948924 899
426.8337811 5.297948924 899
431.0030775 5.292055766 898
434.1917697 5.274376292 895
437.3494325 5.256696819 892
441.467013 5.250803661 891
445.5742503 5.244910503 890
448.6595108 5.227231029 887
452.2247302 5.215444714 885
456.2854233 5.209551556 884
460.8571047 5.209551556 884
464.3757799 5.19776524 882
470.0004676 5.209551556 884
474.5721491 5.209551556 884
479.1438305 5.209551556 884
483.715512 5.209551556 884
825.7798124 8.810271013 1495
-175.0016546 9.803362493 886
-170.6119771 9.814427236 887
-166.3991322 9.836556723 889
-161.9835969 9.847621466 890
-157.3808859 9.847621466 890
-153.1214967 9.869750953 892
-149.0079104 9.902945182 895
-144.8632946 9.936139412 898
-140.3753571 9.947204155 899
-136.1790254 9.980398385 902
-132.2432702 10.0357221 907
-113.1054087 10.00252787 904
-108.1904055 9.980398385 902
-103.6404089 9.991463128 903
-98.97046737 9.991463128 903
-94.40495606 10.00252787 904
-89.63058423 9.991463128 903
-85.05472974 10.00252787 904
-80.37961659 10.00252787 904
-75.78824735 10.01359261 905
-71.26510727 10.0357221 907
-66.57447936 10.0357221 907
-61.95208061 10.04678684 908
-57.25628111 10.04678684 908
-52.50259562 10.0357221 907
-47.70653889 10.01359261 905
-42.97871132 10.00252787 904
-38.26122693 9.991463128 903
-33.5540857 9.980398385 902
-28.82525958 9.958268898 900
-24.14397629 9.947204155 899
-19.42966637 9.914009925 896
-14.77941258 9.902945182 895
-10.15084369 9.902945182 895
-5.522274803 9.902945182 895
-0.8927073592 9.891880439 894
3.730689945 9.891880439 894
8.35408725 9.891880439 894
12.99200076 9.902945182 895
17.62056965 9.902945182 895
22.27399791 9.914009925 896
26.9678003 9.936139412 898
31.64708649 9.947204155 899
36.33671585 9.958268898 900
41.08223409 9.980398385 902
45.79772138 9.991463128 903
50.46766295 9.991463128 903
55.198665 10.00252787 904
59.94001021 10.01359261 905
64.76310223 10.0357221 907
69.45373015 10.0357221 907
74.14435806 10.0357221 907
78.92190437 10.04678684 908
83.52561389 10.0357221 907
88.21624181 10.0357221 907
92.70200341 10.01359261 905
97.38228816 10.01359261 905
102.0625729 10.01359261 905
106.7428576 10.01359261 905
111.3000229 10.00252787 904
115.9751361 10.00252787 904
120.6502492 10.00252787 904
125.3253624 10.00252787 904
130.0004755 10.00252787 904
134.5266113 9.991463128 903
139.1965528 9.991463128 903
143.8664944 9.991463128 903
148.7009282 10.00252787 904
153.3760413 10.00252787 904
158.0511545 10.00252787 904
162.7262676 10.00252787 904
167.2162023 9.991463128 903
171.8861438 9.991463128 903
176.5560854 9.991463128 903
180.4232539 9.947204155 899
184.8666443 9.936139412 898
189.088655 9.914009925 896
193.5061875 9.902945182 895
197.4706175 9.869750953 892
201.8571204 9.858686209 891
206.2332802 9.847621466 890
210.8359912 9.847621466 890
215.1966362 9.836556723 889
219.7941755 9.836556723 889
224.3917149 9.836556723 889
228.9892543 9.836556723 889
233.5867937 9.836556723 889
238.4522569 9.847621466 890
243.3280634 9.858686209 891
247.9359459 9.858686209 891
252.8272671 9.869750953 892
258.3061519 9.902945182 895
262.9347208 9.902945182 895
267.8622431 9.914009925 896
273.1042335 9.936139412 898
277.7483172 9.936139412 898
281.7634645 9.914009925 896
286.397205 9.914009925 896
290.7061341 9.902945182 895
295.334703 9.902945182 895
299.9632719 9.902945182 895
304.2515147 9.891880439 894
308.874912 9.891880439 894
313.8489786 9.902945182 895
318.1217067 9.891880439 894
322.745104 9.891880439 894
328.1008693 9.914009925 896
332.7346097 9.914009925 896
338.4979318 9.947204155 899
343.5288857 9.958268898 900
349.3439236 9.991463128 903
354.4059071 10.00252787 904
359.0810203 10.00252787 904
363.3537483 9.991463128 903
367.6161332 9.980398385 902
371.4554466 9.958268898 900
376.9456732 9.980398385 902
379.9181574 9.936139412 898
383.705755 9.914009925 896
387.9060808 9.902945182 895
392.5346497 9.902945182 895
395.8319453 9.869750953 892
400.4449994 9.869750953 892
405.0580535 9.869750953 892
409.6711077 9.869750953 892
414.2841618 9.869750953 892
419.8364474 9.891880439 894
424.4598447 9.891880439 894
429.083242 9.891880439 894
432.7363783 9.869750953 892
436.3688284 9.847621466 890
440.9715393 9.847621466 890
445.0736051 9.836556723 889
448.153694 9.803362493 886
451.7137418 9.781233007 884
456.2854233 9.781233007 884
459.8144416 9.75910352 882
464.3757799 9.75910352 882
468.9371182 9.75910352 882
473.4984564 9.75910352 882
478.0597947 9.75910352 882
483.715512 9.781233007 884
488.8395545 9.79229775 885
-165.6504297 14.36915079 885
-161.2555807 14.38538711 886
-156.8503885 14.40162344 887
-152.7781749 14.45033243 890
-148.5084425 14.48280509 892
-144.2180238 14.51527774 894
-140.219211 14.58022306 898
-135.8770764 14.61269571 900
-112.4798257 14.59645939 899
-107.7106254 14.58022306 898
-103.2960886 14.61269571 900
-98.97046737 14.6614047 903
-94.40495606 14.67764103 904
-89.7298429 14.67764103 904
-85.05472974 14.67764103 904
-80.46853209 14.69387736 905
-75.95573519 14.72635001 907
-71.26510727 14.72635001 907
-66.57447936 14.72635001 907
-61.88385145 14.72635001 907
-57.19322353 14.72635001 907
-52.50259562 14.72635001 907
-47.70653889 14.69387736 905
-42.97871132 14.67764103 904
-38.26122693 14.6614047 903
-33.5540857 14.64516837 902
-28.82525958 14.61269571 900
-24.11711981 14.58022306 898
-19.42966637 14.5477504 896
-14.76289927 14.51527774 894
-10.13950197 14.51527774 894
-5.516104664 14.51527774 894
-0.890710251 14.48280509 892
3.718170852 14.46656876 891
8.3260534 14.46656876 891
12.94845215 14.48280509 892
17.56150628 14.48280509 892
22.22427916 14.51527774 894
26.87770743 14.53151407 895
31.50627632 14.53151407 895
36.25596759 14.58022306 898
40.99114267 14.61269571 900
45.74700408 14.64516837 902
50.41177407 14.64516837 902
55.198665 14.67764103 904
59.94001021 14.69387736 905
64.76310223 14.72635001 907
69.45373015 14.72635001 907
74.14435806 14.72635001 907
78.83498598 14.72635001 907
83.52561389 14.72635001 907
88.02171867 14.69387736 905
92.70200341 14.69387736 905
97.27468342 14.67764103 904
101.9497966 14.67764103 904
106.6249097 14.67764103 904
111.3000229 14.67764103 904
115.846845 14.6614047 903
120.5167865 14.6614047 903
125.1867281 14.6614047 903
129.8566697 14.6614047 903
134.5266113 14.6614047 903
139.0424038 14.64516837 902
143.8664944 14.6614047 903
148.7009282 14.67764103 904
153.3760413 14.67764103 904
158.0511545 14.67764103 904
162.7262676 14.67764103 904
167.4013808 14.67764103 904
171.8861438 14.6614047 903
176.5560854 14.6614047 903
180.4232539 14.59645939 899
184.8666443 14.58022306 898
188.8776186 14.53151407 895
193.2899794 14.51527774 894
197.2492379 14.46656876 891
201.6305692 14.45033243 890
206.2332802 14.45033243 890
210.5990968 14.4340961 889
214.7125043 14.40162344 887
219.2997005 14.40162344 887
223.8868967 14.40162344 887
228.4740929 14.40162344 887
233.0612891 14.40162344 887
238.1843331 14.4340961 889
243.0549679 14.45033243 890
247.6576789 14.45033243 890
252.5438285 14.46656876 891
258.0175417 14.51527774 894
262.9347208 14.53151407 895
267.5632897 14.53151407 895
271.8877336 14.51527774 894
276.5111309 14.51527774 894
280.5055919 14.48280509 892
284.7990063 14.46656876 891
288.1076436 14.40162344 887
292.3648569 14.38538711 886
296.611727 14.36915079 885
300.8482539 14.35291446 884
304.7289401 14.3204418 882
310.3422861 14.36915079 885
314.9191391 14.36915079 885
319.4959922 14.36915079 885
324.0728452 14.36915079 885
331.2491874 14.48280509 892
333.9796056 14.40162344 887
338.5668018 14.40162344 887
343.153998 14.40162344 887
348.5252781 14.4340961 889
353.520031 14.45033243 890
358.122742 14.45033243 890
363.1330096 14.46656876 891
368.1536205 14.48280509 892
373.6024743 14.51527774 894
378.6489431 14.53151407 895
382.8492689 14.51527774 894
386.605837 14.48280509 892
391.2188911 14.48280509 892
395.3881875 14.46656876 891
399.5471406 14.45033243 890
403.6957507 14.4340961 889
408.29329 14.4340961 889
411.9619412 14.40162344 887
416.5491374 14.40162344 887
422.0859082 14.4340961 889
426.6834475 14.4340961 889
430.310726 14.40162344 887
434.8979222 14.40162344 887
438.9896448 14.38538711 886
443.5716694 14.38538711 886
447.6478772 14.36915079 885
450.691765 14.3204418 882
454.7369433 14.30420547 881
459.8144416 14.3204418 882
463.8492767 14.30420547 881
468.4054434 14.30420547 881
473.4984564 14.3204418 882
479.1438305 14.35291446 884
483.715512 14.35291446 884
488.8395545 14.36915079 885
-164.9017272 18.86037217 881
-160.8915726 18.92459591 884
-156.3198912 18.92459591 884
-152.2631923 18.98881965 887
-148.175464 19.05304339 890
-143.8953884 19.09585922 892
-139.7507726 19.16008296 895
-112.1044759 19.18149088 896
-107.4707354 19.18149088 896
-103.2960886 19.26712253 900
-98.86086553 19.30993836 902
-94.40495606 19.35275419 904
-89.82910158 19.3741621 905
-85.14881683 19.3741621 905
-80.46853209 19.3741621 905
-75.78824735 19.3741621 905
-71.26510727 19.41697793 907
-66.42767786 19.3741621 905
-61.88385145 19.41697793 907
-57.19322353 19.41697793 907
-52.50259562 19.41697793 907
-47.70653889 19.3741621 905
-42.97871132 19.35275419 904
-38.30359816 19.35275419 904
-33.59128535 19.33134627 903
-28.82525958 19.26712253 900
-24.14397629 19.24571462 899
-19.42966637 19.18149088 896
-14.72987265 19.09585922 892
-10.11681852 19.09585922 892
-5.497594245 19.07445131 891
-0.8887131428 19.05304339 890
3.701478727 18.98881965 887
8.288674934 18.98881965 887
12.90490354 19.03163548 889
17.50244292 19.03163548 889
22.12484167 19.05304339 890
26.72755264 19.05304339 890
31.40066869 19.09585922 892
36.09447108 19.13867505 894
40.90005124 19.2243067 898
45.59485218 19.24571462 899
50.2999963 19.26712253 900
55.13760453 19.33134627 903
60.07247432 19.41697793 907
64.76310223 19.41697793 907
69.45373015 19.41697793 907
74.14435806 19.41697793 907
78.83498598 19.41697793 907
83.52561389 19.41697793 907
88.02171867 19.3741621 905
92.59957026 19.35275419 904
97.27468342 19.35275419 904
101.9497966 19.35275419 904
106.6249097 19.35275419 904
111.1769034 19.33134627 903
115.846845 19.33134627 903
120.3833239 19.30993836 902
125.0480939 19.30993836 902
129.7128639 19.30993836 902
134.3776338 19.30993836 902
139.0424038 19.30993836 902
143.7071738 19.30993836 902
148.7009282 19.35275419 904
153.5457051 19.3741621 905
158.2259898 19.3741621 905
162.7262676 19.35275419 904
167.4013808 19.35275419 904
172.0764939 19.35275419 904
176.5560854 19.33134627 903
180.4232539 19.24571462 899
184.4549145 19.18149088 896
188.6665821 19.13867505 894
192.8575634 19.09585922 892
197.0278583 19.05304339 890
200.9509156 18.98881965 887
205.306389 18.96741174 886
209.8884137 18.96741174 886
214.2283723 18.94600382 885
218.8052254 18.94600382 885
223.3820784 18.94600382 885
227.9589314 18.94600382 885
232.5357845 18.94600382 885
237.3805614 18.96741174 886
241.962586 18.96741174 886
246.8228777 18.98881965 887
251.9769512 19.03163548 889
257.151711 19.07445131 891
262.0533754 19.09585922 892
267.2643363 19.13867505 894
271.8877336 19.13867505 894
275.8925378 19.09585922 892
280.1911238 19.07445131 891
284.4793666 19.05304339 890
287.7828322 18.96741174 886
291.0449252 18.88178008 882
295.271109 18.86037217 881
299.4869496 18.83896425 880
303.6924471 18.81755634 879
308.5889398 18.83896425 880
312.7840941 18.81755634 879
317.3299176 18.81755634 879
321.1433732 18.77474051 877
326.4215647 18.81755634 879
331.3439154 18.83896425 880
340.832776 18.86037217 881
346.5650685 18.92459591 884
351.9311769 18.96741174 886
356.5132016 18.96741174 886
361.5027829 18.98881965 887
367.3281639 19.05304339 890
372.3487747 19.07445131 891
377.3797287 19.09585922 892
381.5645398 19.07445131 891
385.7390078 19.05304339 890
390.7803049 19.07445131 891
394.9444297 19.05304339 890
399.0982113 19.03163548 889
403.6957507 19.03163548 889
407.3747449 18.98881965 887
411.497497 18.96741174 886
416.0795216 18.96741174 886
420.6615463 18.96741174 886
425.7235298 18.98881965 887
429.340465 18.94600382 885
433.9173181 18.94600382 885
438.4941711 18.94600382 885
442.5703789 18.92459591 884
447.1420604 18.92459591 884
450.691765 18.88178008 882
454.7369433 18.86037217 881
459.29311 18.86037217 881
463.8492767 18.86037217 881
468.9371182 18.88178008 882
472.9616101 18.86037217 881
479.1438305 18.92459591 884
483.715512 18.92459591 884
825.7798124 32.00483132 1495
-155.7893938 23.41653886 881
-151.9198706 23.52285686 885
-148.0089747 23.62917486 889
-143.572753 23.65575436 890
-139.5946265 23.76207235 894
-121.1010373 23.76207235 894
-116.6079282 23.78865185 895
-112.1044759 23.81523135 896
-107.3507904 23.78865185 895
-103.2960886 23.92154935 900
-99.08006922 24.02786735 904
-94.71824684 24.10760584 907
-90.22613628 24.16076484 909
-85.5251652 24.16076484 909
-80.82419411 24.16076484 909
-76.12322303 24.16076484 909
-71.34367961 24.13418534 908
-66.57447936 24.10760584 907
-61.88385145 24.10760584 907
-57.19322353 24.10760584 907
-52.50259562 24.10760584 907
-47.70653889 24.05444684 905
-43.02625414 24.05444684 905
-38.3459694 24.05444684 905
-33.62848501 24.02786735 904
-28.88931572 23.97470835 902
-24.14397629 23.89496985 899
-19.42966637 23.81523135 896
-14.71335934 23.68233385 891
-10.08279334 23.62917486 889
-5.472913688 23.57601586 887
-0.8847189264 23.54943636 886
3.68061357 23.44311836 882
8.241951851 23.44311836 882
12.83232253 23.49627736 884
17.40400399 23.49627736 884
22.00054481 23.52285686 885
26.6074288 23.54943636 886
31.29506106 23.62917486 889
35.97334869 23.68233385 891
40.80895981 23.81523135 896
45.59485218 23.89496985 899
50.2999963 23.92154935 900
55.13760453 24.00128785 903
60.07247432 24.10760584 907
64.83450588 24.13418534 908
69.53030537 24.13418534 908
74.22610487 24.13418534 908
78.92190437 24.13418534 908
83.52561389 24.10760584 907
88.02171867 24.05444684 905
92.59957026 24.02786735 904
97.16707868 24.00128785 903
101.8370203 24.00128785 903
106.5069618 24.00128785 903
111.0537839 23.97470835 902
115.7185539 23.97470835 902
120.1163985 23.92154935 900
124.7708254 23.92154935 900
129.4252522 23.92154935 900
138.7341058 23.92154935 900
143.7071738 23.97470835 902
148.8654203 24.05444684 905
153.8850326 24.10760584 907
158.7504959 24.13418534 908
163.2662884 24.10760584 907
167.9569163 24.10760584 907
172.6475443 24.10760584 907
176.9471288 24.05444684 905
180.6239472 23.92154935 900
184.4549145 23.81523135 896
188.6665821 23.76207235 894
192.6413553 23.68233385 891
196.8064787 23.62917486 889
200.271262 23.49627736 884
204.3794979 23.44311836 882
208.7039418 23.41653886 881
213.2601085 23.41653886 881
217.5690377 23.38995936 880
222.3724419 23.41653886 881
227.1861893 23.44311836 882
231.7475276 23.44311836 882
236.8447136 23.49627736 884
241.4163951 23.49627736 884
245.9880765 23.49627736 884
250.8431966 23.52285686 885
256.5744906 23.62917486 889
261.4658118 23.65575436 890
266.0685227 23.65575436 890
270.6712337 23.65575436 890
275.2739446 23.65575436 890
279.5621875 23.62917486 889
283.2008076 23.54943636 886
286.4835869 23.44311836 882
290.0549765 23.36337986 879
294.6008 23.36337986 879
297.7853192 23.25706187 875
301.9649588 23.23048237 874
305.7835859 23.17732337 872
310.2932083 23.17732337 872
314.4418183 23.15074387 871
318.2139011 23.09758487 869
322.7080088 23.09758487 869
327.5786436 23.12416437 870
332.8413204 23.17732337 872
337.3509428 23.17732337 872
343.0366911 23.25706187 875
349.5478958 23.38995936 880
354.0988909 23.38995936 880
360.2801128 23.49627736 884
365.2645225 23.52285686 885
370.6771753 23.57601586 887
376.1105144 23.62917486 889
379.8515677 23.57601586 887
384.4387639 23.57601586 887
389.0259601 23.57601586 887
393.6131563 23.57601586 887
397.7514232 23.54943636 886
401.8793468 23.52285686 885
406.4561999 23.52285686 885
410.5686088 23.49627736 884
415.1402902 23.49627736 884
418.7623971 23.44311836 882
423.3237354 23.44311836 882
427.3999432 23.41653886 881
431.9561099 23.41653886 881
436.5122766 23.41653886 881
441.0684433 23.41653886 881
445.6246099 23.41653886 881
449.6697882 23.38995936 880
454.2207834 23.38995936 880
458.7717785 23.38995936 880
463.3227736 23.38995936 880
468.4054434 23.41653886 881
472.9616101 23.41653886 881
478.0597947 23.44311836 882
483.715512 23.49627736 884
825.7798124 39.73635142 1495
-159.6175443 27.84570122 877
-154.5515666 27.75044796 874
-150.8899053 27.90920339 879
-146.8435497 28.00445664 882
-142.2822114 28.00445664 882
-139.2823343 28.32196749 892
-118.1209223 27.6869458 872
-114.2627408 27.84570122 877
-110.3528434 28.00445664 882
-106.0313952 28.06795881 884
-102.0335809 28.22671423 889
-98.53205999 28.54422508 899
-94.82267711 28.82998484 908
-90.52391231 28.95698918 912
-85.90151356 28.98874026 913
-81.09094063 28.95698918 912
-76.37445479 28.95698918 912
-71.42225194 28.86173593 909
-66.57447936 28.79823376 907
-61.88385145 28.79823376 907
-57.06710837 28.73473159 905
-52.38682363 28.73473159 905
-47.70653889 28.73473159 905
-43.02625414 28.73473159 905
-38.30359816 28.7029805 904
-33.62848501 28.7029805 904
-28.88931572 28.63947833 902
-24.14397629 28.54422508 899
-19.40798147 28.41722074 895
-14.68033272 28.22671423 889
-10.06010989 28.16321206 887
-5.460573409 28.0997099 885
-0.8807247101 28.00445664 882
3.672267508 27.94095447 880
8.213918001 27.90920339 879
12.77425773 27.94095447 880
17.34494062 27.97270556 881
21.90110732 27.97270556 881
26.54736689 28.06795881 884
31.18945343 28.13146098 886
35.93297456 28.25846532 890
40.7634141 28.41722074 895
45.54413488 28.512474 898
50.2999963 28.57597616 900
55.13760453 28.67122942 903
60.07247432 28.79823376 907
64.76310223 28.79823376 907
69.53030537 28.82998484 908
74.14435806 28.79823376 907
78.83498598 28.79823376 907
83.34143393 28.73473159 905
88.02171867 28.73473159 905
92.49713711 28.67122942 903
97.05947394 28.63947833 902
101.4986913 28.57597616 900
105.9172223 28.512474 898
110.0688279 28.38546966 894
114.6922253 28.38546966 894
119.3156226 28.38546966 894
123.9390199 28.38546966 894
128.5624172 28.38546966 894
133.3347919 28.41722074 895
138.1175098 28.44897183 896
143.229212 28.54422508 899
148.7009282 28.7029805 904
153.8850326 28.79823376 907
158.5756605 28.79823376 907
163.2662884 28.79823376 907
167.9569163 28.79823376 907
172.2668441 28.73473159 905
176.7516071 28.7029805 904
180.2225606 28.512474 898
184.0431848 28.38546966 894
188.0334728 28.2902164 891
191.7765232 28.16321206 887
195.6995806 28.06795881 884
199.138506 27.90920339 879
203.220884 27.84570122 877
207.51947 27.81395013 876
212.0497787 27.81395013 876
216.5800875 27.81395013 876
221.1103963 27.81395013 876
225.8982857 27.84570122 877
231.222023 27.94095447 880
235.7730181 27.94095447 880
240.3240132 27.94095447 880
245.1532754 27.97270556 881
249.9928807 28.00445664 882
255.4200497 28.0997099 885
260.2906845 28.13146098 886
265.1716625 28.16321206 887
269.1506088 28.0997099 885
273.4181652 28.06795881 884
277.9898467 28.06795881 884
281.9222487 28.00445664 882
285.8339643 27.94095447 880
289.0650278 27.81395013 876
292.2547186 27.6869458 872
296.4240149 27.65519471 871
300.5829681 27.62344363 870
304.7315781 27.59169254 869
308.8698449 27.55994146 868
312.2757438 27.4646882 865
317.1153491 27.49643929 866
320.8512308 27.43293712 864
325.6960077 27.4646882 865
331.3145254 27.55994146 868
335.8034614 27.55994146 868
341.0764814 27.62344363 870
346.3701877 27.6869458 872
351.6845803 27.75044796 874
357.427216 27.84570122 877
363.6136094 27.97270556 881
368.587676 28.00445664 882
373.9951572 28.06795881 884
378.5668386 28.06795881 884
383.5719347 28.0997099 885
388.5873739 28.13146098 886
392.7256408 28.0997099 885
395.9557057 28.00445664 882
400.517044 28.00445664 882
404.6191097 27.97270556 881
408.7108323 27.94095447 880
413.2618274 27.94095447 880
417.3380352 27.90920339 879
421.8838587 27.90920339 879
426.4296822 27.90920339 879
429.9949016 27.84570122 877
435.5213293 27.90920339 879
440.0671528 27.90920339 879
444.6129763 27.90920339 879
447.1148463 27.78219905 875
451.6399835 27.78219905 875
456.6864522 27.81395013 876
461.7432641 27.84570122 877
467.3420939 27.90920339 879
472.4247638 27.94095447 880
478.0597947 28.00445664 882
482.621133 28.00445664 882
488.2871934 28.06795881 884
-117.1727039 31.93810953 865
-108.9765608 32.15964555 871
-105.0718351 32.3442589 876
-76.37445479 33.67347502 912
-61.74739312 33.41501633 905
-52.32893764 33.37809366 904
-47.65382448 33.37809366 904
-42.97871132 33.37809366 904
-38.26122693 33.34117099 903
-33.5540857 33.30424832 902
-28.79323152 33.19348031 899
-24.03655036 33.04578963 895
-19.32124189 32.89809895 891
-14.59776617 32.63964026 884
-10.00340127 32.56579492 882
-5.429722711 32.49194958 880
-0.8757319396 32.38118157 877
3.651402351 32.30733623 875
8.176539534 32.30733623 875
12.71619292 32.3442589 876
17.24650169 32.3442589 876
21.80166983 32.38118157 877
26.45727401 32.52887225 881
31.11904834 32.63964026 884
35.77147805 32.7134856 886
40.62677695 32.93502162 892
45.34126569 33.00886696 894
50.07644076 33.0827123 896
54.89336265 33.19348031 899
59.8075461 33.34117099 903
64.54889131 33.37809366 904
69.22400447 33.37809366 904
73.81737082 33.34117099 903
78.66114918 33.41501633 905
83.24934394 33.37809366 904
87.72993397 33.30424832 902
91.98497134 33.15655764 898
96.30624077 33.04578963 895
100.8220333 33.00886696 894
105.0915869 32.89809895 891
108.837633 32.63964026 884
113.1527323 32.56579492 882
153.0367138 33.30424832 902
157.8763191 33.34117099 903
162.3662538 33.30424832 902
167.2162023 33.34117099 903
175.9695203 33.23040298 900
179.4197875 33.00886696 894
183.2197254 32.86117628 890
186.9782906 32.7134856 886
190.6954831 32.56579492 882
194.8140621 32.49194958 880
198.00575 32.27041356 874
201.8305472 32.15964555 871
206.3349981 32.15964555 871
210.8394489 32.15964555 871
214.8494247 32.08580021 869
219.5959415 32.12272288 870
224.3528015 32.15964555 871
229.1200046 32.19656822 872
234.1654748 32.27041356 874
238.9585359 32.30733623 875
243.483673 32.30733623 875
248.2922489 32.3442589 876
251.6681167 32.19656822 872
257.6466482 32.38118157 877
262.7800354 32.45502691 879
267.3258589 32.45502691 879
271.2530893 32.38118157 877
275.7885696 32.38118157 877
279.6847705 32.30733623 875
283.8850964 32.27041356 874
286.7551474 32.08580021 869
289.9086371 31.93810953 865
294.0417324 31.90118686 864
297.4734891 31.79041885 861
301.9262241 31.79041885 861
306.0231183 31.75349618 860
310.1096692 31.71657351 859
314.185877 31.67965084 858
318.2517417 31.64272817 857
322.6837903 31.64272817 857
327.115839 31.64272817 857
331.5478876 31.64272817 857
335.9799363 31.64272817 857
341.6036255 31.75349618 860
346.0511889 31.75349618 860
351.7214223 31.86426419 863
356.5972288 31.90118686 864
362.737078 32.04887754 868
366.3798712 31.9750322 866
370.8584641 31.9750322 866
376.2038862 32.04887754 868
381.1314085 32.08580021 869
386.069274 32.12272288 870
390.5685532 32.12272288 870
395.9760344 32.19656822 872
400.4856568 32.19656822 872
404.9952792 32.19656822 872
409.5049017 32.19656822 872
414.0145241 32.19656822 872
418.5241465 32.19656822 872
423.0337689 32.19656822 872
427.5433914 32.19656822 872
433.0439611 32.27041356 874
437.5639267 32.27041356 874
442.0838923 32.27041356 874
445.5818811 32.19656822 872
451.6399835 32.30733623 875
456.6864522 32.3442589 876
461.7432641 32.38118157 877
466.2787445 32.38118157 877
472.4247638 32.49194958 880
477.5177768 32.52887225 881
482.621133 32.56579492 882
488.2871934 32.63964026 884
-128.4793244 35.82221129 851
-124.3699112 35.9063998 853
-120.0991802 35.94849405 854
-115.5471866 35.9063998 853
-111.5266888 36.03268256 856
-107.7253948 36.24315384 861
-103.7524399 36.41153086 865
-99.96765913 36.66409639 871
-97.10723598 37.29551022 886
-93.56951397 37.71645278 896
-89.82910158 38.09530107 905
-85.80742647 38.38996086 912
-81.17985613 38.43205512 913
-76.45819871 38.43205512 913
-71.57939661 38.34786661 911
-66.64788011 38.22158384 908
-61.88385145 38.17948959 907
-57.19322353 38.17948959 907
-52.32893764 38.05320682 904
-47.65382448 38.05320682 904
-42.88362568 37.96901831 902
-38.21885569 37.96901831 902
-33.4052871 37.80064129 898
-28.66511925 37.67435852 895
-23.90226796 37.46388724 890
-19.21281741 37.29551022 886
-14.53171293 37.04294469 880
-9.946692647 36.91666193 877
-5.405042154 36.87456767 876
-0.8727362773 36.79037916 874
3.638883258 36.70619065 872
8.139161068 36.66409639 871
12.65812811 36.70619065 872
17.20712611 36.79037916 874
21.75195108 36.83247341 875
26.33715018 36.91666193 877
30.97823817 37.04294469 880
35.69072979 37.21132171 884
40.35350267 37.29551022 886
45.18911379 37.5059815 891
49.96466299 37.63226427 894
54.71018124 37.71645278 896
59.34392171 37.71645278 896
63.97766219 37.71645278 896
68.76455311 37.80064129 898
73.24514314 37.71645278 896
77.87888361 37.71645278 896
82.4205341 37.67435852 895
