# .PCD v0.7 - Point Cloud Data file format
VERSION 0.7
FIELDS x y z
SIZE 4 4 4
TYPE F F F
COUNT 1 1 1
WIDTH 1630
HEIGHT 1
VIEWPOINT 0 0 0 1 0 0 0
POINTS 1630
DATA ascii
-36.77823364 -286.6655845 868
-32.4008965 -287.6563642 871
-27.89644566 -287.6563642 871
8.456878033 -298.8852004 905
13.16619518 -299.5457202 907
17.81744752 -298.8852004 905
22.49773226 -298.8852004 905
27.17801701 -298.8852004 905
31.82309921 -298.5549406 904
36.41746411 -297.8944208 902
40.90005124 -296.5733812 898
45.39198299 -295.5826015 895
49.74110745 -293.9313021 890
54.28275794 -293.6010422 889
58.68160116 -292.6102625 886
118.1016219 -546.2498581 1654
126.6554241 -546.2498581 1654
-69.06508191 -285.7526198 879
-64.29905614 -284.7773549 876
-59.70051821 -284.4522666 875
-54.92315071 -283.1519133 871
-50.36081388 -282.826825 870
-45.80882021 -282.5017367 869
-41.31471254 -282.5017367 869
-36.86297611 -282.826825 870
-32.43809616 -283.4770017 872
-28.02455793 -284.4522666 875
-23.52627723 -284.7773549 876
3.768247227 -293.5547391 903
8.438188799 -293.5547391 903
13.10813037 -293.5547391 903
17.79775973 -293.8798274 904
22.47287289 -293.8798274 904
27.11795509 -293.5547391 903
31.75269412 -293.2296508 902
36.29634172 -292.2543859 899
40.7634141 -290.9540327 895
45.34126569 -290.6289444 894
49.68521857 -289.0035028 889
54.09957653 -288.0282379 886
58.54913704 -287.3780613 884
62.97801121 -286.7278847 882
126.961725 -538.9964091 1658
-69.14365425 -281.526713 880
-64.37245689 -280.5669628 877
-59.76874737 -280.2470461 876
-54.98620829 -278.9673792 872
-50.41869987 -278.6474625 871
-45.80882021 -278.0076291 869
-41.36225537 -278.3275458 870
-36.90534735 -278.6474625 871
-32.51249546 -279.6072127 874
-28.02455793 -279.9271294 875
-23.52627723 -280.2470461 876
8.428844183 -288.5648808 902
13.10813037 -288.8847975 903
17.77807194 -288.8847975 903
22.42315414 -288.5648808 902
27.02786222 -287.9250474 900
31.64708649 -287.6051306 899
36.17521933 -286.6453805 896
40.71786838 -286.005547 894
45.23983109 -285.3657136 892
49.5734408 -283.76613 887
54.09957653 -283.4462133 886
58.54913704 -282.8063799 884
62.97801121 -282.1665464 882
67.30962382 -281.2067963 879
136.2719348 -533.3011711 1667
-73.86213719 -277.6052081 882
-69.14365425 -276.9757179 880
-64.51925839 -276.6609727 879
-59.83697654 -276.0314825 877
-55.11232345 -275.0872471 874
-50.47658586 -274.4577568 872
-45.91424903 -274.1430117 871
-41.40979819 -274.1430117 871
-36.90534735 -274.1430117 871
-32.58689476 -275.7167373 876
-28.08861406 -276.0314825 877
-23.63370315 -276.9757179 880
3.751555102 -282.9558754 899
8.400810333 -282.9558754 899
13.05006556 -282.9558754 899
17.6993208 -282.9558754 899
22.32371665 -282.6411303 898
26.9678003 -282.6411303 898
31.54147886 -282.01164 896
36.09447108 -281.3821497 894
40.53568553 -280.1231692 890
45.13839649 -280.1231692 890
49.46166303 -278.5494435 885
53.97745559 -278.2346984 884
58.54913704 -278.2346984 884
62.97801121 -277.6052081 882
67.38619904 -276.9757179 880
137.0076561 -527.5128445 1676
-69.22222658 -272.7342963 881
-64.59265914 -272.4247228 880
-59.97343486 -272.1151492 879
-55.2384386 -271.1864286 876
-50.59235785 -270.5672815 874
-45.96696344 -269.9481344 872
-41.45734101 -269.9481344 872
-37.03246106 -270.5672815 874
-32.62409441 -271.4960021 877
-28.15267019 -272.1151492 879
-23.68741611 -273.0438699 882
-19.2778721 -275.2108847 889
-14.71335934 -275.8300318 891
-10.13950197 -276.7587524 894
-5.528444943 -277.3778995 896
-0.8977001296 -278.3066202 899
3.751555102 -278.3066202 899
8.410154949 -278.6161937 900
13.05006556 -278.3066202 899
17.6993208 -278.3066202 899
22.34857603 -278.3066202 899
26.9678003 -277.9970466 898
31.50627632 -277.068326 895
36.09447108 -276.7587524 894
40.58123124 -275.8300318 891
45.13839649 -275.5204582 890
49.51755191 -274.2821641 886
54.03851606 -273.9725905 885
58.6153691 -273.9725905 885
63.1208185 -273.663017 884
67.46277427 -272.7342963 881
137.4163902 -520.3931352 1681
-69.30079891 -268.4825316 882
-64.73946063 -268.4825316 882
-60.10989319 -268.1781296 881
-55.42761134 -267.5693257 879
-50.70812984 -266.6561198 876
-46.12510666 -266.3517178 875
-41.59996948 -266.3517178 875
-37.11720353 -266.6561198 876
-32.69849372 -267.5693257 879
-28.18469826 -267.8737277 880
-23.74112907 -269.0913355 884
-19.2778721 -270.6133453 889
-14.71335934 -271.2221492 891
-10.13950197 -272.1353551 894
-5.522274803 -272.4397571 895
-0.8977001296 -273.657365 899
3.751555102 -273.657365 899
8.400810333 -273.657365 899
13.03554936 -273.352963 898
17.67963301 -273.352963 898
22.32371665 -273.352963 898
26.90773838 -272.7441591 896
31.50627632 -272.4397571 895
36.01372282 -271.5265512 892
40.58123124 -271.2221492 891
45.13839649 -270.9177473 890
49.51755191 -269.7001394 886
54.03851606 -269.3957375 885
58.6153691 -269.3957375 885
63.1208185 -269.0913355 884
67.53934949 -268.4825316 882
137.4163902 -511.6997002 1681
-69.61508825 -265.1181148 886
-65.03306363 -265.1181148 886
-60.38280984 -264.8188844 885
-55.5537265 -263.6219629 881
-50.88178781 -263.0235022 879
-46.33596429 -263.0235022 879
-41.79014077 -263.0235022 879
-37.28668848 -263.3227325 880
-32.77289302 -263.6219629 881
-28.21672633 -263.6219629 881
-23.76798555 -264.8188844 885
-19.299557 -266.3150363 890
-14.71335934 -266.6142667 891
-10.13950197 -267.5119578 894
-5.522274803 -267.8111882 895
-0.8967015756 -268.7088793 898
3.739036008 -268.1104186 896
8.391465716 -268.7088793 898
13.00651696 -268.1104186 896
17.67963301 -268.7088793 898
22.27399791 -268.1104186 896
26.87770743 -267.8111882 895
31.47107377 -267.5119578 894
36.01372282 -266.9134971 892
40.58123124 -266.6142667 891
45.13839649 -266.3150363 890
49.5734408 -265.4173452 887
54.09957653 -265.1181148 886
58.6153691 -264.8188844 885
63.19222214 -264.8188844 885
67.69249995 -264.5196541 884
137.4163902 -503.0062652 1681
-69.69366059 -260.830149 887
-65.25326588 -261.4182666 889
-60.6557265 -261.4182666 889
-55.86901439 -260.5360902 886
-51.17121778 -259.9479726 884
-46.49410751 -259.359855 882
-41.93276923 -259.359855 882
-37.37143095 -259.359855 882
-32.81009267 -259.359855 882
-28.31281052 -259.9479726 884
-23.76798555 -260.2420314 885
-19.2778721 -261.4182666 889
-14.69684603 -261.7123254 890
-10.10547679 -262.0063841 891
-5.497594245 -262.0063841 891
-0.890710251 -262.3004429 892
3.722343883 -262.3004429 892
8.335398017 -262.3004429 892
12.94845215 -262.3004429 892
17.56150628 -262.3004429 892
22.17456042 -262.3004429 892
26.78761455 -262.3004429 892
31.36546614 -262.0063841 891
35.97334869 -262.0063841 891
40.58123124 -262.0063841 891
45.18911379 -262.0063841 891
49.5734408 -260.830149 887
54.160637 -260.830149 887
58.68160116 -260.5360902 886
63.26362578 -260.5360902 886
129.1058313 -495.7831242 1686
137.8251242 -495.7831242 1686
-69.92937759 -257.1096144 890
-65.47346812 -257.6873888 892
-60.99687232 -258.2651632 894
-56.18430228 -257.3985016 891
-51.51853374 -257.1096144 890
-46.86310837 -256.8207272 889
-42.26556899 -256.8207272 889
-37.58328714 -256.2429528 887
-32.92169163 -255.6651784 885
-28.34483859 -255.6651784 885
-23.79484203 -255.9540656 886
-19.23450231 -256.2429528 887
-14.68033272 -256.8207272 889
-10.08279334 -256.8207272 889
-5.491424106 -257.1096144 890
-0.8897116969 -257.3985016 891
3.718170852 -257.3985016 891
8.3260534 -257.3985016 891
12.93393595 -257.3985016 891
17.5418185 -257.3985016 891
22.14970105 -257.3985016 891
26.78761455 -257.6873888 892
31.36546614 -257.3985016 891
35.97334869 -257.3985016 891
40.58123124 -257.3985016 891
45.23983109 -257.6873888 892
49.68521857 -256.8207272 889
54.28275794 -256.8207272 889
58.88029732 -256.8207272 889
63.4778367 -256.8207272 889
129.1058313 -487.0638313 1686
137.8251242 -487.0638313 1686
-70.24366693 -253.6417659 894
-65.76707112 -254.2091972 896
-61.06510148 -253.9254815 895
-56.24735986 -253.0743347 892
-51.57641973 -252.7906191 891
-46.91582277 -252.5069034 890
-42.31311181 -252.5069034 890
-37.49854466 -251.0883253 885
-32.88449198 -250.8046097 884
-28.31281052 -250.8046097 884
-23.74112907 -250.8046097 884
-19.19113252 -251.0883253 885
-14.63079279 -251.3720409 886
-10.06010989 -251.6557566 887
-5.472913688 -251.6557566 887
-0.8887131428 -252.5069034 890
3.709824789 -252.2231878 889
8.307364167 -252.2231878 889
12.90490354 -252.2231878 889
17.52213071 -252.5069034 890
22.14970105 -252.7906191 891
26.72755264 -252.5069034 890
31.36546614 -252.7906191 891
35.97334869 -252.7906191 891
40.58123124 -252.7906191 891
45.23983109 -253.0743347 892
49.74110745 -252.5069034 890
54.34381841 -252.5069034 890
58.88029732 -252.2231878 889
63.4778367 -252.2231878 889
128.7229552 -476.9259603 1681
137.8251242 -478.3445384 1686
-65.76707112 -249.5754567 896
-61.06510148 -249.2969126 895
-56.37347501 -249.0183686 894
-51.51853374 -247.9041925 890
-46.91582277 -247.9041925 890
-42.17048334 -247.0685604 887
-37.37143095 -245.6758402 882
-32.73569337 -245.1187521 880
-28.15267019 -244.8402081 879
-23.55313371 -244.28312 877
-19.06102314 -244.8402081 879
-14.53171293 -245.1187521 880
-10.00340127 -245.6758402 882
-5.454403269 -246.2329282 884
-0.8837203723 -246.5114723 885
3.697305695 -246.7900163 886
8.288674934 -247.0685604 887
12.86135494 -246.7900163 886
17.46306735 -247.0685604 887
22.0999823 -247.6256484 889
26.69752168 -247.6256484 889
31.22465597 -247.0685604 887
35.89260043 -247.6256484 889
40.53568553 -247.9041925 890
45.18911379 -248.1827365 891
49.74110745 -247.9041925 890
54.34381841 -247.9041925 890
58.94652938 -247.9041925 890
63.54924034 -247.9041925 890
128.7229552 -468.2325253 1681
-65.98727337 -245.7618336 899
-61.13333065 -244.9417162 896
-56.37347501 -244.3949713 894
-51.57641973 -243.574854 891
-46.86310837 -243.0281091 889
-42.12294052 -242.2079917 886
-37.24431724 -240.2943845 879
-32.51249546 -238.9275223 874
-27.8644176 -237.8340325 870
-23.33828186 -237.56066 869
-18.7791195 -236.7405427 866
-14.33355321 -237.2872876 868
-9.855958848 -237.56066 869
-5.368021317 -237.8340325 870
-0.869740615 -238.1074049 871
3.64722932 -238.9275223 874
8.176539534 -239.2008947 875
12.71619292 -239.4742672 876
17.26618947 -239.7476396 877
21.87624795 -240.567757 880
26.54736689 -241.6612468 884
31.11904834 -241.6612468 884
35.77147805 -242.2079917 886
40.39904838 -242.4813642 887
45.13839649 -243.3014815 890
49.68521857 -243.0281091 889
54.34381841 -243.3014815 890
58.88029732 -243.0281091 889
63.4778367 -243.0281091 889
128.7229552 -459.5390903 1681
-70.6365286 -241.1125783 899
-66.20747561 -241.9171809 902
-61.33801814 -241.1125783 899
-56.49959017 -240.3079757 896
-51.63430572 -239.2351723 892
-46.86310837 -238.4305697 889
-42.0753977 -237.3577662 885
-37.11720353 -234.9439584 876
-32.4008965 -233.6029541 871
-27.73630533 -232.2619498 866
-23.20399946 -231.725548 864
-18.67069503 -230.9209454 861
-14.21796004 -230.9209454 861
-9.787908499 -231.4573472 863
-5.33100048 -231.725548 864
-0.8627507364 -231.725548 864
3.61384507 -232.2619498 866
8.120471835 -233.0665524 869
12.62909571 -233.3347532 870
17.14806275 -233.6029541 871
21.77681046 -234.9439584 876
26.3972121 -235.748561 879
31.01344071 -236.2849627 881
35.73110392 -237.3577662 885
40.35350267 -237.6259671 886
45.08767919 -238.4305697 889
49.5734408 -237.8941679 887
54.28275794 -238.4305697 889
58.88029732 -238.4305697 889
63.4778367 -238.4305697 889
128.7229552 -450.8456554 1681
-61.4062473 -236.7263524 900
-56.43653259 -235.411206 895
-51.63430572 -234.6221181 892
-46.75767955 -233.3069717 887
-42.02785488 -232.5178839 884
-37.03246106 -229.8875911 874
-32.3264972 -228.5724447 869
-27.64022113 -226.994269 863
-23.06971705 -225.9421519 859
-18.58395544 -225.4160933 857
-14.1519068 -225.4160933 857
-9.719858151 -225.4160933 857
-5.287809504 -225.4160933 857
-0.8567594118 -225.6791226 858
3.588806883 -226.2051812 860
8.045714902 -226.4682104 861
12.52748229 -226.994269 863
17.02993603 -227.5203276 865
21.65251359 -229.0985032 871
26.27708827 -230.1506204 875
30.87263054 -230.6766789 877
35.60998153 -231.9918253 882
40.30795695 -232.7809132 885
44.98624459 -233.3069717 887
49.5734408 -233.3069717 887
54.28275794 -233.8330303 889
58.74783321 -233.3069717 887
63.4778367 -233.8330303 889
128.7229552 -442.1522204 1681
-61.54270563 -232.587641 902
-56.49959017 -231.0404948 896
-51.63430572 -230.009064 892
-46.70496514 -228.4619178 886
-41.93276923 -227.4304871 882
-36.94771858 -224.8519101 872
-32.21489825 -223.3047639 866
-27.576165 -222.0154755 861
-23.01600409 -220.9840447 857
-18.51890076 -220.2104716 854
-14.06934025 -219.6947562 852
-9.674491252 -219.9526139 853
-5.263128946 -219.9526139 853
-0.8527651955 -220.2104716 854
3.572114757 -220.726187 856
8.008336435 -220.9840447 857
12.46941749 -221.4997601 859
16.9118093 -221.4997601 859
21.52821673 -223.3047639 866
26.15696443 -224.5940524 871
30.80222545 -225.6254832 875
35.5696074 -227.1726294 881
40.26241124 -227.9462024 884
44.93552729 -228.4619178 886
49.51755191 -228.4619178 886
54.160637 -228.7197755 887
58.74783321 -228.7197755 887
63.33502942 -228.7197755 887
128.3400791 -432.1694969 1676
-66.64788011 -229.4389876 908
-61.54270563 -227.922871 902
-56.49959017 -226.4067543 896
-51.63430572 -225.3960099 892
-46.70496514 -223.8798932 886
-41.88522641 -222.6164627 881
-36.86297611 -219.8369155 870
-32.14049894 -218.3207988 864
-27.51210887 -217.0573683 859
-22.93543465 -215.7939377 854
-18.47553097 -215.2885655 852
-14.05282694 -215.0358794 851
-9.651807802 -215.0358794 851
-5.250788668 -215.0358794 851
-0.8507680873 -215.2885655 852
3.559595664 -215.5412516 853
7.980302585 -215.7939377 854
12.44038508 -216.551996 857
16.93149709 -217.3100544 860
21.52821673 -218.826171 866
26.12693348 -219.8369155 870
30.7670229 -220.8476599 874
35.5696074 -222.6164627 881
40.26241124 -223.374521 884
44.93552729 -223.8798932 886
49.51755191 -223.8798932 886
54.160637 -224.1325793 887
58.74783321 -224.1325793 887
63.4778367 -224.6379515 889
128.3400791 -423.5019199 1676
-61.61093479 -223.5056155 903
-56.6887629 -222.5155574 899
-51.63430572 -220.7829557 892
-46.70496514 -219.2978686 886
-41.88522641 -218.060296 881
-36.90534735 -215.5851507 871
-32.1776986 -214.1000636 865
-27.51210887 -212.6149764 859
-22.98914761 -211.8724329 856
-18.49721586 -211.1298893 853
-14.06934025 -210.8823748 852
-9.663149527 -210.8823748 852
-5.256958807 -210.8823748 852
-0.8507680873 -210.8823748 852
3.559595664 -211.1298893 853
7.980302585 -211.3774038 854
12.44038508 -212.1199474 857
16.93149709 -212.862491 860
21.57793547 -214.8426072 868
26.12693348 -215.3376362 870
30.80222545 -216.5752088 875
35.60998153 -218.3078105 882
40.30795695 -219.0503541 885
44.93552729 -219.2978686 886
49.51755191 -219.2978686 886
54.28275794 -220.0404122 889
58.88029732 -220.0404122 889
63.4778367 -220.0404122 889
128.3400791 -414.8343428 1676
-66.57447936 -219.8050457 907
-61.61093479 -218.8356739 903
-56.6887629 -217.8663022 899
-51.75007771 -216.6545875 894
-46.75767955 -214.9581869 887
-41.93276923 -213.7464722 882
-36.94771858 -211.3230428 872
-32.21489825 -209.8689852 866
-27.576165 -208.6572705 861
-23.01600409 -207.6878987 857
-18.51890076 -206.9608699 854
-14.08585356 -206.718527 853
-9.674491252 -206.718527 853
-5.263128946 -206.718527 853
-0.8517666414 -206.718527 853
3.559595664 -206.718527 853
7.998991819 -207.4455558 856
12.45490128 -207.9302417 858
16.95118488 -208.6572705 861
21.57793547 -210.3536711 868
26.15696443 -211.0806999 871
30.80222545 -212.0500716 875
35.69072979 -214.2311581 884
40.39904838 -214.9581869 887
44.98624459 -214.9581869 887
49.5734408 -214.9581869 887
54.34381841 -215.6852157 890
58.94652938 -215.6852157 890
63.54924034 -215.6852157 890
128.3400791 -406.1667658 1676
-71.42225194 -215.5887605 909
-66.64788011 -215.3515891 908
-61.61093479 -214.1657324 903
-56.62570533 -212.9798756 898
-51.57641973 -211.3196761 891
-46.70496514 -210.1338193 886
-41.88522641 -208.9479626 881
-36.94771858 -206.8134204 872
-32.21489825 -205.3903923 866
-27.64022113 -204.6788782 863
-23.04286057 -203.4930214 858
-18.56227055 -203.0186787 856
-14.08585356 -202.3071647 853
-9.674491252 -202.3071647 853
-5.263128946 -202.3071647 853
-0.8517666414 -202.3071647 853
3.572114757 -203.0186787 856
7.998991819 -203.0186787 856
12.45490128 -203.4930214 858
16.95118488 -204.2045355 861
21.60279485 -206.1019063 869
26.15696443 -206.576249 871
30.83742799 -207.7621058 876
35.73110392 -209.896648 885
40.49013981 -210.8453334 889
45.13839649 -211.0825048 890
49.74110745 -211.0825048 890
54.40487888 -211.3196761 891
59.01276143 -211.3196761 891
63.62064398 -211.3196761 891
127.650902 -395.3646466 1667
-71.34367961 -210.6557896 908
-66.42767786 -209.9597903 905
-61.54270563 -209.263791 902
-56.43653259 -207.6397926 895
-51.57641973 -206.7117936 891
-46.65225074 -205.319795 885
-41.83768359 -204.1597961 880
-36.90534735 -202.0717982 871
-32.21489825 -200.9117994 866
-27.64022113 -200.2158001 863
-23.06971705 -199.287801 859
-18.58395544 -198.8238014 857
-14.13539349 -198.5918017 856
-9.708516426 -198.5918017 856
-5.269299086 -198.1278021 854
-0.8547623036 -198.5918017 856
3.576287789 -198.8238014 857
8.017681052 -199.0558012 858
12.49844989 -199.7518005 861
17.01024824 -200.4477998 864
21.65251359 -202.0717982 871
26.27708827 -202.9997973 875
30.97823817 -204.1597961 880
35.89260043 -206.247794 889
40.62677695 -206.9437933 892
45.34126569 -207.4077929 894
49.96466299 -207.4077929 894
54.64912076 -207.6397926 895
59.27768965 -207.6397926 895
118.3872365 -384.6556159 1658
126.961725 -384.6556159 1658
-71.34367961 -205.9599901 908
-66.42767786 -205.2795056 905
-61.54270563 -204.599021 902
-56.43653259 -203.0112238 895
-51.51853374 -201.8770828 890
-46.59953633 -200.5161137 884
-41.83768359 -199.608801 880
-36.90534735 -197.5673474 871
-32.28929755 -196.8868628 868
-27.6722492 -195.9795501 864
-23.09657353 -195.0722373 860
-18.62732523 -194.8454092 859
-14.1519068 -194.3917528 857
-9.719858151 -194.3917528 857
-5.287809504 -194.3917528 857
-0.8567594118 -194.618581 858
3.58046082 -194.618581 858
8.036370285 -195.0722373 860
12.52748229 -195.7527219 863
17.04962381 -196.4332064 866
21.72709171 -198.2478319 874
26.33715018 -198.9283165 877
31.04864325 -200.0624574 882
35.97334869 -202.103911 891
40.7634141 -203.0112238 895
45.39198299 -203.0112238 895
50.02055188 -203.0112238 895
54.71018124 -203.2380519 896
59.47638582 -203.6917083 898
118.1016219 -375.1738146 1654
-71.26510727 -201.042534 907
-66.35427711 -200.3775642 904
-61.4062473 -199.4909378 900
-56.37347501 -198.1609983 894
-51.46064774 -197.0527153 889
-46.59953633 -195.9444323 884
-41.79014077 -194.8361493 879
-36.90534735 -193.0628965 871
-32.28929755 -192.3979267 868
-27.6722492 -191.5113003 864
-23.12343001 -190.8463305 861
-18.62732523 -190.4030173 859
-14.16842011 -190.1813607 858
-9.731199876 -190.1813607 858
-5.293979644 -190.1813607 858
-0.8567594118 -190.1813607 858
3.588806883 -190.6246739 860
8.045714902 -190.8463305 861
12.5565147 -191.7329569 865
17.08899939 -192.3979267 868
21.75195108 -193.9495229 875
26.42724306 -195.0578059 880
31.11904834 -195.9444323 884
36.09447108 -198.1609983 894
40.80895981 -198.6043115 896
45.54413488 -199.0476247 898
50.07644076 -198.6043115 896
54.83230218 -199.0476247 898
59.54261788 -199.2692813 899
117.8160074 -365.7333861 1650
-66.20747561 -195.2694811 902
-61.26978897 -194.403541 898
-56.18430228 -192.8881459 891
-51.34487576 -192.0222059 887
-46.59953633 -191.3727508 884
-41.79014077 -190.2903258 879
-36.90534735 -188.5584457 871
-32.21489825 -187.4760206 866
-27.6722492 -187.0430506 864
-23.12343001 -186.3935956 861
-18.62732523 -185.9606255 859
-14.16842011 -185.7441405 858
-9.7425416 -185.9606255 859
-5.300149783 -185.9606255 859
-0.85875652 -186.1771105 860
3.592979914 -186.3935956 861
8.073748752 -187.0430506 864
12.5710309 -187.4760206 866
17.10868718 -188.1254757 869
21.80166983 -189.8573558 877
26.45727401 -190.7232958 881
31.18945343 -191.8057209 886
36.09447108 -193.537601 894
40.90005124 -194.403541 898
45.54413488 -194.403541 898
50.24410741 -194.620026 899
54.95442312 -194.836511 900
59.60884993 -194.836511 900
116.88776 -354.3859651 1637
-66.06067412 -190.1820842 900
-61.26978897 -189.7594574 898
-56.1212447 -188.0689499 890
-51.34487576 -187.4350097 887
-46.49410751 -186.3784425 882
-41.79014077 -185.7445023 879
-36.90534735 -184.0539948 871
-32.28929755 -183.4200546 868
-27.6722492 -182.5748008 864
-23.17714298 -182.3634874 863
-18.64901013 -181.7295471 860
-14.21796004 -181.9408606 861
-9.787908499 -182.3634874 863
-5.324830341 -182.3634874 863
-0.8627507364 -182.5748008 864
3.61384507 -182.9974277 866
8.120471835 -183.631368 869
12.62909571 -183.8426814 870
17.20712611 -184.6879351 874
21.90110732 -186.1671291 881
26.57739785 -187.0123828 885
31.29506106 -187.8576365 889
36.25596759 -189.7594574 898
40.99114267 -190.1820842 900
45.64556948 -190.1820842 900
50.2999963 -190.1820842 900
55.13760453 -190.8160245 903
59.8075461 -190.8160245 903
116.5307418 -344.8635127 1632
-66.06067412 -185.5276574 900
-61.26978897 -185.1153737 898
-56.24735986 -183.8785227 892
-51.51853374 -183.466239 890
-46.70496514 -182.6416716 886
-41.88522641 -181.6109624 881
-37.03246106 -180.1679695 874
-32.36369685 -179.3434022 870
-27.80036146 -178.9311185 868
-23.25771242 -178.5188348 866
-18.75743461 -178.3126929 865
-14.28401328 -178.3126929 865
-9.821933674 -178.5188348 866
-5.355681038 -178.9311185 868
-0.8667449528 -178.9311185 868
3.630537195 -179.3434022 870
8.148505684 -179.7556858 872
12.68716052 -180.1679695 874
17.26618947 -180.786395 877
21.97568544 -182.2293879 884
26.63745976 -182.8478135 887
31.36546614 -183.6723808 891
36.29634172 -185.3215156 899
41.08223409 -185.9399411 902
45.74700408 -185.9399411 902
50.46766295 -186.1460829 903
55.198665 -186.3522248 904
59.94001021 -186.5583666 905
116.2451273 -335.5989181 1628
-66.20747561 -181.2751711 902
-61.33801814 -180.6722603 899
-56.37347501 -179.667409 894
-51.57641973 -179.0644983 891
-46.75767955 -178.2606173 887
-42.02785488 -177.6577065 884
-37.11720353 -176.0499444 876
-32.51249546 -175.6480039 874
-27.8644176 -174.8441229 870
-23.33828186 -174.6431526 869
-18.84417419 -174.6431526 869
-14.36657983 -174.8441229 870
-9.867300573 -174.8441229 870
-5.374191456 -175.0450932 871
-0.8707391691 -175.2460634 872
3.64722932 -175.6480039 874
8.185884151 -176.0499444 876
12.75974152 -176.6528552 879
17.34494062 -177.0547957 881
22.05026355 -178.2606173 887
26.75758359 -179.0644983 891
31.47107377 -179.667409 894
36.41746411 -181.2751711 902
41.12777981 -181.4761414 903
45.79772138 -181.4761414 903
50.46766295 -181.4761414 903
55.25972547 -181.8780819 905
59.94001021 -181.8780819 905
64.76310223 -182.2800224 907
-66.42767786 -177.1977971 905
-61.61093479 -176.8061998 903
-56.49959017 -175.4356091 896
-51.75007771 -175.0440117 894
-46.91582277 -174.2608171 890
-42.12294052 -173.4776224 886
-37.28668848 -172.3028303 880
-32.58689476 -171.5196357 876
-28.02455793 -171.323837 875
-23.4188513 -170.736441 872
-18.90922888 -170.736441 872
-14.43263307 -171.1280383 874
-9.924009197 -171.323837 875
-5.405042154 -171.5196357 876
-0.8757319396 -171.7154343 877
3.668094476 -172.1070317 879
8.232607234 -172.498629 881
12.83232253 -173.086025 884
17.46306735 -173.673421 887
22.17456042 -174.6524144 892
26.84767647 -175.0440117 894
31.61188395 -175.8272064 898
36.49821236 -177.0019984 904
41.17332552 -177.0019984 904
45.84843868 -177.0019984 904
50.52355184 -177.0019984 904
55.38184641 -177.5893945 907
60.07247432 -177.5893945 907
65.0487168 -178.3725891 911
-66.64788011 -173.0893936 908
-61.74739312 -172.5175124 905
-56.6887629 -171.3737499 899
-51.86584969 -170.8018686 896
-47.02125159 -170.0393603 892
-42.26556899 -169.467479 889
-37.49854466 -168.7049707 885
-32.95889128 -168.8955978 886
-28.34483859 -168.7049707 885
-23.74112907 -168.5143436 884
-19.19113252 -168.7049707 885
-14.63079279 -168.8955978 886
-10.04876817 -168.8955978 886
-5.485253966 -169.467479 889
-0.8877145887 -169.467479 889
3.71399782 -169.6581061 890
8.335398017 -170.0393603 892
12.99200076 -170.6112415 895
17.6993208 -171.3737499 899
22.3734354 -171.5643769 900
27.08792413 -171.9456311 902
31.78789666 -172.1362582 903
36.61933475 -172.8987665 907
41.35550838 -173.0893936 908
46.05130788 -173.0893936 908
50.69121849 -172.8987665 907
55.50396735 -173.2800207 909
60.33740254 -173.6612749 911
-66.9414831 -169.1354161 912
-62.1567681 -168.9499606 911
-57.0040508 -167.6517721 904
-52.21316565 -167.2808611 902
-47.39025244 -166.7244946 899
-42.59836874 -166.1681281 896
-37.75277208 -165.2408506 891
-33.10768988 -165.0553951 890
-28.47295086 -164.8699396 889
-23.87541148 -164.8699396 889
-19.299557 -165.0553951 890
-14.71335934 -165.2408506 891
-10.11681852 -165.4263061 892
-5.516104664 -165.7972171 894
-0.8937059133 -165.9826726 895
3.739036008 -166.1681281 896
8.391465716 -166.5390391 898
13.06458177 -166.9099501 900
17.77807194 -167.4663166 903
22.47287289 -167.6517721 904
27.14798605 -167.6517721 904
31.85830175 -167.8372276 905
36.70008301 -168.5790496 909
41.40105409 -168.5790496 909
46.10202518 -168.5790496 909
50.80299626 -168.5790496 909
55.68714876 -169.1354161 912
60.46986665 -169.3208716 913
-71.89368595 -164.959782 915
-67.01488385 -164.5992142 913
-62.22499726 -164.4189303 912
-57.19322353 -163.5175107 907
-52.32893764 -162.976659 904
-47.54839567 -162.6160911 902
-42.78854003 -162.2555233 900
-37.96462827 -161.5343877 896
-33.29368814 -161.3541037 895
-28.63309119 -161.1738198 894
-24.00969388 -161.1738198 894
-19.40798147 -161.3541037 895
-14.82895251 -161.8949555 898
-10.18486887 -161.8949555 898
-5.546955361 -162.0752394 899
-0.8986986837 -162.2555233 900
3.764074195 -162.6160911 902
8.428844183 -162.6160911 902
13.12264657 -162.976659 904
17.85682309 -163.5175107 907
22.54745101 -163.5175107 907
27.23807892 -163.5175107 907
31.99911192 -163.8780785 909
36.82120539 -164.4189303 912
41.58323695 -164.5992142 913
46.30489437 -164.5992142 913
50.97066292 -164.4189303 912
55.87033017 -164.959782 915
60.60233076 -164.959782 915
-67.16168535 -160.2277814 915
-62.29322643 -159.8775568 913
-57.25628111 -159.0019951 908
-52.50259562 -158.8268828 907
-47.65382448 -158.3015458 904
-42.9311685 -158.1264335 903
-38.09174198 -157.4259842 899
-33.44248675 -157.4259842 899
-28.76120345 -157.2508718 898
-24.11711981 -157.2508718 898
-19.49472105 -157.4259842 899
-14.89500575 -157.9513212 902
-10.24157749 -158.1264335 903
-5.571635919 -158.1264335 903
-0.9026929001 -158.3015458 904
3.772420258 -158.3015458 904
8.456878033 -158.4766581 905
13.18071138 -159.0019951 908
17.93557424 -159.5273321 911
22.6468885 -159.5273321 911
27.38823371 -159.7024445 912
32.1399221 -159.8775568 913
36.98270191 -160.4028938 916
41.71987409 -160.4028938 916
46.45704627 -160.4028938 916
51.13832957 -160.2277814 915
55.93139064 -160.4028938 916
60.80102693 -160.7531184 918
-67.2350861 -155.6657216 916
-62.42968475 -155.4957808 915
-57.44545384 -154.8160179 911
-52.6183676 -154.4761364 909
-47.8119677 -154.1362549 907
-43.02625414 -153.7963734 905
-38.30359816 -153.6264327 904
-33.59128535 -153.4564919 903
-28.88931572 -153.2865512 902
-24.25140221 -153.4564919 903
-19.62483043 -153.7963734 905
-14.99408561 -154.3061956 908
-10.29828612 -154.3061956 908
-5.608656755 -154.4761364 909
-0.9096827788 -154.8160179 911
3.805804508 -154.9859586 912
8.522290349 -154.9859586 912
13.25329239 -155.1558994 913
18.03401318 -155.6657216 916
22.82090411 -156.0056031 918
27.56841946 -156.0056031 918
32.31593481 -156.0056031 918
37.10382429 -156.1755438 919
41.85651123 -156.1755438 919
46.60919817 -156.1755438 919
51.30599623 -156.0056031 918
56.05351158 -156.0056031 918
60.80102693 -156.0056031 918
-67.3818876 -151.2580877 918
-62.49791392 -150.9285494 916
-57.50851142 -150.2694728 912
-52.6183676 -149.7751653 909
-47.86468211 -149.6103961 908
-43.12133979 -149.445627 907
-38.3459694 -149.1160887 905
-33.62848501 -148.9513195 904
-28.95337185 -148.9513195 904
-24.30511517 -149.1160887 905
-19.71157001 -149.7751653 909
-15.04362555 -150.1047036 911
-10.33231129 -150.1047036 911
-5.627167174 -150.2694728 912
-0.9116798869 -150.4342419 913
3.818323602 -150.7637802 915
8.559668815 -150.9285494 916
13.3258734 -151.2580877 918
18.09307654 -151.4228569 919
22.87062285 -151.587626 920
27.59845042 -151.4228569 919
32.3863399 -151.587626 920
37.22494668 -151.9171644 922
41.99314838 -151.9171644 922
46.65991547 -151.587626 920
51.36188511 -151.4228569 919
56.11457205 -151.4228569 919
60.86725899 -151.4228569 919
-67.45528835 -146.6701699 919
-62.63437225 -146.5105724 918
-57.50851142 -145.5529869 912
-52.79202558 -145.5529869 912
-47.91739652 -145.0741942 909
-43.16888261 -144.9145966 908
-38.43071188 -144.7549991 907
-33.74008396 -144.7549991 907
-29.04945605 -144.7549991 907
-24.38568461 -144.9145966 908
-19.7766247 -145.5529869 912
-15.10967879 -146.0317797 915
-10.37767819 -146.0317797 915
-5.651847731 -146.1913772 916
-0.9176712115 -146.6701699 919
3.835015727 -146.6701699 919
8.597047282 -146.8297675 920
13.38393821 -147.1489627 922
18.1521399 -147.1489627 922
22.94520097 -147.3085602 923
27.71857425 -147.3085602 923
32.45674499 -147.1489627 922
37.26532081 -147.3085602 923
41.99314838 -147.1489627 922
46.76135007 -147.1489627 922
51.52955176 -147.1489627 922
56.29775346 -147.1489627 922
61.06595515 -147.1489627 922
-67.45528835 -141.917483 919
-62.63437225 -141.763057 918
-57.69768416 -141.2997791 915
-52.79202558 -140.8365011 912
-48.02282533 -140.6820751 911
-43.21642543 -140.3732231 909
-38.47308311 -140.2187971 908
-33.77728361 -140.2187971 908
-29.08148411 -140.2187971 908
-24.41254109 -140.3732231 909
-19.79830959 -140.9909271 913
-15.1261921 -141.454205 916
-10.41170336 -141.763057 918
-5.66418801 -141.763057 918
-0.9186697656 -142.071909 920
3.847534821 -142.380761 922
8.625081132 -142.535187 923
13.41297061 -142.6896129 924
18.23089105 -142.9984649 926
22.97006034 -142.6896129 924
27.74860521 -142.6896129 924
32.52715007 -142.6896129 924
37.30569494 -142.6896129 924
42.03869409 -142.535187 923
46.81206737 -142.535187 923
51.52955176 -142.380761 922
56.35881393 -142.535187 923
-67.67549059 -137.6125593 922
-62.70260141 -137.1647961 919
-57.88685689 -137.0155417 918
-53.02356955 -136.7170329 916
-48.23368296 -136.5677785 915
-43.50168237 -136.5677785 915
-38.76968177 -136.5677785 915
-34.07488082 -136.7170329 916
-29.33770864 -136.7170329 916
-24.65424942 -137.0155417 918
-19.99347365 -137.6125593 922
-15.25829858 -137.9110681 924
-10.50243716 -138.2095769 926
-5.713549126 -138.2095769 926
-0.9276567524 -138.6573401 929
3.880919071 -138.8065945 930
8.699838064 -138.9558489 931
13.51458403 -138.9558489 931
18.3096422 -138.8065945 930
23.11921658 -138.8065945 930
27.89876 -138.6573401 929
32.6327577 -138.3588313 927
37.42681732 -138.3588313 927
42.17533123 -138.2095769 926
46.96421927 -138.2095769 926
51.7531073 -138.2095769 926
56.60305581 -138.3588313 927
-67.74889134 -132.9884404 923
-62.9072889 -132.8443576 922
-57.94991447 -132.4121091 919
-53.19722753 -132.4121091 919
-48.39182619 -132.2680263 918
-43.64431083 -132.2680263 918
-38.93916672 -132.4121091 919
-34.22367943 -132.5561919 920
-29.46582091 -132.5561919 920
-24.76167535 -132.8443576 922
-20.08021323 -133.4206889 926
-15.30783851 -133.5647717 927
-10.54780406 -133.9970201 930
-5.738229684 -133.9970201 930
-0.9296538606 -134.1411029 931
3.893438164 -134.4292686 933
8.727871914 -134.5733514 934
13.55813263 -134.5733514 934
18.36870556 -134.4292686 933
23.14407595 -134.1411029 931
27.92879096 -133.9970201 930
32.73836533 -133.9970201 930
37.50756558 -133.8529373 929
42.22087695 -133.5647717 927
47.01493657 -133.5647717 927
51.7531073 -133.4206889 926
56.72517675 -133.8529373 929
-67.82229209 -128.3539784 924
-62.97551806 -128.2150671 923
-58.13908721 -128.0761559 922
-53.37088551 -128.0761559 922
-48.60268382 -128.0761559 922
-43.83448212 -128.0761559 922
-39.10865167 -128.2150671 923
-34.33527839 -128.2150671 923
-29.59393317 -128.3539784 924
-24.86910127 -128.6318008 926
-20.14526792 -129.0485345 929
-15.37389175 -129.326357 931
-10.58182924 -129.6041794 933
-5.744399823 -129.326357 931
-0.9326495229 -129.7430907 934
3.905957258 -130.0209131 936
8.755905764 -130.1598244 937
13.58716504 -130.0209131 936
18.38839335 -129.7430907 934
23.1937947 -129.6041794 933
27.95882191 -129.326357 931
32.77356788 -129.326357 931
37.54793971 -129.1874457 930
42.35751409 -129.1874457 930
47.11637117 -129.0485345 929
51.97666284 -129.1874457 930
56.84729769 -129.326357 931
-67.96909359 -123.8429128 926
-63.04374723 -123.5754335 924
-58.26520236 -123.5754335 924
-53.4866575 -123.5754335 924
-48.70811263 -123.5754335 924
-43.92956777 -123.5754335 924
-39.23576538 -123.8429128 926
-34.48407699 -123.9766524 927
-29.69001737 -123.9766524 927
-24.94967071 -124.2441317 929
-20.2320075 -124.7790903 933
-15.40691837 -124.7790903 933
-10.59317096 -124.91283 934
-5.762910241 -124.91283 934
-0.9356451852 -125.3140489 937
3.914303321 -125.4477885 938
8.765250381 -125.4477885 938
13.61619744 -125.4477885 938
18.42776893 -125.1803092 936
23.21865407 -124.91283 934
28.04891479 -124.91283 934
32.84397296 -124.7790903 933
37.58831384 -124.511611 931
42.4030598 -124.511611 931
47.21780576 -124.511611 931
52.1443295 -124.7790903 933
57.0304791 -124.91283 934
-68.18929584 -119.4397289 929
-63.38489305 -119.4397289 929
-58.58049025 -119.4397289 929
-53.83397346 -119.568297 930
-49.07711349 -119.696865 931
-44.35745317 -119.9540012 933
-39.65947775 -120.3397054 936
-34.85607351 -120.4682734 937
-30.01029803 -120.4682734 937
-25.19137904 -120.5968415 938
-20.40548667 -120.9825457 941
-15.53902485 -120.9825457 941
-10.66122131 -120.8539776 940
-5.806101218 -120.9825457 941
-0.9386408475 -120.8539776 940
3.922649383 -120.8539776 940
8.793284231 -120.9825457 941
13.65974605 -120.9825457 941
18.4671445 -120.5968415 938
23.31809156 -120.5968415 938
28.13900766 -120.4682734 937
32.98478314 -120.4682734 937
37.83055861 -120.4682734 937
42.67633409 -120.4682734 937
47.52210956 -120.4682734 937
52.53555169 -120.8539776 940
57.45790239 -120.9825457 941
-68.18929584 -114.6353261 929
-63.45312221 -114.7587226 930
-58.70660541 -114.8821191 931
-53.89185945 -114.8821191 931
-49.1825423 -115.128912 933
-44.40499599 -115.2523085 934
-39.74422022 -115.7458944 938
-34.89327316 -115.7458944 938
-30.10638223 -115.9926874 940
-25.27194848 -116.1160838 941
-20.47054135 -116.4862733 944
-15.57205147 -116.3628768 943
-10.69524648 -116.3628768 943
-5.806101218 -116.1160838 941
-0.9386408475 -115.9926874 940
3.926822414 -116.1160838 941
8.793284231 -116.1160838 941
13.65974605 -116.1160838 941
18.4671445 -115.7458944 938
23.31809156 -115.7458944 938
28.13900766 -115.6224979 937
33.01998568 -115.7458944 938
37.87093274 -115.7458944 938
42.7218798 -115.7458944 938
47.57282686 -115.7458944 938
52.59144057 -116.1160838 941
57.58002333 -116.3628768 943
-68.26269659 -109.9491482 930
-63.52135137 -110.0673731 931
-58.83272057 -110.3038229 933
-54.06551743 -110.4220478 934
-49.34068552 -110.6584976 936
-44.59516728 -110.8949474 938
-39.87133393 -111.249622 941
-35.00487211 -111.249622 941
-30.20246643 -111.4860718 943
-25.35251792 -111.6042967 944
-20.51391114 -111.8407465 946
-15.6215914 -111.8407465 946
-10.72927166 -111.8407465 946
-5.824611636 -111.6042967 944
-0.9416365097 -111.4860718 943
3.935168477 -111.4860718 943
8.811973464 -111.4860718 943
13.68877845 -111.4860718 943
18.52620786 -111.249622 941
23.39266968 -111.249622 941
28.22910054 -111.1313971 940
33.12559331 -111.249622 941
37.99205513 -111.249622 941
42.94960837 -111.4860718 943
47.82641336 -111.4860718 943
52.870885 -111.8407465 946
57.76320474 -111.8407465 946
-68.33609734 -105.2526272 931
-63.6578097 -105.4787338 933
-58.89577815 -105.5917871 934
-54.18128941 -105.8178937 936
-49.39339993 -105.930947 937
-44.69025292 -106.2701069 940
-39.9560764 -106.6092668 943
-35.07927142 -106.6092668 943
-30.29855063 -106.9484267 946
-25.43308737 -107.06148 947
-20.60065073 -107.40064 950
-15.65461802 -107.1745334 948
-10.74061338 -107.06148 947
-5.836951915 -106.9484267 946
-0.944632172 -106.9484267 946
3.939341508 -106.7223201 944
8.82131808 -106.7223201 944
13.70329465 -106.7223201 944
18.58527122 -106.7223201 944
23.4672478 -106.7223201 944
28.34922437 -106.7223201 944
33.30160603 -106.9484267 946
38.19392577 -106.9484267 946
43.08624551 -106.9484267 946
48.23215175 -107.5136933 951
53.31799608 -107.8528532 954
58.37380944 -108.0789598 956
-68.55629958 -100.7615264 934
-63.86249719 -100.9772898 936
-59.08495088 -101.0851715 937
-54.2970614 -101.1930532 938
-49.55154315 -101.4088167 940
-44.83288139 -101.7324618 943
-40.16793259 -102.2718704 948
-35.33966898 -102.4876339 950
-30.52274709 -102.811279 953
-25.70165218 -103.2428059 957
-20.75244499 -103.2428059 957
-15.80323781 -103.2428059 957
-10.80866373 -102.811279 953
-5.867802612 -102.5955156 951
-0.9496249425 -102.5955156 951
3.968552727 -102.5955156 951
8.886730397 -102.5955156 951
13.83394047 -102.811279 953
18.7821491 -102.9191608 954
23.71584152 -102.9191608 954
28.70959586 -103.1349242 956
33.65363146 -103.1349242 956
38.59766706 -103.1349242 956
43.54170265 -103.1349242 956
48.48573825 -103.1349242 956
53.48566273 -103.2428059 957
-68.70310108 -96.13668591 936
-63.93072636 -96.23939604 937
-59.14800846 -96.34210618 938
-54.41283339 -96.54752645 940
-49.70968638 -96.85565685 943
-44.88042421 -96.95836699 944
-40.2950463 -97.67733793 951
-35.45126793 -97.8827582 953
-30.61883129 -98.1908886 956
-25.75536514 -98.499019 959
-20.81749968 -98.60172914 960
-15.80323781 -98.29359873 957
-10.82000546 -97.98546833 954
-5.880142891 -97.8827582 953
-0.9516220507 -97.8827582 953
3.97689879 -97.8827582 953
8.914764246 -97.98546833 954
13.89200528 -98.29359873 957
18.88058803 -98.499019 959
23.84013839 -98.499019 959
28.8297197 -98.60172914 960
33.79444163 -98.60172914 960
38.71878944 -98.499019 959
43.6783398 -98.499019 959
48.53645555 -98.29359873 957
53.65332939 -98.60172914 960
-68.77650183 -91.39362057 937
-63.99895552 -91.49115912 938
-59.27412362 -91.68623622 940
-54.47071938 -91.78377477 941
-49.76240078 -92.07639041 944
-45.02305268 -92.36900606 947
-40.37978877 -92.95423736 953
-35.56286689 -93.246853 956
-30.71491549 -93.53946865 959
-25.83593458 -93.8320843 962
-20.88255437 -93.92962285 963
-15.83626443 -93.53946865 959
-10.84268891 -93.246853 956
-5.898653309 -93.246853 956
-0.9546177129 -93.246853 956
3.989417883 -93.246853 956
8.942798096 -93.34439155 957
13.96458629 -93.8320843 962
18.95933918 -93.92962285 963
23.93957588 -93.92962285 963
28.91981257 -93.92962285 963
33.90004926 -93.92962285 963
38.88028596 -93.92962285 963
43.81497694 -93.8320843 962
48.68860745 -93.6370072 960
53.82099604 -93.92962285 963
-68.99670408 -86.82494599 940
-64.13541385 -86.82494599 940
-59.46329635 -87.10204688 943
-54.64437736 -87.19441384 944
-49.92054401 -87.47151473 947
-45.16568115 -87.74861562 950
-40.50690248 -88.30281741 956
-35.67446584 -88.5799183 959
-30.81099969 -88.85701919 962
-25.86279106 -88.94938615 963
-20.86086947 -88.85701919 962
-15.83626443 -88.5799183 959
-10.85403063 -88.39518437 957
-5.904823449 -88.39518437 957
-0.9576133752 -88.5799183 959
4.001936977 -88.5799183 959
8.970831946 -88.67228526 960
14.00813489 -89.13412008 965
19.01840255 -89.22648705 966
24.06387274 -89.41122097 968
29.09999832 -89.50358794 969
34.11126453 -89.50358794 969
39.0821566 -89.41122097 968
43.95161408 -89.13412008 965
48.84075935 -88.94938615 963
53.98866269 -89.22648705 966
-69.21690632 -82.22524189 943
-64.54478883 -82.48682803 946
-59.77858424 -82.66121878 948
-54.99169331 -82.83560954 950
-50.23683045 -83.09719568 953
-45.45093808 -83.35878181 956
-40.7611299 -83.88195408 962
-35.82326445 -83.96914946 963
-30.81099969 -83.88195408 962
-25.83593458 -83.88195408 962
-20.81749968 -83.70756333 960
-15.85277774 -83.70756333 960
-10.8880558 -83.70756333 960
-5.935674146 -83.88195408 962
-0.9606090375 -83.88195408 962
4.018629102 -83.96914946 963
9.026899646 -84.2307356 966
14.09523211 -84.66671249 971
19.13652927 -84.75390787 972
24.16331023 -84.75390787 972
29.16006024 -84.66671249 971
34.18166961 -84.66671249 971
39.12253073 -84.49232173 969
43.99715979 -84.2307356 966
48.94219395 -84.14354022 965
54.10044046 -84.40512635 968
-69.51050932 -77.67653208 947
-64.81770548 -77.92260346 950
-60.09387213 -78.16867484 953
-55.22323729 -78.25069863 954
-50.44768808 -78.49677001 957
-45.73619501 -78.90688897 962
-40.80350114 -78.98891277 963
-35.82326445 -78.98891277 963
-30.81099969 -78.90688897 962
-25.83593458 -78.90688897 962
-20.81749968 -78.74284139 960
-15.85277774 -78.74284139 960
-10.8880558 -78.74284139 960
-5.935674146 -78.90688897 962
-0.9616075916 -78.98891277 963
4.026975165 -79.15296035 965
9.045588879 -79.39903173 968
14.09523211 -79.64510311 971
19.13652927 -79.7271269 972
24.16331023 -79.7271269 972
29.16006024 -79.64510311 971
34.18166961 -79.64510311 971
39.0821566 -79.39903173 968
43.99715979 -79.23498415 966
48.94219395 -79.15296035 965
53.98866269 -79.23498415 966
-69.73071157 -73.00959737 950
-65.09062214 -73.3170062 954
-60.34610245 -73.54756283 957
-55.51266725 -73.70126724 959
-45.78373784 -74.00867607 963
-40.80350114 -74.00867607 963
-35.82326445 -74.00867607 963
-30.81099969 -73.93182387 962
-25.78222162 -73.77811945 960
-20.79581478 -73.70126724 959
-15.83626443 -73.70126724 959
-10.87671408 -73.70126724 959
-5.935674146 -73.93182387 962
4.018629102 -74.00867607 963
9.017555029 -74.16238049 965
14.0226511 -74.2392327 966
19.05777812 -74.39293711 968
24.06387274 -74.39293711 968
29.00990545 -74.2392327 966
33.97045435 -74.16238049 965
38.88028596 -74.00867607 963
43.81497694 -73.93182387 962
48.68860745 -73.77811945 960
53.65332939 -73.77811945 960
-69.95091381 -68.31163316 953
-65.29530963 -68.59835564 957
-60.53527518 -68.81339751 960
-55.85998321 -69.17180062 965
-50.76397453 -69.02843938 963
-45.78373784 -69.02843938 963
-40.7611299 -68.95675876 962
-35.67446584 -68.74171689 959
-30.65085936 -68.59835564 957
-25.62108273 -68.38331378 954
-20.66570541 -68.31163316 953
-15.75369788 -68.38331378 954
-10.82000546 -68.38331378 954
-5.898653309 -68.52667502 956
-0.9606090375 -68.95675876 962
4.006110008 -68.81339751 960
8.989521179 -68.95675876 962
13.97910249 -69.02843938 963
18.99871476 -69.17180062 965
23.93957588 -69.02843938 963
28.88978161 -68.95675876 962
33.86484672 -68.95675876 962
38.75916357 -68.81339751 960
43.6783398 -68.74171689 959
48.53645555 -68.59835564 957
53.48566273 -68.59835564 957
-70.24451681 -63.64914846 957
-65.49999712 -63.84867557 960
-60.85056307 -64.18122076 965
-55.85998321 -64.18122076 965
-50.76397453 -64.04820269 963
-45.64110937 -63.84867557 960
-40.63401619 -63.78216654 959
-35.56286689 -63.58263943 956
-30.55477516 -63.44962135 954
-25.54051329 -63.25009424 951
-20.62233562 -63.25009424 951
-15.73718457 -63.38311231 953
-10.82000546 -63.44962135 954
-5.898653309 -63.58263943 956
-0.955616267 -63.64914846 957
4.001936977 -63.78216654 959
8.970831946 -63.84867557 960
13.93555388 -63.84867557 960
18.90027582 -63.84867557 960
23.86499776 -63.84867557 960
28.79968874 -63.78216654 959
33.75923909 -63.78216654 959
38.63804119 -63.64914846 957
43.54170265 -63.58263943 956
48.38430365 -63.44962135 954
53.31799608 -63.44962135 954
-65.63645545 -59.00662854 962
-60.72444792 -59.06796599 963
-55.74421122 -59.06796599 963
-50.71126012 -59.00662854 962
-45.59356655 -58.82261618 959
-40.50690248 -58.63860383 956
-35.45126793 -58.45459147 953
-30.42666289 -58.27057912 950
-25.51365681 -58.27057912 950
-20.60065073 -58.27057912 950
-15.70415795 -58.33191657 951
-10.80866373 -58.45459147 953
-5.880142891 -58.45459147 953
-0.9526206048 -58.51592893 954
3.989417883 -58.63860383 956
8.93345348 -58.63860383 956
13.87748908 -58.63860383 956
18.84121246 -58.69994128 957
23.76556027 -58.63860383 956
28.70959586 -58.63860383 956
33.65363146 -58.63860383 956
38.5169188 -58.51592893 954
43.40506551 -58.45459147 953
48.23215175 -58.33191657 951
53.26210719 -58.45459147 953
-65.49999712 -53.9192317 960
-60.66139034 -54.03156343 962
-55.68632523 -54.03156343 962
-50.60583131 -53.9192317 960
-45.4984809 -53.7507341 957
-40.42216001 -53.5822365 954
-35.45126793 -53.52607063 953
-30.42666289 -53.35757304 950
-25.51365681 -53.35757304 950
-20.60065073 -53.35757304 950
-15.70415795 -53.4137389 951
-10.78598028 -53.4137389 951
-5.867802612 -53.4137389 951
-0.9496249425 -53.4137389 951
3.964379696 -53.35757304 950
8.87738578 -53.35757304 950
13.79039186 -53.35757304 950
18.72308574 -53.4137389 951
23.64126341 -53.4137389 951
28.61950299 -53.52607063 953
33.54802383 -53.52607063 953
38.47654467 -53.52607063 953
43.40506551 -53.52607063 953
48.33358635 -53.52607063 953
53.26210719 -53.52607063 953
-65.43176796 -48.90351548 959
-60.4722176 -48.90351548 959
-55.39689527 -48.80152692 957
-50.44768808 -48.80152692 957
-45.35585244 -48.64854408 954
-40.37978877 -48.59754979 953
-35.37686863 -48.49556123 951
-30.45869096 -48.49556123 951
-25.51365681 -48.44456695 950
-20.62233562 -48.49556123 951
-15.70415795 -48.49556123 951
-10.78598028 -48.49556123 951
-5.861632473 -48.44456695 950
-0.9486263884 -48.44456695 950
3.964379696 -48.44456695 950
8.87738578 -48.44456695 950
13.76135946 -48.34257839 948
18.66402237 -48.34257839 948
23.56668529 -48.34257839 948
28.55944107 -48.49556123 951
33.47761874 -48.49556123 951
38.47654467 -48.59754979 953
43.40506551 -48.59754979 953
48.33358635 -48.59754979 953
53.31799608 -48.64854408 954
-65.22708047 -43.80649704 956
-60.15692971 -43.71485165 954
-55.22323729 -43.71485165 954
-50.23683045 -43.66902895 953
-45.21322397 -43.57738356 951
-40.2950463 -43.57738356 951
-35.37686863 -43.57738356 951
-30.45869096 -43.57738356 951
-25.54051329 -43.57738356 951
-20.62233562 -43.57738356 951
-15.70415795 -43.57738356 951
-10.77463856 -43.53156087 950
-5.849292194 -43.43991548 948
-0.9466292802 -43.43991548 948
3.951860602 -43.39409278 947
8.84935193 -43.39409278 947
13.74684326 -43.39409278 947
18.64433459 -43.39409278 947
23.56668529 -43.43991548 948
28.52941012 -43.53156087 950
33.47761874 -43.57738356 951
38.5169188 -43.71485165 954
43.45061123 -43.71485165 954
48.38430365 -43.71485165 954
53.48566273 -43.85231974 957
-59.9046994 -38.61855478 950
-54.99169331 -38.61855478 950
-49.97325842 -38.53725256 948
-45.0705955 -38.53725256 948
-40.16793259 -38.53725256 948
-35.26526967 -38.53725256 948
-30.42666289 -38.61855478 950
-25.51365681 -38.61855478 950
-20.60065073 -38.61855478 950
-15.65461802 -38.53725256 948
-10.75195511 -38.53725256 948
-5.843122054 -38.49660145 947
-0.944632172 -38.45595034 946
3.939341508 -38.37464812 944
8.82131808 -38.37464812 944
13.73232706 -38.45595034 946
18.6246468 -38.45595034 946
23.56668529 -38.53725256 948
28.4693482 -38.53725256 948
33.47761874 -38.65920589 951
38.5169188 -38.78115922 954
43.45061123 -38.78115922 954
48.48573825 -38.86246144 956
-59.52635393 -33.49267155 944
-54.58649136 -33.45719202 943
-49.76240078 -33.49267155 944
-44.88042421 -33.49267155 944
-39.99844764 -33.49267155 944
-35.11647107 -33.49267155 944
-30.2344945 -33.49267155 944
-25.32566144 -33.45719202 943
-20.44885646 -33.45719202 943
-15.53902485 -33.38623297 941
-10.67256303 -33.38623297 941
-5.787590799 -33.2797944 938
-0.9356451852 -33.24431487 937
3.914303321 -33.2797944 938
8.765250381 -33.2797944 938
13.65974605 -33.38623297 941
18.58527122 -33.49267155 944
23.51696654 -33.5636306 946
28.4693482 -33.63458965 948
33.4424162 -33.7055487 950
38.5169188 -33.8474668 954
43.54170265 -33.91842585 956
-49.39339993 -28.3985394 937
-44.54762446 -28.3985394 937
-39.74422022 -28.42884734 938
-34.96767246 -28.48946322 940
-30.10638223 -28.48946322 940
-25.16452256 -28.3985394 937
-20.31874708 -28.3985394 937
-15.4564583 -28.36823146 936
-10.59317096 -28.30761558 934
-5.756740102 -28.27730764 933
-0.9296538606 -28.21669176 931
3.897611196 -28.30761558 934
8.727871914 -28.30761558 934
13.60168124 -28.3985394 937
18.52620786 -28.51977116 941
23.4672478 -28.61069498 944
28.43931724 -28.7016188 947
33.4424162 -28.79254261 950
38.5169188 -28.91377437 954
