# .PCD v0.7 - Point Cloud Data file format
VERSION 0.7
FIELDS x y z
SIZE 4 4 4
TYPE F F F
COUNT 1 1 1
WIDTH 1607
HEIGHT 1
VIEWPOINT 0 0 0 1 0 0 0
POINTS 1607
DATA ascii
-578.926468 660.1080721 1314
-579.5330042 668.648283 1331
-577.8125057 674.6766673 1343
-574.267615 678.6955901 1351
-577.3583304 690.7523585 1375
-575.6388305 697.2831081 1388
-572.1466542 701.8043962 1397
-568.5613894 706.3256844 1406
-568.0767211 714.8658954 1423
-563.0817893 717.8800875 1429
-559.5802684 722.903741 1439
-555.9753158 727.9273945 1449
-552.2669315 732.951048 1459
-551.441937 741.9936244 1477
-558.53075 762.0882384 1517
-558.6716647 773.1402762 1539
-560.3742193 786.7041407 1566
-570.9668336 813.3295043 1619
-571.628901 826.3910034 1645
-566.2025518 830.9122916 1654
-545.8484436 813.3295043 1619
-519.880706 786.7041407 1566
-418.6899931 675.681398 1345
-402.2444261 660.1080721 1314
-393.9442104 657.5962453 1309
-387.1746052 657.5962453 1309
-379.5331779 656.0891492 1306
-373.6353947 657.5962453 1309
-368.2671103 660.1080721 1314
-362.2969249 661.6151681 1317
-357.1054729 664.6293602 1323
-350.7929643 665.6340909 1325
-346.2768141 670.1553791 1334
-340.9043567 673.1695712 1340
-335.2206056 675.681398 1345
-974.3678663 604.476492 1191
-968.2085081 604.476492 1191
-962.0491499 604.476492 1191
-955.8897918 604.476492 1191
-949.7304336 604.476492 1191
-945.1555777 605.4915658 1193
-940.5600354 606.5066397 1195
-935.9438068 607.5217136 1197
-932.0836282 609.0443244 1200
-927.4208554 610.0593983 1202
-922.7373961 611.0744721 1204
-920.3169154 613.6121568 1209
-919.3568188 617.1649154 1216
-913.068171 617.1649154 1216
-909.0166438 618.6875262 1219
-904.1935517 619.7026001 1221
-897.879046 619.7026001 1221
-891.5645403 619.7026001 1221
-883.7999936 618.6875262 1219
-875.3362843 617.1649154 1216
-869.0476365 617.1649154 1216
-861.3399772 616.1498415 1214
-852.9486701 614.6272307 1211
-846.6858802 614.6272307 1211
-839.0351084 613.6121568 1209
-832.7826617 613.6121568 1209
-825.1629194 612.5970829 1207
-818.9208159 612.5970829 1207
-810.6587984 611.0744721 1204
-804.4322096 611.0744721 1204
-798.2056209 611.0744721 1204
-791.9790321 611.0744721 1204
-785.7524433 611.0744721 1204
-779.5258546 611.0744721 1204
-773.2992658 611.0744721 1204
-767.072677 611.0744721 1204
-762.7418842 612.5970829 1207
-756.4997807 612.5970829 1207
-751.5008547 613.6121568 1209
-745.248408 613.6121568 1209
-738.9959614 613.6121568 1209
-733.9556627 614.6272307 1211
-727.6928729 614.6272307 1211
-721.430083 614.6272307 1211
-715.1672932 614.6272307 1211
-708.9045033 614.6272307 1211
-701.4812812 613.6121568 1209
-695.2288345 613.6121568 1209
-688.9763878 613.6121568 1209
-682.7239411 613.6121568 1209
-676.4714945 613.6121568 1209
-670.2190478 613.6121568 1209
-663.9666011 613.6121568 1209
-658.8021844 614.6272307 1211
-654.1559248 616.1498415 1214
-648.9449639 617.1649154 1216
-644.2418169 618.6875262 1219
-641.6009551 622.2402848 1226
-637.8513769 624.7779694 1231
-632.5111263 625.7930433 1233
-630.1970729 629.8533388 1241
-626.2923472 632.3910235 1246
-620.8434933 633.4060974 1248
-615.8662523 634.9287082 1251
-610.3708542 635.9437821 1253
-605.3367257 637.4663929 1256
-599.7947833 638.4814667 1258
-597.0618315 642.5417622 1266
-592.8468106 645.0794469 1271
-587.6575346 646.6020577 1274
-584.7177194 650.6623532 1282
-582.5970118 655.7377226 1292
-579.4813627 659.7980181 1300
-576.7235515 664.3658505 1309
-578.226769 674.0090523 1328
-573.9403445 677.0542739 1334
-571.7172037 682.6371803 1345
-574.8389486 694.8180667 1369
-571.4915767 699.3858992 1378
-568.4606701 704.4612685 1388
-564.9219495 709.029101 1397
-564.0846148 717.149692 1413
-559.1413989 720.1949136 1419
-554.5249915 723.7476722 1426
-550.9872695 728.8230415 1436
-547.3461158 733.8984109 1446
-544.7215885 740.4963911 1459
-557.0580256 767.9033857 1513
-560.1237028 783.1294938 1543
-561.8055711 796.8329911 1570
-574.1408308 826.2701334 1628
-576.1463331 841.4962415 1658
-573.7336619 850.6319064 1676
-556.3001432 837.435946 1650
-533.4918867 815.6118577 1607
-421.4916362 687.2050127 1354
-402.2444261 666.9035352 1314
-393.9442104 664.3658505 1309
-386.2872684 662.8432397 1306
-379.5331779 662.8432397 1306
-372.7790875 662.8432397 1306
-366.8657895 664.3658505 1309
-360.6463694 665.3809244 1311
-355.485947 668.426146 1317
-349.4692173 669.9487568 1320
-344.7193472 674.0090523 1328
-339.3779193 677.0542739 1334
-333.9744323 680.0994956 1340
-974.3678663 610.6358501 1191
-968.2085081 610.6358501 1191
-962.0491499 610.6358501 1191
-955.8897918 610.6358501 1191
-951.325279 611.6612672 1193
-945.1555777 611.6612672 1193
-940.5600354 612.6866842 1195
-935.9438068 613.7121012 1197
-932.0836282 615.2502268 1200
-928.9639849 617.3010609 1204
-925.0365757 618.8391865 1207
-920.3169154 619.8646035 1209
-919.3568188 623.4535632 1216
-913.068171 623.4535632 1216
-909.0166438 624.9916887 1219
-902.7124812 624.9916887 1219
-896.4083187 624.9916887 1219
-890.1041561 624.9916887 1219
-881.6249321 623.4535632 1216
-875.3362843 623.4535632 1216
-867.6182818 622.4281461 1214
-861.3399772 622.4281461 1214
-852.9486701 620.8900206 1211
-846.6858802 620.8900206 1211
-839.0351084 619.8646035 1209
-832.7826617 619.8646035 1209
-825.1629194 618.8391865 1207
-818.9208159 618.8391865 1207
-810.6587984 617.3010609 1204
-804.4322096 617.3010609 1204
-798.2056209 617.3010609 1204
-791.9790321 617.3010609 1204
-785.7524433 617.3010609 1204
-779.5258546 617.3010609 1204
-773.2992658 617.3010609 1204
-768.9839877 618.8391865 1207
-762.7418842 618.8391865 1207
-756.4997807 618.8391865 1207
-751.5008547 619.8646035 1209
-745.248408 619.8646035 1209
-740.2184526 620.8900206 1211
-733.9556627 620.8900206 1211
-727.6928729 620.8900206 1211
-721.430083 620.8900206 1211
-715.1672932 620.8900206 1211
-708.9045033 620.8900206 1211
-701.4812812 619.8646035 1209
-695.2288345 619.8646035 1209
-687.8366419 618.8391865 1207
-681.5945384 618.8391865 1207
-675.3524349 618.8391865 1207
-669.1103314 618.8391865 1207
-663.9666011 619.8646035 1209
-658.8021844 620.8900206 1211
-652.5393946 620.8900206 1211
-647.8776202 622.4281461 1214
-642.6563161 623.4535632 1216
-640.0309691 627.0425228 1223
-636.2969056 629.6060654 1228
-631.4851553 631.144191 1231
-628.6736312 634.7331507 1238
-623.7791355 636.2712762 1241
-618.3561396 637.2966933 1243
-613.4047565 638.8348188 1246
-609.396599 641.3983615 1251
-603.8908577 642.4237785 1253
-597.4108613 642.4237785 1253
-594.7037674 646.5254467 1261
-589.1152808 647.5508637 1263
-583.9673774 649.0889893 1266
-579.7006407 651.6525319 1271
-578.9895999 658.3177427 1284
-577.2525882 663.9575364 1295
-574.0800516 668.0592046 1303
-576.0497104 678.3133751 1323
-572.6496241 682.4150432 1331
-570.8670666 688.5675455 1343
-572.3195668 698.821716 1363
-570.2474006 704.9742182 1375
-567.2320087 710.1013034 1385
-563.7088029 714.7156801 1394
-561.2901404 720.8681824 1406
-556.7771647 724.4571421 1413
-551.8029193 727.5333932 1419
-548.3013984 732.6604784 1429
-544.6964458 737.7875637 1439
-540.9880615 742.9146489 1449
-551.5353089 768.0373665 1498
-554.6785599 783.4186221 1528
-557.5115158 798.7998778 1558
-574.1408308 834.6894744 1628
-576.1463331 850.07073 1658
-577.1568938 864.4265687 1686
-568.4376009 864.4265687 1686
-547.7670274 845.9690619 1650
-519.6254057 815.2065505 1590
-403.1627923 675.2371239 1317
-393.9442104 671.1354557 1309
-386.2872684 669.5973302 1306
-379.5331779 669.5973302 1306
-372.7790875 669.5973302 1306
-366.024997 669.5973302 1306
-360.0961843 671.1354557 1309
-354.676184 673.6989984 1314
-348.6749691 675.2371239 1317
-343.9406137 679.3387921 1325
-338.6147006 682.4150432 1331
-333.2267284 685.4912944 1337
-976.0040843 617.8309685 1193
-969.834383 617.8309685 1193
-963.6646817 617.8309685 1193
-957.4949804 617.8309685 1193
-952.9201244 618.8667287 1195
-950.7013355 621.4561292 1200
-946.0695921 622.4918895 1202
-939.8533465 622.4918895 1202
-937.5207827 625.08129 1207
-932.8218088 626.1170502 1209
-926.5693621 626.1170502 1209
-921.8393586 627.1528104 1211
-919.3568188 629.742211 1216
-915.3208063 631.2958513 1219
-909.0166438 631.2958513 1219
-902.7124812 631.2958513 1219
-896.4083187 631.2958513 1219
-890.1041561 631.2958513 1219
-881.6249321 629.742211 1216
-875.3362843 629.742211 1216
-867.6182818 628.7064507 1214
-861.3399772 628.7064507 1214
-852.9486701 627.1528104 1211
-846.6858802 627.1528104 1211
-840.4230904 627.1528104 1211
-832.7826617 626.1170502 1209
-826.530215 626.1170502 1209
-818.9208159 625.08129 1207
-812.6787123 625.08129 1207
-806.4366088 625.08129 1207
-800.1945053 625.08129 1207
-793.9524018 625.08129 1207
-787.7102983 625.08129 1207
-781.4681947 625.08129 1207
-775.2260912 625.08129 1207
-768.9839877 625.08129 1207
-764.0057481 626.1170502 1209
-757.7533014 626.1170502 1209
-752.7440323 627.1528104 1211
-746.4812425 627.1528104 1211
-740.2184526 627.1528104 1211
-733.9556627 627.1528104 1211
-727.6928729 627.1528104 1211
-721.430083 627.1528104 1211
-715.1672932 627.1528104 1211
-707.7337279 626.1170502 1209
-701.4812812 626.1170502 1209
-694.0787455 625.08129 1207
-687.8366419 625.08129 1207
-681.5945384 625.08129 1207
-675.3524349 625.08129 1207
-669.1103314 625.08129 1207
-662.8682279 625.08129 1207
-658.8021844 627.1528104 1211
-652.5393946 627.1528104 1211
-647.8776202 628.7064507 1214
-642.6563161 629.742211 1216
-640.0309691 633.3673717 1223
-635.2605914 634.921012 1226
-629.9461988 635.9567723 1228
-627.6580034 640.0998131 1236
-622.2712085 641.1355733 1238
-617.3611981 642.6892137 1241
-611.927859 643.7249739 1243
-607.9352163 646.3143744 1248
-602.9269458 647.8680147 1251
-597.4108613 648.9037749 1253
-593.288929 651.4931755 1258
-588.1823983 653.0468158 1261
-582.5835685 654.082576 1263
-578.3323465 656.6719766 1268
-578.087747 663.9222981 1282
-575.0238137 668.0653389 1290
-572.7583017 673.24414 1300
-574.7434752 683.6017422 1320
-572.6496241 689.2984233 1331
-569.5918609 693.9593443 1340
-571.0598759 704.3169465 1360
-569.0032244 710.5315078 1372
-564.3651321 713.6387884 1378
-561.2825096 718.8175895 1388
-558.8948767 725.0321508 1400
-554.0188914 728.1394314 1406
-549.4697146 731.7645922 1413
-545.9992232 736.9433933 1423
-540.9112029 740.0506739 1429
-538.3745926 746.7831153 1442
-538.6489699 757.6585976 1463
-549.233417 783.5526029 1513
-552.1439466 799.0890062 1543
-566.7348373 832.2333331 1607
-570.2389219 849.8412567 1641
-569.2834605 861.2346191 1663
-563.7174785 865.8955401 1672
-541.7913871 845.1803358 1632
-393.9442104 677.905061 1309
-386.2872684 676.3514207 1306
-378.6613559 674.7977803 1303
-371.9227802 674.7977803 1303
-365.1842045 674.7977803 1303
-359.2709065 676.3514207 1306
-353.866421 678.9408212 1311
-347.8807208 680.4944615 1314
-343.4214581 685.1553825 1323
-337.8514818 687.744783 1328
-332.4790244 690.8520637 1334
-326.3123187 692.405704 1337
-976.0040843 624.0006698 1193
-969.834383 624.0006698 1193
-965.2802134 625.0467732 1195
-960.7053575 626.0928766 1197
-954.5149698 626.0928766 1197
-952.2858377 628.708135 1202
-947.6437512 629.7542384 1204
-943.7628863 631.3233935 1207
-940.6277282 633.4156003 1211
-934.3649383 633.4156003 1211
-930.401328 634.9847554 1214
-925.6454666 636.0308587 1216
-921.6249688 637.6000138 1219
-915.3208063 637.6000138 1219
-909.0166438 637.6000138 1219
-902.7124812 637.6000138 1219
-897.879046 638.6461172 1221
-890.1041561 637.6000138 1219
-881.6249321 636.0308587 1216
-875.3362843 636.0308587 1216
-867.6182818 634.9847554 1214
-861.3399772 634.9847554 1214
-852.9486701 633.4156003 1211
-846.6858802 633.4156003 1211
-840.4230904 633.4156003 1211
-834.1603005 633.4156003 1211
-826.530215 632.3694969 1209
-820.2777683 632.3694969 1209
-814.0253216 632.3694969 1209
-807.7728749 632.3694969 1209
-800.1945053 631.3233935 1207
-793.9524018 631.3233935 1207
-789.0155349 632.3694969 1209
-782.7630882 632.3694969 1209
-776.5106415 632.3694969 1209
-770.2581948 632.3694969 1209
-764.0057481 632.3694969 1209
-759.0068222 633.4156003 1211
-752.7440323 633.4156003 1211
-746.4812425 633.4156003 1211
-740.2184526 633.4156003 1211
-733.9556627 633.4156003 1211
-727.6928729 633.4156003 1211
-721.430083 633.4156003 1211
-715.1672932 633.4156003 1211
-707.7337279 632.3694969 1209
-701.4812812 632.3694969 1209
-694.0787455 631.3233935 1207
-687.8366419 631.3233935 1207
-681.5945384 631.3233935 1207
-675.3524349 631.3233935 1207
-669.1103314 631.3233935 1207
-662.8682279 631.3233935 1207
-658.8021844 633.4156003 1211
-652.5393946 633.4156003 1211
-647.8776202 634.9847554 1214
-642.6563161 636.0308587 1216
-638.9843117 638.6461172 1221
-633.7061202 639.6922206 1223
-629.9461988 642.3074791 1228
-626.1345616 644.9227375 1233
-622.2712085 647.537996 1238
-615.8687859 647.537996 1238
-610.9432607 649.1071511 1241
-606.9609611 651.7224095 1246
-601.4810778 652.7685129 1248
-596.4572925 654.337668 1251
-592.3457033 656.9529265 1256
-586.7830746 657.9990299 1258
-581.6610292 659.5681849 1261
-577.4201504 662.1834434 1266
-576.7349675 668.9831154 1279
-573.686549 673.167529 1287
-571.8771351 678.9210976 1298
-573.43724 688.8590797 1317
-571.3589037 694.6126484 1328
-568.3166553 699.3201136 1337
-566.0211123 705.0736822 1348
-566.5148721 714.4886127 1366
-563.1364707 719.1960779 1375
-558.4518341 722.3343881 1381
-556.4996129 729.1340601 1394
-551.6546572 732.2723703 1400
-545.58104 733.8415253 1403
-542.1622645 739.0720423 1413
-537.1259601 742.2103524 1419
-536.1344764 751.1022312 1436
-533.4944343 757.9019032 1449
-543.788274 783.5314362 1498
-545.3450257 797.1307802 1524
-546.9855213 811.2531759 1551
-561.2040579 844.7284843 1615
-558.6714417 853.6203631 1632
-550.2314144 853.6203631 1632
-530.8360466 836.3596572 1599
-404.0811586 690.4282348 1320
-393.9442104 684.6746662 1309
-386.2872684 683.1055111 1306
-378.6613559 681.536356 1303
-371.066473 679.967201 1300
-365.1842045 681.536356 1303
-358.4456288 681.536356 1303
-353.326579 684.6746662 1309
-347.0864726 685.7207696 1311
-342.6427246 690.4282348 1320
-337.0882631 693.0434933 1325
-331.7313205 696.1818034 1331
-325.5801295 697.7509585 1334
-979.2765205 632.2832642 1197
-971.4602579 631.2268177 1195
-966.8957452 632.2832642 1197
-960.7053575 632.2832642 1197
-958.5020833 634.9243806 1202
-956.2470933 637.565497 1207
-951.5791488 638.6219436 1209
-946.890518 639.6783901 1211
-944.5114099 642.3195065 1216
-938.2227622 642.3195065 1216
-934.2332939 643.9041764 1219
-927.9291314 643.9041764 1219
-923.1370689 644.9606229 1221
-918.32432 646.0170695 1223
-911.9994711 646.0170695 1223
-905.6746222 646.0170695 1223
-899.3497734 646.0170695 1223
-891.5645403 644.9606229 1221
-881.6249321 642.3195065 1216
-875.3362843 642.3195065 1216
-869.0476365 642.3195065 1216
-861.3399772 641.26306 1214
-855.0616726 641.26306 1214
-846.6858802 639.6783901 1211
-840.4230904 639.6783901 1211
-834.1603005 639.6783901 1211
-827.8975107 639.6783901 1211
-821.6347208 639.6783901 1211
-815.3719309 639.6783901 1211
-809.1091411 639.6783901 1211
-802.8463512 639.6783901 1211
-796.5835614 639.6783901 1211
-790.3207715 639.6783901 1211
-784.0579816 639.6783901 1211
-777.7951918 639.6783901 1211
-771.5324019 639.6783901 1211
-765.2696121 639.6783901 1211
-759.0068222 639.6783901 1211
-752.7440323 639.6783901 1211
-746.4812425 639.6783901 1211
-742.0521895 641.26306 1214
-735.7738849 641.26306 1214
-727.6928729 639.6783901 1211
-721.430083 639.6783901 1211
-715.1672932 639.6783901 1211
-707.7337279 638.6219436 1209
-701.4812812 638.6219436 1209
-694.0787455 637.565497 1207
-687.8366419 637.565497 1207
-681.5945384 637.565497 1207
-675.3524349 637.565497 1207
-669.1103314 637.565497 1207
-662.8682279 637.565497 1207
-657.7141544 638.6219436 1209
-652.5393946 639.6783901 1211
-647.8776202 641.26306 1214
-642.6563161 642.3195065 1216
-638.9843117 644.9606229 1221
-632.669806 644.9606229 1221
-627.3812713 646.0170695 1223
-625.1189338 650.2428557 1231
-619.7579969 651.2993023 1233
-614.8738444 652.8839721 1236
-609.4663632 653.9404187 1238
-605.4995784 656.5815351 1243
-600.5171658 658.1662049 1246
-595.0269393 659.2226514 1248
-588.5728007 659.2226514 1248
-584.4508684 661.8637678 1253
-579.3546809 663.4484377 1256
-575.13966 666.0895541 1261
-573.1275557 671.3717868 1271
-570.1205099 675.5975731 1279
-568.3524686 681.4080291 1290
-570.8247697 692.500718 1311
-567.9169825 697.2547275 1320
-565.766244 703.0651836 1331
-562.6619366 707.8191931 1340
-562.7823437 716.7989888 1357
-558.2218252 719.9683285 1363
-553.5992476 723.1376681 1369
-550.1122429 727.8916776 1378
-544.1679154 729.4763475 1381
-539.7480282 733.1739104 1388
-534.872043 736.3432501 1394
-529.9339987 739.5125898 1400
-526.4273062 744.7948225 1410
-523.9217253 751.6617252 1423
-528.5418738 769.0930933 1456
-527.0952906 778.0728891 1473
-527.2362052 789.6938012 1495
-533.404476 810.8227323 1535
-546.0054838 842.516129 1595
-534.7224407 837.7621195 1586
-517.2248659 822.9718677 1558
-440.2031774 734.7585803 1391
-419.6238742 712.0449793 1348
-403.1627923 695.6700577 1317
-393.0413589 689.8596016 1306
-385.3999316 688.2749318 1303
-377.7895339 686.6902619 1300
-371.066473 686.6902619 1300
-363.7828837 685.6338154 1298
-357.6203511 686.6902619 1300
-350.8972901 686.6902619 1300
-344.9684774 688.2749318 1303
-341.0852577 694.0853878 1314
-335.816232 697.2547275 1320
-329.7374432 698.8393973 1323
-324.1157512 701.4805137 1328
-318.6812347 704.6498534 1334
-979.2765205 638.4736519 1197
-973.0861328 638.4736519 1197
-969.3190428 640.0738365 1200
-964.7183289 641.1406262 1202
-958.5020833 641.1406262 1202
-957.8315955 644.8743903 1209
-953.1533079 645.94118 1211
-949.2362418 647.5413646 1214
-946.841619 650.2083389 1219
-942.080586 651.2751286 1221
-935.7660803 651.2751286 1221
-929.4515746 651.2751286 1221
-924.6491689 652.3419184 1223
-920.5769553 653.942103 1226
-914.2365917 653.942103 1226
-905.6746222 652.3419184 1223
-899.3497734 652.3419184 1223
-893.0249245 652.3419184 1223
-883.7999936 650.2083389 1219
-877.495831 650.2083389 1219
-869.0476365 648.6081543 1216
-862.7589887 648.6081543 1216
-856.4703409 648.6081543 1216
-848.783368 647.5413646 1214
-842.5050634 647.5413646 1214
-836.2267587 647.5413646 1214
-827.8975107 645.94118 1211
-821.6347208 645.94118 1211
-815.3719309 645.94118 1211
-809.1091411 645.94118 1211
-802.8463512 645.94118 1211
-796.5835614 645.94118 1211
-790.3207715 645.94118 1211
-784.0579816 645.94118 1211
-777.7951918 645.94118 1211
-771.5324019 645.94118 1211
-765.2696121 645.94118 1211
-760.8871033 647.5413646 1214
-754.6087987 647.5413646 1214
-748.3304941 647.5413646 1214
-742.0521895 647.5413646 1214
-735.7738849 647.5413646 1214
-729.4955802 647.5413646 1214
-721.430083 645.94118 1211
-715.1672932 645.94118 1211
-707.7337279 644.8743903 1209
-700.320849 643.8076005 1207
-694.0787455 643.8076005 1207
-687.8366419 643.8076005 1207
-681.5945384 643.8076005 1207
-675.3524349 643.8076005 1207
-669.1103314 643.8076005 1207
-662.8682279 643.8076005 1207
-657.7141544 644.8743903 1209
-652.5393946 645.94118 1211
-646.2766047 645.94118 1211
-641.5993156 647.5413646 1214
-637.9376544 650.2083389 1219
-632.669806 651.2751286 1221
-627.3812713 652.3419184 1223
-623.595492 655.0088927 1228
-618.7527122 656.6090773 1231
-613.3814321 657.675867 1233
-608.4817649 659.2760516 1236
-604.5253233 661.9430259 1241
-599.0712978 663.0098156 1243
-594.0733704 664.6100002 1246
-588.5728007 665.67679 1248
-583.5179859 667.2769746 1251
-577.970872 668.3437643 1253
-572.8591697 669.9439489 1256
-571.7747763 676.3446872 1268
-568.7832452 680.6118461 1276
-567.0307187 686.4791896 1287
-568.6477111 696.6136921 1306
-566.6262621 702.4810356 1317
-563.2158326 706.7481945 1325
-560.1425548 711.5487482 1334
-560.2939914 720.6164609 1351
-555.7645024 723.8168301 1357
-549.9598077 725.4170147 1360
-546.5193472 730.2175685 1369
-541.8036811 733.4179377 1375
-535.8593536 735.0181222 1378
-531.4187801 738.7518863 1385
-526.5272801 741.9522555 1391
-521.5737211 745.1526247 1397
-519.1353708 752.0867579 1410
-519.8296451 763.8214449 1432
-517.4336661 771.288973 1446
-515.9508818 780.3566857 1463
-518.114706 795.2917419 1491
-511.773165 797.4253213 1495
-501.3444321 793.1581624 1487
-481.0390441 772.8891576 1449
-465.0483977 759.0208911 1423
-448.3617632 743.5524401 1394
-431.3421501 727.0171993 1363
-415.2657627 711.5487482 1334
-400.7138156 698.2138767 1309
-392.1385074 695.0135075 1303
-384.5125949 693.4133229 1300
-377.7895339 693.4133229 1300
-371.066473 693.4133229 1300
-362.9420912 690.7463486 1295
-357.0701659 692.3465331 1298
-350.3574481 692.3465331 1298
-344.1742291 693.4133229 1300
-340.3065242 699.2806664 1311
-335.0530132 702.4810356 1317
-328.9897393 704.0812202 1320
-323.383562 706.7481945 1325
-317.9645602 709.9485637 1331
-983.3670657 647.3568718 1202
-978.776695 648.4340047 1204
-972.5501062 648.4340047 1204
-970.3364889 651.126837 1209
-965.6788876 652.2039699 1211
-963.3773533 654.8968021 1216
-961.0241032 657.5896344 1221
-956.2734133 658.6667673 1223
-952.2787735 660.2824666 1226
-947.4815394 661.3595995 1228
-941.1308326 661.3595995 1228
-934.7801258 661.3595995 1228
-930.697569 662.9752988 1231
-924.3313475 662.9752988 1231
-917.9651259 662.9752988 1231
-909.3772985 661.3595995 1228
-903.0265917 661.3595995 1228
-895.2155007 660.2824666 1226
-886.7000756 658.6667673 1223
-878.9355289 657.5896344 1221
-872.6210232 657.5896344 1221
-866.3065174 657.5896344 1221
-858.5833434 656.5125015 1219
-850.1816931 654.8968021 1216
-843.8930453 654.8968021 1216
-837.6043976 654.8968021 1216
-831.3157498 654.8968021 1216
-825.027102 654.8968021 1216
-818.7384542 654.8968021 1216
-812.4498064 654.8968021 1216
-806.1611586 654.8968021 1216
-799.8725108 654.8968021 1216
-793.583863 654.8968021 1216
-787.2952152 654.8968021 1216
-781.0065675 654.8968021 1216
-774.7179197 654.8968021 1216
-768.4292719 654.8968021 1216
-762.1406241 654.8968021 1216
-755.8519763 654.8968021 1216
-749.5633285 654.8968021 1216
-743.2746807 654.8968021 1216
-735.7738849 653.8196692 1214
-729.4955802 653.8196692 1214
-721.430083 652.2039699 1211
-715.1672932 652.2039699 1211
-707.7337279 651.126837 1209
-700.320849 650.0497041 1207
-694.0787455 650.0497041 1207
-687.8366419 650.0497041 1207
-681.5945384 650.0497041 1207
-675.3524349 650.0497041 1207
-669.1103314 650.0497041 1207
-662.8682279 650.0497041 1207
-657.7141544 651.126837 1209
-652.5393946 652.2039699 1211
-646.2766047 652.2039699 1211
-641.5993156 653.8196692 1214
-637.9376544 656.5125015 1219
-632.669806 657.5896344 1221
-626.3553003 657.5896344 1221
-622.5798642 660.2824666 1226
-617.2447852 661.3595995 1228
-612.3864906 662.9752988 1231
-607.0048674 664.0524317 1233
-603.0639405 666.745264 1238
-598.1073858 668.3609633 1241
-592.6430172 669.4380962 1243
-587.6295751 671.0537956 1246
-582.1186622 672.1309285 1248
-577.0483327 673.7466278 1251
-572.8591697 676.4394601 1256
-570.8729233 681.8251246 1266
-566.5544707 684.5179568 1271
-563.5060522 688.8264884 1279
-561.6811235 694.7507193 1290
-563.184341 704.9834819 1309
-559.8152842 709.2920135 1317
-557.623173 715.2162444 1328
-556.9761883 723.2947411 1343
-552.0785182 725.9875734 1348
-547.5335144 729.2189721 1354
-544.1240835 734.0660701 1363
-538.2573298 735.6817695 1366
-533.5261489 738.9131682 1372
-527.5818214 740.5288675 1375
-522.7420373 743.7602662 1381
-518.2135468 747.5302314 1388
-513.244473 750.76163 1394
-511.8434355 759.3786932 1410
-507.7720416 764.2257913 1419
-503.9602256 769.6114558 1429
-500.0449779 774.9971203 1439
-494.9993289 778.7670854 1446
-486.17261 776.6128196 1442
-473.4035037 767.9957564 1426
-453.6101026 747.5302314 1388
-439.3559315 735.6817695 1366
-425.6457754 724.371874 1345
-412.4641196 713.6005451 1325
-400.7138156 704.9834819 1309
-392.1385074 701.7520832 1303
-384.5125949 700.1363838 1300
-377.2083193 699.0592509 1298
-370.4956015 699.0592509 1298
-362.9420912 697.4435516 1295
-356.2448882 697.4435516 1295
-350.3574481 699.0592509 1298
-343.6447303 699.0592509 1298
-339.7873686 704.9834819 1309
-334.2897945 707.6763141 1314
-328.2420353 709.2920135 1317
-322.8954358 712.5234122 1323
-317.2478858 715.2162444 1328
-985.0032838 654.6605935 1204
-981.2155074 656.2918076 1207
-974.9734039 656.2918076 1207
-970.3364889 657.3792837 1209
-968.0711557 660.0979738 1214
-965.7541066 662.816664 1219
-961.0241032 663.9041401 1221
-956.2734133 664.9916161 1223
-953.8322462 667.7103063 1228
-947.4815394 667.7103063 1228
-941.1308326 667.7103063 1228
-937.0637906 669.3415204 1231
-932.2096691 670.4289965 1233
-925.8331043 670.4289965 1233
-919.4565396 670.4289965 1233
-911.5989043 669.3415204 1231
-905.2326828 669.3415204 1231
-896.6758849 667.7103063 1228
-888.8751371 666.6228302 1226
-882.5347735 666.6228302 1226
-874.0503778 664.9916161 1223
-866.3065174 663.9041401 1221
-859.9920117 663.9041401 1221
-853.677506 663.9041401 1221
-845.9750183 662.816664 1219
-839.6708558 662.816664 1219
-831.3157498 661.1854499 1216
-825.027102 661.1854499 1216
-818.7384542 661.1854499 1216
-812.4498064 661.1854499 1216
-806.1611586 661.1854499 1216
-799.8725108 661.1854499 1216
-795.541718 662.816664 1219
-789.2375554 662.816664 1219
-781.0065675 661.1854499 1216
-774.7179197 661.1854499 1216
-768.4292719 661.1854499 1216
-762.1406241 661.1854499 1216
-755.8519763 661.1854499 1216
-749.5633285 661.1854499 1216
-743.2746807 661.1854499 1216
-735.7738849 660.0979738 1214
-729.4955802 660.0979738 1214
-721.430083 658.4667597 1211
-715.1672932 658.4667597 1211
-707.7337279 657.3792837 1209
-700.320849 656.2918076 1207
-694.0787455 656.2918076 1207
-687.8366419 656.2918076 1207
-681.5945384 656.2918076 1207
-675.3524349 656.2918076 1207
-669.1103314 656.2918076 1207
-662.8682279 656.2918076 1207
-657.7141544 657.3792837 1209
-652.5393946 658.4667597 1211
-646.2766047 658.4667597 1211
-641.5993156 660.0979738 1214
-637.9376544 662.816664 1219
-631.6334918 662.816664 1219
-626.3553003 663.9041401 1221
-621.0564224 664.9916161 1223
-616.2395005 666.6228302 1226
-610.8940784 667.7103063 1228
-606.0202691 669.3415204 1231
-602.0896854 672.0602106 1236
-596.6615179 673.1476867 1238
-590.2590952 673.1476867 1238
-586.2147366 675.8663768 1243
-581.1857798 677.4975909 1246
-575.6645237 678.585067 1248
-570.5786794 680.2162811 1251
-568.6182909 685.6536614 1261
-565.217206 689.4598277 1268
-562.1843023 693.809732 1276
-559.0686532 698.1596362 1284
-560.6029002 708.4906589 1303
-556.4147358 711.7530871 1309
-554.2639972 717.7342055 1320
-553.2436599 725.346538 1334
-548.8020878 728.6089662 1340
-543.8940745 731.3276563 1345
-540.5311878 736.2212987 1354
-534.7109784 737.8525128 1357
-528.8597394 739.4837269 1360
-522.977471 741.114941 1363
-519.3353187 746.0085833 1372
-513.3599617 747.6397974 1375
-508.4581185 750.9022256 1381
-502.7681973 753.0771777 1385
-498.8260931 757.97082 1394
-493.7329012 761.2332482 1400
-487.535166 762.8644623 1403
-479.2524622 761.2332482 1400
-469.9893331 757.97082 1394
-459.792323 753.0771777 1385
-443.4790412 737.8525128 1357
-431.958284 730.2401803 1343
-421.2152618 723.7153239 1331
-409.9737702 716.1029914 1317
-399.7954493 710.121873 1306
-391.2356558 706.8594448 1300
-383.9210371 705.7719687 1298
-377.2083193 705.7719687 1298
-369.6392942 704.1407546 1295
-362.1012987 702.5095405 1292
-355.4196104 702.5095405 1292
-349.5476851 704.1407546 1295
-342.8504821 704.1407546 1295
-337.4511682 706.8594448 1300
-333.5265758 712.8405632 1311
-327.4943314 714.4717773 1314
-322.1632466 717.7342055 1320
-316.5312114 720.4528957 1325
-987.4576109 662.5339111 1207
-982.8413823 663.6317303 1209
-976.5889356 663.6317303 1209
-971.9416775 664.7295496 1211
-968.0711557 666.3762784 1214
-967.3386089 670.2186458 1221
-962.5982622 671.316465 1223
-956.2734133 671.316465 1223
-953.8322462 674.0610131 1228
-947.4815394 674.0610131 1228
-943.4300122 675.707742 1231
-937.0637906 675.707742 1231
-932.2096691 676.8055612 1233
-925.8331043 676.8055612 1233
-921.6936601 678.4522901 1236
-913.0799748 676.8055612 1233
-906.7034101 676.8055612 1233
-900.3268454 676.8055612 1233
-890.3251781 674.0610131 1228
-883.9744713 674.0610131 1228
-876.1944098 672.9631939 1226
-869.8540462 672.9631939 1226
-859.9920117 670.2186458 1221
-853.677506 670.2186458 1221
-847.3630003 670.2186458 1221
-841.0484946 670.2186458 1221
-833.3666932 669.1208265 1219
-827.0625307 669.1208265 1219
-820.7583681 669.1208265 1219
-814.4542056 669.1208265 1219
-808.1500431 669.1208265 1219
-801.8458805 669.1208265 1219
-795.541718 669.1208265 1219
-789.2375554 669.1208265 1219
-782.9333929 669.1208265 1219
-776.6292303 669.1208265 1219
-770.3250678 669.1208265 1219
-762.1406241 667.4740977 1216
-755.8519763 667.4740977 1216
-749.5633285 667.4740977 1216
-743.2746807 667.4740977 1216
-735.7738849 666.3762784 1214
-729.4955802 666.3762784 1214
-721.430083 664.7295496 1211
-715.1672932 664.7295496 1211
-707.7337279 663.6317303 1209
-701.4812812 663.6317303 1209
-695.2288345 663.6317303 1209
-687.8366419 662.5339111 1207
-681.5945384 662.5339111 1207
-675.3524349 662.5339111 1207
-669.1103314 662.5339111 1207
-663.9666011 663.6317303 1209
-658.8021844 664.7295496 1211
-652.5393946 664.7295496 1211
-646.2766047 664.7295496 1211
-640.0138148 664.7295496 1211
-635.321011 666.3762784 1214
-630.0790206 667.4740977 1216
-625.3293293 669.1208265 1219
-619.0251667 669.1208265 1219
-613.7262889 670.2186458 1221
-608.4067246 671.316465 1223
-603.5587732 672.9631939 1226
-599.6540475 675.707742 1231
-594.2517379 676.8055612 1233
-589.3055264 678.4522901 1236
-582.9134469 678.4522901 1236
-578.8535736 681.1968382 1241
-573.3581755 682.2946574 1243
-568.2981891 683.9413863 1246
-565.0108791 687.7837536 1253
-560.7596571 690.5283017 1258
-556.4567193 693.2728498 1263
-553.4083008 697.6641268 1271
-552.4283376 704.7999518 1284
-549.1885704 709.1912288 1292
-545.8660579 713.5825057 1300
-544.9491523 721.2672404 1314
-540.6110119 724.5606981 1320
-534.9976659 726.207427 1323
-530.1517116 728.9519751 1328
-526.8301976 733.8921617 1337
-522.2489927 737.1856194 1343
-516.0709453 738.2834386 1345
-511.3863087 741.5768964 1351
-505.519555 743.2236252 1354
-499.6217718 744.8703541 1357
-493.6929591 746.5170829 1360
-487.7331168 748.1638118 1363
-480.684246 748.1638118 1363
-472.5928908 746.5170829 1360
-463.5055956 743.2236252 1354
-454.4803594 739.9301675 1348
-445.8491623 737.1856194 1343
-435.9624473 732.2454328 1334
-424.5606366 724.5606981 1320
-415.8353524 721.2672404 1314
-406.5495398 716.8759635 1306
-398.8770831 715.2292346 1303
-390.6337548 712.4846865 1298
-383.0337003 710.8379576 1295
-376.3364973 710.8379576 1295
-368.782987 709.1912288 1292
-361.5407704 708.0934096 1290
-355.4196104 709.1912288 1292
-348.7379222 709.1912288 1292
-342.0562339 709.1912288 1292
-336.1532791 710.8379576 1295
-331.4913259 715.2292346 1303
-326.2481581 718.5226923 1309
-319.966679 719.6205116 1311
-315.336754 724.5606981 1320
-309.211421 726.207427 1323
-985.0032838 667.113771 1204
-981.2155074 668.7760146 1207
-976.5889356 669.884177 1209
-971.9416775 670.9923394 1211
-968.0711557 672.6545831 1214
-965.7541066 675.4249891 1219
-959.4499441 675.4249891 1219
-953.1457816 675.4249891 1219
-949.9485644 677.6413139 1223
-945.9384099 679.3035575 1226
-939.5980462 679.3035575 1226
-934.7801258 680.4117199 1228
-932.2096691 683.182126 1233
-925.8331043 683.182126 1233
-921.6936601 684.8443696 1236
-915.3015806 684.8443696 1236
-908.9095011 684.8443696 1236
-900.3268454 683.182126 1233
-892.5002396 682.0739636 1231
-886.134018 682.0739636 1231
-877.6237645 680.4117199 1228
-869.8540462 679.3035575 1226
-863.5136825 679.3035575 1226
-855.0758312 677.6413139 1223
-847.3630003 676.5331515 1221
-841.0484946 676.5331515 1221
-834.7339889 676.5331515 1221
-827.0625307 675.4249891 1219
-820.7583681 675.4249891 1219
-814.4542056 675.4249891 1219
-808.1500431 675.4249891 1219
-801.8458805 675.4249891 1219
-795.541718 675.4249891 1219
-789.2375554 675.4249891 1219
-782.9333929 675.4249891 1219
-776.6292303 675.4249891 1219
-770.3250678 675.4249891 1219
-762.1406241 673.7627455 1216
-755.8519763 673.7627455 1216
-749.5633285 673.7627455 1216
-743.2746807 673.7627455 1216
-736.9860329 673.7627455 1216
-730.6973852 673.7627455 1216
-724.4087374 673.7627455 1216
-716.938971 672.6545831 1214
-708.9045033 670.9923394 1211
-702.6417134 670.9923394 1211
-696.3789236 670.9923394 1211
-690.1161337 670.9923394 1211
-683.8533439 670.9923394 1211
-677.590554 670.9923394 1211
-671.3277641 670.9923394 1211
-665.0649743 670.9923394 1211
-658.8021844 670.9923394 1211
-652.5393946 670.9923394 1211
-646.2766047 670.9923394 1211
-640.0138148 670.9923394 1211
-635.321011 672.6545831 1214
-629.0427064 672.6545831 1214
-623.7903728 673.7627455 1216
-617.501725 673.7627455 1216
-613.7262889 676.5331515 1221
-607.4117831 676.5331515 1221
-602.0818758 677.6413139 1223
-598.1926648 680.4117199 1228
-593.2878259 682.0739636 1231
-586.9216043 682.0739636 1231
-581.4986084 683.182126 1233
-577.4542499 685.952532 1238
-572.4356361 687.6147756 1241
-566.9298949 688.722938 1243
-562.7562467 691.493344 1248
-558.5308826 694.2637501 1253
-554.2538027 697.0341561 1258
-549.925007 699.8045621 1263
-548.9864165 707.0076178 1276
-545.788022 711.4402674 1284
-541.6670882 714.7647547 1290
-540.3871731 721.9678103 1303
-536.1059201 725.2922976 1309
-531.358226 728.0627036 1314
-526.9580266 731.3871908 1320
-523.2838462 735.8198405 1328
-517.5825832 737.4820841 1331
-511.8502907 739.1443277 1334
-508.3581145 744.1310585 1343
-502.1593807 745.2392209 1345
-496.3081418 746.9014646 1348
-489.3368447 746.9014646 1348
-483.4390615 748.5637082 1351
-477.5102488 750.2259518 1354
-469.4654379 748.5637082 1351
-459.7400406 744.1310585 1343
-451.7831466 742.4688149 1340
-442.8613422 739.1443277 1334
-433.0211714 734.1575968 1325
-422.6308155 728.0627036 1314
-414.2530261 725.2922976 1309
-405.6156588 721.9678103 1303
-397.3464726 719.1974043 1298
-389.7309033 717.5351607 1295
-382.1463635 715.8729171 1292
-375.4646753 715.8729171 1292
-368.2121155 714.7647547 1290
-361.5407704 714.7647547 1290
-354.8694253 714.7647547 1290
-348.1980802 714.7647547 1290
-342.0562339 715.8729171 1292
-335.3745456 715.8729171 1292
-330.7281072 720.3055667 1300
-325.5004542 723.6300539 1306
-319.4785529 725.2922976 1309
-314.6200795 729.7249472 1317
-308.5102613 731.3871908 1320
-985.0032838 673.3403598 1204
-981.2155074 675.0181181 1207
-974.9734039 675.0181181 1207
-971.9416775 677.2551293 1211
-968.0711557 678.9328877 1214
-963.3773533 680.0513933 1216
-957.0887055 680.0513933 1216
-950.8000577 680.0513933 1216
-948.3950917 682.8476572 1221
-942.080586 682.8476572 1221
-937.2988667 683.9661628 1223
-930.9740178 683.9661628 1223
-930.697569 688.4401851 1231
-924.3313475 688.4401851 1231
-921.6936601 691.2364491 1236
-915.3015806 691.2364491 1236
-908.9095011 691.2364491 1236
-902.5174216 691.2364491 1236
-896.1253421 691.2364491 1236
-887.5737159 689.5586907 1233
-879.7677965 688.4401851 1231
-873.4015749 688.4401851 1231
-863.5136825 685.6439212 1226
-857.1733189 685.6439212 1226
-848.7509823 683.9661628 1223
-842.4261334 683.9661628 1223
-834.7339889 682.8476572 1221
-827.0625307 681.7291516 1219
-820.7583681 681.7291516 1219
-814.4542056 681.7291516 1219
-806.1611586 680.0513933 1216
-799.8725108 680.0513933 1216
-795.541718 681.7291516 1219
-789.2375554 681.7291516 1219
-782.9333929 681.7291516 1219
-776.6292303 681.7291516 1219
-770.3250678 681.7291516 1219
-764.0209052 681.7291516 1219
-757.7167427 681.7291516 1219
-751.4125802 681.7291516 1219
-743.2746807 680.0513933 1216
-736.9860329 680.0513933 1216
-730.6973852 680.0513933 1216
-724.4087374 680.0513933 1216
-718.1200896 680.0513933 1216
-710.6606664 678.9328877 1214
-704.3823618 678.9328877 1214
-698.1040572 678.9328877 1214
-690.1161337 677.2551293 1211
-683.8533439 677.2551293 1211
-677.590554 677.2551293 1211
-671.3277641 677.2551293 1211
-665.0649743 677.2551293 1211
-658.8021844 677.2551293 1211
-652.5393946 677.2551293 1211
-646.2766047 677.2551293 1211
-640.0138148 677.2551293 1211
-633.751025 677.2551293 1211
-627.4882351 677.2551293 1211
-622.7644018 678.9328877 1214
-617.501725 680.0513933 1216
-612.7210042 681.7291516 1219
-607.4117831 682.8476572 1221
-601.0972774 682.8476572 1221
-597.2184096 685.6439212 1226
-590.878046 685.6439212 1226
-585.4912511 686.7624267 1228
-580.5553828 688.4401851 1231
-576.5213674 691.2364491 1236
-570.1292879 691.2364491 1236
-566.0176987 694.032713 1241
-560.5016143 695.1512186 1243
-557.6393728 699.6252409 1251
-552.0508862 700.7437465 1253
-547.7479483 703.5400105 1258
-546.8352158 710.8102967 1271
-542.3874736 713.6065607 1276
-538.3079124 716.9620774 1282
-537.06937 724.2323637 1295
-532.419936 727.0286277 1300
-528.1231683 730.3841444 1306
-522.5667097 732.0619028 1309
-518.9494168 736.5359251 1317
-514.4716436 739.8914418 1323
-508.3970279 741.0099474 1325
-502.6802502 742.6877058 1328
-499.1725591 747.7209809 1337
-492.2581495 747.7209809 1337
-486.4327685 749.3987393 1340
-479.5028441 749.3987393 1340
-473.6309188 751.0764977 1343
-465.6429954 749.3987393 1340
-456.6591319 746.0432225 1334
-447.7373274 742.6877058 1328
-439.209562 739.8914418 1323
-431.3871293 738.2136835 1320
-421.0226313 732.0619028 1309
-412.3542345 728.706386 1303
-404.6817778 727.0286277 1300
-397.3464726 725.9101221 1298
-388.8280518 722.5546053 1292
-382.1463635 722.5546053 1292
-374.8834606 721.4360998 1290
-368.2121155 721.4360998 1290
-361.5407704 721.4360998 1290
-354.8694253 721.4360998 1290
-348.1980802 721.4360998 1290
-341.5267351 721.4360998 1290
-334.85539 721.4360998 1290
-330.2192948 725.9101221 1298
-324.7527502 728.706386 1303
-319.4785529 732.0619028 1309
-313.9034051 734.8581667 1314
-307.8091016 736.5359251 1317
-985.0032838 679.5669485 1204
-978.776695 679.5669485 1204
-974.9734039 681.2602217 1207
-970.3364889 682.3890704 1209
-965.6788876 683.5179192 1211
-961.7928511 685.2111923 1214
-955.5145465 685.2111923 1214
-950.8000577 686.340041 1216
-944.5114099 686.340041 1216
-940.5374565 688.0333142 1219
-935.7660803 689.1621629 1221
-929.4515746 689.1621629 1221
-926.9173189 691.9842848 1226
-922.0787122 693.1131336 1228
-917.9651259 694.8064067 1231
-913.0799748 695.9352554 1233
-906.7034101 695.9352554 1233
-902.5174216 697.6285286 1236
-896.1253421 697.6285286 1236
-889.7332626 697.6285286 1236
-881.1971511 695.9352554 1233
-873.4015749 694.8064067 1231
-863.5136825 691.9842848 1226
-857.1733189 691.9842848 1226
-848.7509823 690.2910117 1223
-841.0484946 689.1621629 1221
-834.7339889 689.1621629 1221
-827.0625307 688.0333142 1219
-818.7384542 686.340041 1216
-812.4498064 686.340041 1216
-806.1611586 686.340041 1216
-799.8725108 686.340041 1216
-793.583863 686.340041 1216
-787.2952152 686.340041 1216
-782.9333929 688.0333142 1219
-776.6292303 688.0333142 1219
-770.3250678 688.0333142 1219
-764.0209052 688.0333142 1219
-757.7167427 688.0333142 1219
-751.4125802 688.0333142 1219
-745.1084176 688.0333142 1219
-738.8042551 688.0333142 1219
-732.5000925 688.0333142 1219
-726.19593 688.0333142 1219
-719.8917674 688.0333142 1219
-711.8314418 686.340041 1216
-705.542794 686.340041 1216
-699.2541462 686.340041 1216
-692.9654984 686.340041 1216
-685.5474479 685.2111923 1214
-679.2691433 685.2111923 1214
-672.9908387 685.2111923 1214
-665.0649743 683.5179192 1211
-658.8021844 683.5179192 1211
-652.5393946 683.5179192 1211
-646.2766047 683.5179192 1211
-640.0138148 683.5179192 1211
-633.751025 683.5179192 1211
-627.4882351 683.5179192 1211
-621.2254452 683.5179192 1211
-616.4860971 685.2111923 1214
-611.2130772 686.340041 1216
-606.4168416 688.0333142 1219
-601.0972774 689.1621629 1221
-595.7570269 690.2910117 1223
-590.878046 691.9842848 1226
-584.5376823 691.9842848 1226
-579.1405443 693.1131336 1228
-575.1220437 695.9352554 1233
-570.1292879 697.6285286 1236
-564.6494045 698.7573773 1238
-559.5997613 700.4506504 1241
-555.4105984 703.2727723 1246
-551.1697196 706.0948942 1251
-545.5708897 707.223743 1253
-543.3932947 712.8679867 1263
-538.9869251 715.6901086 1268
-534.9487367 719.0766548 1274
-531.67794 723.5920499 1282
-528.324398 728.1074449 1290
-523.6749639 730.9295667 1295
-518.973814 733.7516886 1300
-516.5851825 739.9603568 1311
-510.9718365 741.6536299 1314
-505.327461 743.346903 1317
-499.6520559 745.0401761 1320
-494.6923267 747.862298 1325
-488.9445195 749.5555711 1328
-482.0766541 749.5555711 1328
-475.2087888 749.5555711 1328
-468.3409234 749.5555711 1328
-461.4730581 749.5555711 1328
-452.8935768 746.7334493 1323
-444.0286598 743.346903 1317
-436.2217418 741.6536299 1314
-428.4458534 739.9603568 1311
-419.0928102 735.4449617 1303
-411.4048387 733.7516886 1300
-404.0591904 732.6228399 1298
-396.4281064 730.9295667 1295
-388.8280518 729.2362936 1292
-382.1463635 729.2362936 1292
-374.8834606 728.1074449 1290
-368.2121155 728.1074449 1290
-361.5407704 728.1074449 1290
-354.0441475 726.4141717 1287
-347.3883172 726.4141717 1287
-341.5267351 728.1074449 1290
-334.85539 728.1074449 1290
-330.2192948 732.6228399 1298
-324.0050463 733.7516886 1300
-318.7463637 737.1382349 1306
-313.1867306 739.9603568 1311
-307.1079419 741.6536299 1314
-983.3670657 684.6543454 1202
-978.776695 685.7935373 1204
-974.9734039 687.5023252 1207
-970.3364889 688.6415171 1209
-964.0840422 688.6415171 1209
-961.7928511 691.4894969 1214
-953.1533079 689.780709 1211
-946.890518 689.780709 1211
-942.9579372 691.4894969 1214
-938.2227622 692.6286888 1216
-934.2332939 694.3374767 1219
-927.9291314 694.3374767 1219
-924.6491689 696.6158606 1223
-920.5769553 698.3246484 1226
-915.7280054 699.4638404 1228
-911.5989043 701.1726283 1231
-905.2326828 701.1726283 1231
-898.8664612 701.1726283 1231
-893.9502806 702.3118202 1233
-887.5737159 702.3118202 1233
-881.1971511 702.3118202 1233
-873.4015749 701.1726283 1231
-863.5136825 698.3246484 1226
-857.1733189 698.3246484 1226
-848.7509823 696.6158606 1223
-841.0484946 695.4766686 1221
-833.3666932 694.3374767 1219
-825.027102 692.6286888 1216
-818.7384542 692.6286888 1216
-812.4498064 692.6286888 1216
-806.1611586 692.6286888 1216
-799.8725108 692.6286888 1216
-793.583863 692.6286888 1216
-787.2952152 692.6286888 1216
-781.0065675 692.6286888 1216
-776.6292303 694.3374767 1219
-770.3250678 694.3374767 1219
-764.0209052 694.3374767 1219
-758.9599203 695.4766686 1221
-752.6454146 695.4766686 1221
-746.3309089 695.4766686 1221
-740.0164031 695.4766686 1221
-733.7018974 695.4766686 1221
-727.3873917 695.4766686 1221
-721.072886 695.4766686 1221
-713.5876049 694.3374767 1219
-707.2834423 694.3374767 1219
-700.9792798 694.3374767 1219
-692.9654984 692.6286888 1216
-686.6768506 692.6286888 1216
-680.3882029 692.6286888 1216
-672.9908387 691.4894969 1214
-665.0649743 689.780709 1211
-658.8021844 689.780709 1211
-652.5393946 689.780709 1211
-646.2766047 689.780709 1211
-640.0138148 689.780709 1211
-633.751025 689.780709 1211
-627.4882351 689.780709 1211
-621.2254452 689.780709 1211
-614.9626554 689.780709 1211
-610.2077925 691.4894969 1214
-604.9244294 692.6286888 1216
-600.1126791 694.3374767 1219
-594.7827717 695.4766686 1221
-588.468266 695.4766686 1221
-583.1073291 696.6158606 1223
-578.1973187 698.3246484 1226
-572.7898375 699.4638404 1228
-567.8229396 701.1726283 1231
-562.3689142 702.3118202 1233
-557.3451289 704.0206081 1236
-554.0733337 708.0077798 1243
-548.966803 709.7165677 1246
-543.3938311 710.8557596 1248
-540.3816137 715.4125273 1256
-536.0114453 718.2605071 1261
-530.3298701 719.399699 1263
-525.0423339 721.1084869 1266
-522.5906448 726.8044465 1276
-518.4179952 730.2220223 1282
-513.7840759 733.0700021 1287
-510.2805579 737.6267698 1295
-505.5276921 740.4747496 1300
-499.9557188 742.1835375 1303
-494.3527159 743.8923253 1306
-489.4653889 746.7403052 1311
-483.7899839 748.449093 1314
-476.9945207 748.449093 1314
-470.1990576 748.449093 1314
-463.4035944 748.449093 1314
-455.565647 746.7403052 1311
-448.1010522 745.6011132 1309
-440.3199922 743.8923253 1306
-432.5699616 742.1835375 1303
-424.8509606 740.4747496 1300
-416.5197154 737.6267698 1295
-409.8225124 737.6267698 1295
-402.1914284 735.9179819 1292
-395.5097401 735.9179819 1292
-388.2261508 734.77879 1290
-381.5548057 734.77879 1290
-374.8834606 734.77879 1290
-368.2121155 734.77879 1290
-361.5407704 734.77879 1290
-354.8694253 734.77879 1290
-348.1980802 734.77879 1290
-341.5267351 734.77879 1290
-334.85539 734.77879 1290
-329.456076 737.6267698 1295
-323.506577 739.3355577 1298
-318.0141745 742.1835375 1303
-312.7089477 745.6011132 1309
-306.4067822 746.7403052 1311
-299.6268338 746.7403052 1311
-977.6403024 686.8472181 1195
-975.5249452 689.7210559 1200
-970.9345745 690.870591 1202
-964.7183289 690.870591 1202
-960.0969287 692.0201261 1204
-956.2470933 693.7444287 1207
-950.0049898 693.7444287 1207
-943.7628863 693.7444287 1207
-939.0742554 694.8939638 1209
-932.8218088 694.8939638 1209
-926.5693621 694.8939638 1209
-921.8393586 696.0434989 1211
-917.8447188 697.7678015 1214
-913.068171 698.9173366 1216
-909.0166438 700.6416393 1219
-904.1935517 701.7911744 1221
-901.5558644 704.6650121 1226
-896.6758849 705.8145472 1228
-892.5002396 707.5388498 1231
-886.134018 707.5388498 1231
-879.7677965 707.5388498 1231
-871.2730577 705.8145472 1228
-863.5136825 704.6650121 1226
-855.0758312 702.9407095 1223
-847.3630003 701.7911744 1221
-841.0484946 701.7911744 1221
-833.3666932 700.6416393 1219
-825.027102 698.9173366 1216
-818.7384542 698.9173366 1216
-812.4498064 698.9173366 1216
-804.8352357 697.7678015 1214
-798.556931 697.7678015 1214
-792.2786264 697.7678015 1214
-787.2952152 698.9173366 1216
-781.0065675 698.9173366 1216
-776.6292303 700.6416393 1219
-770.3250678 700.6416393 1219
-765.274426 701.7911744 1221
-758.9599203 701.7911744 1221
-752.6454146 701.7911744 1221
-746.3309089 701.7911744 1221
-741.2285512 702.9407095 1223
-734.9037023 702.9407095 1223
-728.5788535 702.9407095 1223
-722.2540046 702.9407095 1223
-715.9291557 702.9407095 1223
-708.4438746 701.7911744 1221
-702.1293689 701.7911744 1221
-694.6751173 700.6416393 1219
-688.3709547 700.6416393 1219
-680.3882029 698.9173366 1216
-674.0995551 698.9173366 1216
-666.7125341 697.7678015 1214
-658.8021844 696.0434989 1211
-652.5393946 696.0434989 1211
-646.2766047 696.0434989 1211
-640.0138148 696.0434989 1211
-633.751025 696.0434989 1211
-627.4882351 696.0434989 1211
-621.2254452 696.0434989 1211
-614.9626554 696.0434989 1211
-610.2077925 697.7678015 1214
-604.9244294 698.9173366 1216
-600.1126791 700.6416393 1219
-593.8085166 700.6416393 1219
-588.468266 701.7911744 1221
-582.1537603 701.7911744 1221
-576.7824802 702.9407095 1223
-572.7898375 705.8145472 1228
-567.8229396 707.5388498 1231
-562.3689142 708.6883849 1233
-557.3451289 710.4126876 1236
-553.1818239 713.2865253 1241
-547.6450531 714.4360604 1243
-542.5230077 716.160363 1246
-539.0908933 720.1837358 1253
-533.8861025 721.9080385 1256
-529.4900761 724.7818762 1261
-523.7981578 725.9314113 1263
-520.5428758 730.5295517 1271
-515.9917019 733.4033894 1276
-511.7880228 736.8519947 1282
-508.3103627 741.4501351 1290
-503.5833548 744.3239728 1295
-498.0372394 746.0482754 1298
-492.0815702 747.1978105 1300
-487.5986254 750.6464158 1306
-481.9490783 752.3707185 1309
-475.1794731 752.3707185 1309
-468.4098679 752.3707185 1309
-461.6402626 752.3707185 1309
-453.8281731 750.6464158 1306
-446.0471131 748.9221132 1303
-438.2970825 747.1978105 1300
-431.5740216 747.1978105 1300
-424.1973438 746.0482754 1298
-415.5548049 742.5996702 1292
-408.8731166 742.5996702 1292
-402.1914284 742.5996702 1292
-394.8974959 741.4501351 1290
-388.2261508 741.4501351 1290
-381.5548057 741.4501351 1290
-374.8834606 741.4501351 1290
-368.2121155 741.4501351 1290
-361.5407704 741.4501351 1290
-354.8694253 741.4501351 1290
-348.1980802 741.4501351 1290
-341.5267351 741.4501351 1290
-334.85539 741.4501351 1290
-329.456076 744.3239728 1295
-323.506577 746.0482754 1298
-317.2819853 747.1978105 1300
-312.7089477 752.3707185 1309
-305.9393425 752.3707185 1309
-299.1697372 752.3707185 1309
-976.0040843 691.8673844 1193
-973.0861328 694.1871409 1197
-969.3190428 695.9269583 1200
-964.7183289 697.0868366 1202
-958.5020833 697.0868366 1202
