# .PCD v0.7 - Point Cloud Data file format
VERSION 0.7
FIELDS x y z
SIZE 4 4 4
TYPE F F F
COUNT 1 1 1
WIDTH 1694
HEIGHT 1
VIEWPOINT 0 0 0 1 0 0 0
POINTS 1694
DATA ascii
-61.88385145 24.10760584 907
-57.19322353 24.10760584 907
-52.50259562 24.10760584 907
-47.70653889 24.05444684 905
-43.02625414 24.05444684 905
-38.3459694 24.05444684 905
-33.62848501 24.02786735 904
-28.88931572 23.97470835 902
-24.14397629 23.89496985 899
-19.42966637 23.81523135 896
-14.71335934 23.68233385 891
-10.08279334 23.62917486 889
-5.472913688 23.57601586 887
-0.8847189264 23.54943636 886
3.68061357 23.44311836 882
8.241951851 23.44311836 882
12.83232253 23.49627736 884
17.40400399 23.49627736 884
22.00054481 23.52285686 885
26.6074288 23.54943636 886
31.29506106 23.62917486 889
35.97334869 23.68233385 891
40.80895981 23.81523135 896
45.59485218 23.89496985 899
50.2999963 23.92154935 900
55.13760453 24.00128785 903
60.07247432 24.10760584 907
64.83450588 24.13418534 908
69.53030537 24.13418534 908
74.22610487 24.13418534 908
78.92190437 24.13418534 908
83.52561389 24.10760584 907
88.02171867 24.05444684 905
92.59957026 24.02786735 904
97.16707868 24.00128785 903
101.8370203 24.00128785 903
106.5069618 24.00128785 903
111.0537839 23.97470835 902
115.7185539 23.97470835 902
120.1163985 23.92154935 900
124.7708254 23.92154935 900
129.4252522 23.92154935 900
138.7341058 23.92154935 900
143.7071738 23.97470835 902
148.8654203 24.05444684 905
153.8850326 24.10760584 907
158.7504959 24.13418534 908
163.2662884 24.10760584 907
167.9569163 24.10760584 907
172.6475443 24.10760584 907
176.9471288 24.05444684 905
180.6239472 23.92154935 900
184.4549145 23.81523135 896
188.6665821 23.76207235 894
192.6413553 23.68233385 891
196.8064787 23.62917486 889
200.271262 23.49627736 884
204.3794979 23.44311836 882
208.7039418 23.41653886 881
213.2601085 23.41653886 881
217.5690377 23.38995936 880
222.3724419 23.41653886 881
227.1861893 23.44311836 882
231.7475276 23.44311836 882
236.8447136 23.49627736 884
241.4163951 23.49627736 884
245.9880765 23.49627736 884
250.8431966 23.52285686 885
256.5744906 23.62917486 889
261.4658118 23.65575436 890
266.0685227 23.65575436 890
270.6712337 23.65575436 890
275.2739446 23.65575436 890
279.5621875 23.62917486 889
283.2008076 23.54943636 886
286.4835869 23.44311836 882
290.0549765 23.36337986 879
294.6008 23.36337986 879
297.7853192 23.25706187 875
301.9649588 23.23048237 874
305.7835859 23.17732337 872
310.2932083 23.17732337 872
314.4418183 23.15074387 871
318.2139011 23.09758487 869
322.7080088 23.09758487 869
327.5786436 23.12416437 870
332.8413204 23.17732337 872
337.3509428 23.17732337 872
343.0366911 23.25706187 875
349.5478958 23.38995936 880
354.0988909 23.38995936 880
360.2801128 23.49627736 884
365.2645225 23.52285686 885
370.6771753 23.57601586 887
376.1105144 23.62917486 889
379.8515677 23.57601586 887
384.4387639 23.57601586 887
389.0259601 23.57601586 887
393.6131563 23.57601586 887
397.7514232 23.54943636 886
401.8793468 23.52285686 885
406.4561999 23.52285686 885
410.5686088 23.49627736 884
415.1402902 23.49627736 884
418.7623971 23.44311836 882
423.3237354 23.44311836 882
427.3999432 23.41653886 881
431.9561099 23.41653886 881
436.5122766 23.41653886 881
441.0684433 23.41653886 881
445.6246099 23.41653886 881
449.6697882 23.38995936 880
454.2207834 23.38995936 880
458.7717785 23.38995936 880
463.3227736 23.38995936 880
468.4054434 23.41653886 881
472.9616101 23.41653886 881
478.0597947 23.44311836 882
483.715512 23.49627736 884
825.7798124 39.73635142 1495
833.5113325 39.73635142 1495
842.9309654 39.81608992 1498
850.6780002 39.81608992 1498
860.7172248 39.92240791 1502
868.484946 39.92240791 1502
878.0028389 40.00214641 1505
885.7860749 40.00214641 1505
893.5693109 40.00214641 1505
901.3525468 40.00214641 1505
909.1357828 40.00214641 1505
916.9190187 40.00214641 1505
924.7022547 40.00214641 1505
932.4854906 40.00214641 1505
940.2687266 40.00214641 1505
948.0519625 40.00214641 1505
955.8351985 40.00214641 1505
963.6184344 40.00214641 1505
971.4016704 40.00214641 1505
979.1849064 40.00214641 1505
985.0007639 39.92240791 1502
992.7684851 39.92240791 1502
1000.536206 39.92240791 1502
1008.303928 39.92240791 1502
1013.365732 39.81608992 1498
1021.112767 39.81608992 1498
1031.607091 39.92240791 1502
1039.374812 39.92240791 1502
1047.142534 39.92240791 1502
1054.910255 39.92240791 1502
1064.800502 40.00214641 1505
1072.583738 40.00214641 1505
1083.238381 40.10846441 1509
1091.042303 40.10846441 1509
1104.671785 40.3211004 1517
1112.51708 40.3211004 1517
1120.362375 40.3211004 1517
1128.20767 40.3211004 1517
1133.05744 40.2147824 1513
1140.882049 40.2147824 1513
1145.669759 40.10846441 1509
1148.122909 39.92240791 1502
1152.81236 39.81608992 1498
-159.6175443 27.84570122 877
-154.5515666 27.75044796 874
-150.8899053 27.90920339 879
-146.8435497 28.00445664 882
-142.2822114 28.00445664 882
-139.2823343 28.32196749 892
-118.1209223 27.6869458 872
-114.2627408 27.84570122 877
-110.3528434 28.00445664 882
-106.0313952 28.06795881 884
-102.0335809 28.22671423 889
-98.53205999 28.54422508 899
-94.82267711 28.82998484 908
-90.52391231 28.95698918 912
-85.90151356 28.98874026 913
-81.09094063 28.95698918 912
-76.37445479 28.95698918 912
-71.42225194 28.86173593 909
-66.57447936 28.79823376 907
-61.88385145 28.79823376 907
-57.06710837 28.73473159 905
-52.38682363 28.73473159 905
-47.70653889 28.73473159 905
-43.02625414 28.73473159 905
-38.30359816 28.7029805 904
-33.62848501 28.7029805 904
-28.88931572 28.63947833 902
-24.14397629 28.54422508 899
-19.40798147 28.41722074 895
-14.68033272 28.22671423 889
-10.06010989 28.16321206 887
-5.460573409 28.0997099 885
-0.8807247101 28.00445664 882
3.672267508 27.94095447 880
8.213918001 27.90920339 879
12.77425773 27.94095447 880
17.34494062 27.97270556 881
21.90110732 27.97270556 881
26.54736689 28.06795881 884
31.18945343 28.13146098 886
35.93297456 28.25846532 890
40.7634141 28.41722074 895
45.54413488 28.512474 898
50.2999963 28.57597616 900
55.13760453 28.67122942 903
60.07247432 28.79823376 907
64.76310223 28.79823376 907
69.53030537 28.82998484 908
74.14435806 28.79823376 907
78.83498598 28.79823376 907
83.34143393 28.73473159 905
88.02171867 28.73473159 905
92.49713711 28.67122942 903
97.05947394 28.63947833 902
101.4986913 28.57597616 900
105.9172223 28.512474 898
110.0688279 28.38546966 894
114.6922253 28.38546966 894
119.3156226 28.38546966 894
123.9390199 28.38546966 894
128.5624172 28.38546966 894
133.3347919 28.41722074 895
138.1175098 28.44897183 896
143.229212 28.54422508 899
148.7009282 28.7029805 904
153.8850326 28.79823376 907
158.5756605 28.79823376 907
163.2662884 28.79823376 907
167.9569163 28.79823376 907
172.2668441 28.73473159 905
176.7516071 28.7029805 904
180.2225606 28.512474 898
184.0431848 28.38546966 894
188.0334728 28.2902164 891
191.7765232 28.16321206 887
195.6995806 28.06795881 884
199.138506 27.90920339 879
203.220884 27.84570122 877
207.51947 27.81395013 876
212.0497787 27.81395013 876
216.5800875 27.81395013 876
221.1103963 27.81395013 876
225.8982857 27.84570122 877
231.222023 27.94095447 880
235.7730181 27.94095447 880
240.3240132 27.94095447 880
245.1532754 27.97270556 881
249.9928807 28.00445664 882
255.4200497 28.0997099 885
260.2906845 28.13146098 886
265.1716625 28.16321206 887
269.1506088 28.0997099 885
273.4181652 28.06795881 884
277.9898467 28.06795881 884
281.9222487 28.00445664 882
285.8339643 27.94095447 880
289.0650278 27.81395013 876
292.2547186 27.6869458 872
296.4240149 27.65519471 871
300.5829681 27.62344363 870
304.7315781 27.59169254 869
308.8698449 27.55994146 868
312.2757438 27.4646882 865
317.1153491 27.49643929 866
320.8512308 27.43293712 864
325.6960077 27.4646882 865
331.3145254 27.55994146 868
335.8034614 27.55994146 868
341.0764814 27.62344363 870
346.3701877 27.6869458 872
351.6845803 27.75044796 874
357.427216 27.84570122 877
363.6136094 27.97270556 881
368.587676 28.00445664 882
373.9951572 28.06795881 884
378.5668386 28.06795881 884
383.5719347 28.0997099 885
388.5873739 28.13146098 886
392.7256408 28.0997099 885
395.9557057 28.00445664 882
400.517044 28.00445664 882
404.6191097 27.97270556 881
408.7108323 27.94095447 880
413.2618274 27.94095447 880
417.3380352 27.90920339 879
421.8838587 27.90920339 879
426.4296822 27.90920339 879
429.9949016 27.84570122 877
435.5213293 27.90920339 879
440.0671528 27.90920339 879
444.6129763 27.90920339 879
447.1148463 27.78219905 875
451.6399835 27.78219905 875
456.6864522 27.81395013 876
461.7432641 27.84570122 877
467.3420939 27.90920339 879
472.4247638 27.94095447 880
478.0597947 28.00445664 882
482.621133 28.00445664 882
488.2871934 28.06795881 884
833.5113325 47.46787152 1495
842.9309654 47.56312477 1498
852.9495036 47.69012911 1502
860.7172248 47.69012911 1502
868.484946 47.69012911 1502
878.0028389 47.78538236 1505
888.1403236 47.9123867 1509
895.9442459 47.9123867 1509
903.7481682 47.9123867 1509
909.1357828 47.78538236 1505
916.9190187 47.78538236 1505
924.7022547 47.78538236 1505
932.4854906 47.78538236 1505
940.2687266 47.78538236 1505
946.162158 47.69012911 1502
953.9298792 47.69012911 1502
961.6976004 47.69012911 1502
969.4653216 47.69012911 1502
977.2330427 47.69012911 1502
982.3775928 47.56312477 1498
992.7684851 47.69012911 1502
1000.536206 47.69012911 1502
1008.303928 47.69012911 1502
1016.071649 47.69012911 1502
1023.83937 47.69012911 1502
1031.607091 47.69012911 1502
1041.450794 47.78538236 1505
1052.022692 47.9123867 1509
1059.826614 47.9123867 1509
1067.630536 47.9123867 1509
1075.434459 47.9123867 1509
1086.109788 48.03939104 1513
1093.934397 48.03939104 1513
1104.671785 48.16639538 1517
1112.51708 48.16639538 1517
1120.362375 48.16639538 1517
1128.20767 48.16639538 1517
1136.052965 48.16639538 1517
1140.882049 48.03939104 1513
1148.706657 48.03939104 1513
1150.416097 47.78538236 1505
1158.199333 47.78538236 1505
-117.1727039 31.93810953 865
-108.9765608 32.15964555 871
-105.0718351 32.3442589 876
-76.37445479 33.67347502 912
-61.74739312 33.41501633 905
-52.32893764 33.37809366 904
-47.65382448 33.37809366 904
-42.97871132 33.37809366 904
-38.26122693 33.34117099 903
-33.5540857 33.30424832 902
-28.79323152 33.19348031 899
-24.03655036 33.04578963 895
-19.32124189 32.89809895 891
-14.59776617 32.63964026 884
-10.00340127 32.56579492 882
-5.429722711 32.49194958 880
-0.8757319396 32.38118157 877
3.651402351 32.30733623 875
8.176539534 32.30733623 875
12.71619292 32.3442589 876
17.24650169 32.3442589 876
21.80166983 32.38118157 877
26.45727401 32.52887225 881
31.11904834 32.63964026 884
35.77147805 32.7134856 886
40.62677695 32.93502162 892
45.34126569 33.00886696 894
50.07644076 33.0827123 896
54.89336265 33.19348031 899
59.8075461 33.34117099 903
64.54889131 33.37809366 904
69.22400447 33.37809366 904
73.81737082 33.34117099 903
78.66114918 33.41501633 905
83.24934394 33.37809366 904
87.72993397 33.30424832 902
91.98497134 33.15655764 898
96.30624077 33.04578963 895
100.8220333 33.00886696 894
105.0915869 32.89809895 891
108.837633 32.63964026 884
113.1527323 32.56579492 882
153.0367138 33.30424832 902
157.8763191 33.34117099 903
162.3662538 33.30424832 902
167.2162023 33.34117099 903
175.9695203 33.23040298 900
179.4197875 33.00886696 894
183.2197254 32.86117628 890
186.9782906 32.7134856 886
190.6954831 32.56579492 882
194.8140621 32.49194958 880
198.00575 32.27041356 874
201.8305472 32.15964555 871
206.3349981 32.15964555 871
210.8394489 32.15964555 871
214.8494247 32.08580021 869
219.5959415 32.12272288 870
224.3528015 32.15964555 871
229.1200046 32.19656822 872
234.1654748 32.27041356 874
238.9585359 32.30733623 875
243.483673 32.30733623 875
248.2922489 32.3442589 876
251.6681167 32.19656822 872
257.6466482 32.38118157 877
262.7800354 32.45502691 879
267.3258589 32.45502691 879
271.2530893 32.38118157 877
275.7885696 32.38118157 877
279.6847705 32.30733623 875
283.8850964 32.27041356 874
286.7551474 32.08580021 869
289.9086371 31.93810953 865
294.0417324 31.90118686 864
297.4734891 31.79041885 861
301.9262241 31.79041885 861
306.0231183 31.75349618 860
310.1096692 31.71657351 859
314.185877 31.67965084 858
318.2517417 31.64272817 857
322.6837903 31.64272817 857
327.115839 31.64272817 857
331.5478876 31.64272817 857
335.9799363 31.64272817 857
341.6036255 31.75349618 860
346.0511889 31.75349618 860
351.7214223 31.86426419 863
356.5972288 31.90118686 864
362.737078 32.04887754 868
366.3798712 31.9750322 866
370.8584641 31.9750322 866
376.2038862 32.04887754 868
381.1314085 32.08580021 869
386.069274 32.12272288 870
390.5685532 32.12272288 870
395.9760344 32.19656822 872
400.4856568 32.19656822 872
404.9952792 32.19656822 872
409.5049017 32.19656822 872
414.0145241 32.19656822 872
418.5241465 32.19656822 872
423.0337689 32.19656822 872
427.5433914 32.19656822 872
433.0439611 32.27041356 874
437.5639267 32.27041356 874
442.0838923 32.27041356 874
445.5818811 32.19656822 872
451.6399835 32.30733623 875
456.6864522 32.3442589 876
461.7432641 32.38118157 877
466.2787445 32.38118157 877
472.4247638 32.49194958 880
477.5177768 32.52887225 881
482.621133 32.56579492 882
488.2871934 32.63964026 884
833.5113325 55.19939162 1495
842.9309654 55.31015963 1498
852.9495036 55.45785031 1502
860.7172248 55.45785031 1502
870.219603 55.56861832 1505
880.3364013 55.716309 1509
888.1403236 55.716309 1509
895.9442459 55.716309 1509
903.7481682 55.716309 1509
911.5520905 55.716309 1509
919.3560128 55.716309 1509
924.7022547 55.56861832 1505
932.4854906 55.56861832 1505
938.3944368 55.45785031 1502
946.162158 55.45785031 1502
953.9298792 55.45785031 1502
959.1364882 55.31015963 1498
966.8835231 55.31015963 1498
974.6305579 55.31015963 1498
982.3775928 55.31015963 1498
990.1246277 55.31015963 1498
997.8716625 55.31015963 1498
1008.303928 55.45785031 1502
1016.071649 55.45785031 1502
1023.83937 55.45785031 1502
1033.667558 55.56861832 1505
1044.21877 55.716309 1509
1052.022692 55.716309 1509
1059.826614 55.716309 1509
1067.630536 55.716309 1509
1078.28518 55.86399968 1513
1086.109788 55.86399968 1513
1093.934397 55.86399968 1513
1104.671785 56.01169036 1517
1112.51708 56.01169036 1517
1120.362375 56.01169036 1517
1128.20767 56.01169036 1517
1136.052965 56.01169036 1517
1140.882049 55.86399968 1513
1148.706657 55.86399968 1513
1153.473682 55.716309 1509
1158.199333 55.56861832 1505
-128.4793244 35.82221129 851
-124.3699112 35.9063998 853
-120.0991802 35.94849405 854
-115.5471866 35.9063998 853
-111.5266888 36.03268256 856
-107.7253948 36.24315384 861
-103.7524399 36.41153086 865
-99.96765913 36.66409639 871
-97.10723598 37.29551022 886
-93.56951397 37.71645278 896
-89.82910158 38.09530107 905
-85.80742647 38.38996086 912
-81.17985613 38.43205512 913
-76.45819871 38.43205512 913
-71.57939661 38.34786661 911
-66.64788011 38.22158384 908
-61.88385145 38.17948959 907
-57.19322353 38.17948959 907
-52.32893764 38.05320682 904
-47.65382448 38.05320682 904
-42.88362568 37.96901831 902
-38.21885569 37.96901831 902
-33.4052871 37.80064129 898
-28.66511925 37.67435852 895
-23.90226796 37.46388724 890
-19.21281741 37.29551022 886
-14.53171293 37.04294469 880
-9.946692647 36.91666193 877
-5.405042154 36.87456767 876
-0.8727362773 36.79037916 874
3.638883258 36.70619065 872
8.139161068 36.66409639 871
12.65812811 36.70619065 872
17.20712611 36.79037916 874
21.75195108 36.83247341 875
26.33715018 36.91666193 877
30.97823817 37.04294469 880
35.69072979 37.21132171 884
40.35350267 37.29551022 886
45.18911379 37.5059815 891
49.96466299 37.63226427 894
54.71018124 37.71645278 896
59.34392171 37.71645278 896
63.97766219 37.71645278 896
68.76455311 37.80064129 898
73.24514314 37.71645278 896
77.87888361 37.71645278 896
82.4205341 37.67435852 895
86.66005672 37.5059815 891
90.5509072 37.21132171 884
94.6921697 37.04294469 880
98.79205951 36.87456767 876
102.8505766 36.70619065 872
106.8677211 36.53781363 868
110.4586196 36.24315384 861
114.7778919 36.20105958 860
119.2254553 36.20105958 860
123.5292129 36.15896533 859
128.1205822 36.20105958 860
135.1886787 36.91666193 877
138.9275561 36.70619065 872
144.5886237 37.00085044 879
151.1704124 37.5059815 891
155.6034596 37.46388724 890
160.2061706 37.46388724 890
164.8088815 37.46388724 890
169.6019426 37.5059815 891
174.0143035 37.46388724 890
178.0149346 37.33760448 887
181.1610768 37.04294469 880
185.5010354 37.00085044 879
189.6144429 36.91666193 877
193.4857844 36.79037916 874
196.872994 36.57990788 869
200.6719333 36.45362512 866
204.9136319 36.41153086 865
209.3870532 36.41153086 865
213.613237 36.36943661 864
218.0814867 36.36943661 864
222.8073172 36.41153086 865
227.5434908 36.45362512 866
232.5579315 36.53781363 868
236.5006766 36.45362512 866
241.5358037 36.53781363 868
246.3081784 36.57990788 869
251.3795065 36.66409639 871
257.0590846 36.83247341 875
261.8831752 36.87456767 876
267.3258589 37.00085044 879
271.2530893 36.91666193 877
275.4741015 36.87456767 876
279.6847705 36.83247341 875
282.9106624 36.66409639 871
285.7651987 36.45362512 866
289.5734826 36.36943661 864
293.0207541 36.24315384 861
297.4734891 36.24315384 861
301.5755549 36.20105958 860
306.0231183 36.20105958 860
309.3876444 36.07477682 857
314.185877 36.11687107 858
317.8803861 36.03268256 856
321.5542088 35.94849405 854
326.7341402 36.03268256 856
331.1610173 36.03268256 856
334.8038105 35.94849405 854
340.8091984 36.11687107 858
345.2464187 36.11687107 858
350.0911956 36.15896533 859
354.9463157 36.20105958 860
359.8117789 36.24315384 861
363.8414425 36.20105958 860
368.2890059 36.20105958 860
372.7365693 36.20105958 860
377.6227189 36.24315384 861
383.4067272 36.36943661 864
387.874977 36.36943661 864
394.1596306 36.53781363 868
399.5671117 36.62200214 870
404.066391 36.62200214 870
409.035286 36.66409639 871
414.0145241 36.70619065 872
418.5241465 36.70619065 872
423.0337689 36.70619065 872
428.5239955 36.79037916 874
433.5394347 36.83247341 875
437.5639267 36.79037916 874
442.0838923 36.79037916 874
446.6038579 36.79037916 874
451.6399835 36.83247341 875
456.6864522 36.87456767 876
461.7432641 36.91666193 877
466.2787445 36.91666193 877
472.4247638 37.04294469 880
476.9757589 37.04294469 880
482.0739435 37.08503895 881
487.1824713 37.1271332 882
831.2812019 62.7625347 1491
841.2428526 62.93091172 1495
850.6780002 63.05719449 1498
860.7172248 63.22557151 1502
868.484946 63.22557151 1502
878.0028389 63.35185427 1505
888.1403236 63.52023129 1509
895.9442459 63.52023129 1509
903.7481682 63.52023129 1509
911.5520905 63.52023129 1509
919.3560128 63.52023129 1509
924.7022547 63.35185427 1505
932.4854906 63.35185427 1505
938.3944368 63.22557151 1502
946.162158 63.22557151 1502
953.9298792 63.22557151 1502
959.1364882 63.05719449 1498
966.8835231 63.05719449 1498
974.6305579 63.05719449 1498
982.3775928 63.05719449 1498
990.1246277 63.05719449 1498
997.8716625 63.05719449 1498
1008.303928 63.22557151 1502
1016.071649 63.22557151 1502
1025.884322 63.35185427 1505
1036.414847 63.52023129 1509
1044.21877 63.52023129 1509
1052.022692 63.52023129 1509
1059.826614 63.52023129 1509
1070.460571 63.68860832 1513
1078.28518 63.68860832 1513
1086.109788 63.68860832 1513
1093.934397 63.68860832 1513
1104.671785 63.85698534 1517
1112.51708 63.85698534 1517
1120.362375 63.85698534 1517
1125.232831 63.68860832 1513
1133.05744 63.68860832 1513
1140.882049 63.68860832 1513
1148.706657 63.68860832 1513
1153.473682 63.52023129 1509
1161.277604 63.52023129 1509
-122.9118817 39.8451037 843
-118.833498 39.93963538 845
-113.2443704 39.51424281 836
-109.1815015 39.60877449 838
-105.4732959 39.8451037 843
-101.4734845 39.98690122 846
-99.27901854 40.88495219 865
-95.79201382 41.31034476 874
-92.31635084 41.78300316 884
-88.9357735 42.35019325 896
-85.71333938 43.05918086 911
-81.44660265 43.29551007 916
-76.62568655 43.24824422 915
-71.73654128 43.15371254 913
-66.86808236 43.05918086 911
-62.1567681 43.05918086 911
-57.25628111 42.91738334 908
-52.38682363 42.77558582 905
-47.70653889 42.77558582 905
-42.88362568 42.6337883 902
-38.04937074 42.44472493 898
-33.25648849 42.25566157 894
-28.50497892 42.06659821 890
-19.10439294 41.64120564 881
-14.36657983 41.12128139 870
-9.855958848 41.07401555 869
-5.361851178 41.07401555 869
-0.8677435069 41.07401555 869
3.622191133 41.02674971 868
8.111127218 41.02674971 868
12.6000633 41.02674971 868
17.10868718 41.07401555 869
21.60279485 41.07401555 869
26.15696443 41.16854723 871
30.80222545 41.3576106 875
35.40811089 41.45214228 877
40.03468267 41.54667396 879
44.73265809 41.68847148 882
49.74110745 42.06659821 890
54.34381841 42.06659821 890
59.01276143 42.11386405 891
63.62064398 42.11386405 891
68.30510176 42.16112989 892
72.75466227 42.06659821 890
77.35737323 42.06659821 890
81.68381425 41.92480069 887
85.97922575 41.78300316 884
90.03874144 41.54667396 879
105.6365262 40.55409131 858
109.0474177 40.17596458 850
113.3098026 40.12869874 849
117.7004786 40.12869874 849
121.8035429 40.03416706 847
143.1081941 41.12128139 870
158.7661151 41.68847148 882
177.613548 41.830269 885
180.9552119 41.54667396 879
185.0789626 41.45214228 877
189.1820268 41.3576106 875
193.0430252 41.21581308 872
196.6464428 41.02674971 868
200.6719333 40.93221803 866
204.9136319 40.88495219 865
209.1449872 40.83768635 864
213.613237 40.83768635 864
218.0814867 40.83768635 864
222.5497365 40.83768635 864
227.0179862 40.83768635 864
231.7541598 40.88495219 865
236.2275812 40.88495219 865
240.9792695 40.93221803 866
246.0247397 41.02674971 868
251.0908963 41.12128139 870
256.7653028 41.31034476 874
261.8831752 41.40487644 876
266.7176089 41.45214228 877
270.9437927 41.40487644 876
279.3651308 41.31034476 874
283.2354737 41.21581308 872
301.9262241 40.69588883 861
306.0231183 40.64862299 860
310.1096692 40.60135715 859
314.5520611 40.60135715 859
317.8803861 40.45955962 856
322.3072632 40.45955962 856
327.115839 40.50682547 857
331.1610173 40.45955962 856
335.5878943 40.45955962 856
345.2464187 40.55409131 858
349.6836389 40.55409131 858
354.1208591 40.55409131 858
358.1401795 40.50682547 857
362.5722282 40.50682547 857
370.1360816 40.36502794 854
375.8683741 40.50682547 857
381.6316961 40.64862299 860
386.5281889 40.69588883 861
393.2514286 40.93221803 866
399.1078392 41.07401555 869
404.066391 41.12128139 870
409.035286 41.16854723 871
414.9640987 41.31034476 874
419.9640232 41.3576106 875
424.0040299 41.31034476 874
429.0142975 41.3576106 875
433.5394347 41.3576106 875
437.5639267 41.31034476 874
442.0838923 41.31034476 874
446.6038579 41.31034476 874
451.1238235 41.31034476 874
456.6864522 41.40487644 876
461.216761 41.40487644 876
465.7470697 41.40487644 876
471.8879175 41.54667396 879
476.9757589 41.5939398 880
482.0739435 41.64120564 881
486.6301102 41.64120564 881
829.0510712 70.2843051 1487
838.9920356 70.47336846 1491
848.9743727 70.66243182 1495
856.7058928 70.66243182 1495
868.484946 70.99329271 1502
878.0028389 71.13509023 1505
885.7860749 71.13509023 1505
895.9442459 71.32415359 1509
903.7481682 71.32415359 1509
911.5520905 71.32415359 1509
919.3560128 71.32415359 1509
927.1599351 71.32415359 1509
932.4854906 71.13509023 1505
940.2687266 71.13509023 1505
946.162158 70.99329271 1502
953.9298792 70.99329271 1502
959.1364882 70.80422934 1498
966.8835231 70.80422934 1498
972.6786943 70.66243182 1495
980.4102144 70.66243182 1495
990.1246277 70.80422934 1498
997.8716625 70.80422934 1498
1005.618697 70.80422934 1498
1016.071649 70.99329271 1502
1023.83937 70.99329271 1502
1033.667558 71.13509023 1505
1041.450794 71.13509023 1505
1049.23403 71.13509023 1505
1059.826614 71.32415359 1509
1064.800502 71.13509023 1505
1072.583738 71.13509023 1505
1080.366974 71.13509023 1505
1091.042303 71.32415359 1509
1098.846226 71.32415359 1509
1106.650148 71.32415359 1509
1114.45407 71.32415359 1509
1122.257992 71.32415359 1509
1127.066389 71.13509023 1505
1134.849625 71.13509023 1505
1142.632861 71.13509023 1505
1150.416097 71.13509023 1505
1158.199333 71.13509023 1505
-112.5670716 43.57550103 831
-108.5300605 43.68037589 833
-100.5139244 43.94256302 838
-76.70943047 48.03268225 916
-72.20797529 48.18999453 919
-62.63437225 48.1375571 918
-57.76074174 48.03268225 916
-42.97871132 47.40343314 904
-37.96462827 46.98393373 896
-28.08861406 45.98762263 877
-18.82248929 45.5156858 868
-14.28401328 45.35837352 865
-9.787908499 45.25349867 863
-5.324830341 45.25349867 863
-0.8627507364 45.30593609 864
3.605499008 45.30593609 864
8.073748752 45.30593609 864
12.5565147 45.35837352 865
17.02993603 45.35837352 865
21.50335736 45.35837352 865
26.00680964 45.41081095 866
30.59101019 45.56812322 869
48.95866306 45.93518521 876
53.67215324 46.09249748 879
58.41667293 46.24980976 882
62.97801121 46.24980976 882
72.10068777 46.24980976 882
76.48818926 46.14493491 880
80.67082444 45.93518521 876
84.71482537 45.67299808 871
92.54007493 45.09618639 860
96.64930936 44.93887411 857
100.6095664 44.72912441 853
104.5284507 44.5193747 849
108.0210891 44.15231272 842
112.1086386 44.04743787 840
116.1755018 43.94256302 838
120.6530962 43.99500044 839
124.9920563 43.99500044 839
140.4763193 44.78156183 854
146.4198271 45.25349867 863
152.9809294 45.88274778 875
163.3274534 46.24980976 882
173.2322167 46.45955947 886
177.613548 46.40712204 885
181.1610768 46.14493491 880
185.5010354 46.09249748 879
189.3982349 45.93518521 876
193.4857844 45.83031035 874
196.872994 45.56812322 869
201.1353789 45.5156858 868
204.9136319 45.35837352 865
209.3870532 45.35837352 865
213.613237 45.30593609 864
218.0814867 45.30593609 864
222.5497365 45.30593609 864
227.0179862 45.30593609 864
231.7541598 45.35837352 865
235.9544857 45.30593609 864
240.7010025 45.35837352 865
245.4578625 45.41081095 866
250.8022861 45.56812322 869
256.1777392 45.7254355 872
261.8831752 45.93518521 876
266.7176089 45.98762263 877
270.9437927 45.93518521 876
275.4741015 45.93518521 876
279.6847705 45.88274778 875
283.8850964 45.83031035 874
287.0851303 45.62056065 870
290.9141006 45.5156858 868
295.4030367 45.5156858 868
299.8919728 45.5156858 868
303.6795704 45.41081095 866
308.1581633 45.41081095 866
312.2757438 45.35837352 865
316.3829811 45.30593609 864
320.4798752 45.25349867 863
324.189899 45.14862382 861
328.642634 45.14862382 861
333.095369 45.14862382 861
337.1560621 45.09618639 860
342.000839 45.14862382 861
346.0511889 45.09618639 860
350.0911956 45.04374896 859
354.5335874 45.04374896 859
358.5580794 44.99131154 858
362.1491567 44.88643669 856
366.5760338 44.88643669 856
371.0029108 44.88643669 856
376.7455465 45.04374896 859
381.6316961 45.09618639 860
387.4260476 45.25349867 863
394.1596306 45.5156858 868
399.5671117 45.62056065 870
404.9952792 45.7254355 872
410.4441331 45.83031035 874
415.9136733 45.93518521 876
420.4439821 45.93518521 876
424.9742908 45.93518521 876
429.5045996 45.93518521 876
433.5394347 45.88274778 875
438.0645719 45.88274778 875
442.5897091 45.88274778 875
446.6038579 45.83031035 874
451.6399835 45.88274778 875
456.6864522 45.93518521 876
461.216761 45.93518521 876
465.7470697 45.93518521 876
471.8879175 46.09249748 879
476.433741 46.09249748 879
481.526754 46.14493491 880
486.0777491 46.14493491 880
823.4757446 77.45007825 1477
832.8022889 77.60739053 1480
842.7277386 77.81714024 1484
850.4023712 77.81714024 1484
859.8116609 77.97445251 1487
873.9191048 78.5512642 1498
884.0203884 78.7610139 1502
891.7881096 78.7610139 1502
901.3525468 78.91832618 1505
911.5520905 79.12807589 1509
919.3560128 79.12807589 1509
927.1599351 79.12807589 1509
932.4854906 78.91832618 1505
940.2687266 78.91832618 1505
948.0519625 78.91832618 1505
953.9298792 78.7610139 1502
959.1364882 78.5512642 1498
966.8835231 78.5512642 1498
974.6305579 78.5512642 1498
982.3775928 78.5512642 1498
990.1246277 78.5512642 1498
997.8716625 78.5512642 1498
1005.618697 78.5512642 1498
1013.365732 78.5512642 1498
1023.83937 78.7610139 1502
1031.607091 78.7610139 1502
1039.374812 78.7610139 1502
1047.142534 78.7610139 1502
1054.910255 78.7610139 1502
1062.677976 78.7610139 1502
1070.445697 78.7610139 1502
1080.366974 78.91832618 1505
1088.15021 78.91832618 1505
1095.933446 78.91832618 1505
1103.716682 78.91832618 1505
1111.499918 78.91832618 1505
1119.283154 78.91832618 1505
1127.066389 78.91832618 1505
1134.849625 78.91832618 1505
1142.632861 78.91832618 1505
1148.122909 78.7610139 1502
1158.199333 78.91832618 1505
-119.8500199 47.35460736 822
-116.3021336 47.64265242 827
-112.296152 47.75787044 829
-108.2694841 47.87308846 831
-104.2221299 47.98830648 833
-96.29490931 48.33396055 839
-92.39435658 48.5643966 843
-86.75208263 50.35027595 874
-76.96066222 52.94268146 919
-72.52226462 53.17311751 923
-67.74889134 53.17311751 923
-62.9072889 53.1155085 922
-58.01297205 53.00029048 920
-32.62409441 50.52310299 877
-27.92847373 50.23505793 872
-23.33828186 50.06223089 869
-18.73574971 49.77418584 864
-14.21796004 49.6013588 861
-9.7425416 49.48614078 859
-5.312490062 49.6013588 861
-0.8597550741 49.6013588 861
3.601325976 49.71657683 863
8.064404135 49.71657683 863
12.5565147 49.83179485 865
17.04962381 49.88940386 866
21.50335736 49.83179485 865
26.06687156 50.00462188 868
30.62621273 50.11983991 870
35.20624024 50.23505793 872
48.90277418 50.40788496 875
53.5500323 50.52310299 877
58.21797677 50.63832101 879
62.54958937 50.46549397 876
80.21037453 50.17744892 871
84.22851753 49.88940386 866
88.19494468 49.6013588 861
91.8944465 49.19809572 854
95.97265142 49.02526869 851
99.90187892 48.79483264 847
103.7897337 48.5643966 843
107.7645069 48.39156956 840
111.8417133 48.27635154 838
116.0368676 48.21874253 837
120.3654845 48.21874253 837
124.8430789 48.27635154 838
134.9445413 48.79483264 847
140.1473349 49.0828777 852
145.741172 49.48614078 859
156.7860388 50.17744892 871
167.5080915 50.69593002 880
172.4501299 50.81114804 882
176.8107749 50.75353903 881
180.5434822 50.52310299 877
185.0789626 50.52310299 877
189.1820268 50.40788496 875
192.8216456 50.17744892 871
196.872994 50.06223089 869
200.6719333 49.88940386 866
204.9136319 49.83179485 865
209.1449872 49.77418584 864
213.3659994 49.71657683 863
218.0814867 49.77418584 864
222.2921557 49.71657683 863
227.0179862 49.77418584 864
230.6824643 49.6013588 861
235.6813902 49.71657683 863
240.1444684 49.71657683 863
244.6075465 49.71657683 863
250.8022861 50.06223089 869
255.2963937 50.06223089 869
260.3884082 50.17744892 871
265.805234 50.35027595 874
269.7066064 50.23505793 872
274.8451652 50.35027595 874
279.3651308 50.35027595 874
283.2354737 50.23505793 872
287.7450961 50.23505793 872
291.9195641 50.17744892 871
296.4240149 50.17744892 871
301.2739634 50.23505793 872
305.7835859 50.23505793 872
310.2932083 50.23505793 872
315.5248555 50.35027595 874
319.3124531 50.23505793 872
323.45072 50.17744892 871
327.5786436 50.11983991 870
331.6962241 50.06223089 869
336.1903318 50.06223089 869
339.5083137 49.88940386 866
343.5896931 49.83179485 865
347.6607293 49.77418584 864
351.7214223 49.71657683 863
355.359044 49.6013588 861
359.3938791 49.54374979 860
363.8414425 49.54374979 860
368.2890059 49.54374979 860
372.7365693 49.54374979 860
378.4998913 49.71657683 863
383.850485 49.83179485 865
388.7728357 49.88940386 866
395.5219334 50.17744892 871
401.4042019 50.35027595 874
406.8530557 50.46549397 876
411.8529802 50.52310299 877
417.3380352 50.63832101 879
421.8838587 50.63832101 879
425.4594213 50.52310299 877
430.9755058 50.63832101 879
434.530382 50.52310299 877
439.0658624 50.52310299 877
443.0955259 50.46549397 876
447.6258347 50.46549397 876
451.6399835 50.40788496 875
456.6864522 50.46549397 876
461.216761 50.46549397 876
465.7470697 50.46549397 876
470.8142248 50.52310299 877
476.433741 50.63832101 879
819.5730159 84.68524674 1470
828.8633591 84.85807377 1473
840.4562352 85.26133685 1480
850.4023712 85.4917729 1484
858.0770039 85.4917729 1484
869.8353707 85.89503598 1491
879.9004531 86.12547202 1495
889.4131745 86.29829906 1498
899.5558308 86.5287351 1502
909.1357828 86.70156214 1505
919.3560128 86.93199818 1509
927.1599351 86.93199818 1509
934.9638574 86.93199818 1509
942.7677797 86.93199818 1509
948.0519625 86.70156214 1505
955.8351985 86.70156214 1505
961.6976004 86.5287351 1502
969.4653216 86.5287351 1502
974.6305579 86.29829906 1498
982.3775928 86.29829906 1498
990.1246277 86.29829906 1498
997.8716625 86.29829906 1498
1005.618697 86.29829906 1498
1013.365732 86.29829906 1498
1021.112767 86.29829906 1498
1028.859802 86.29829906 1498
1036.606837 86.29829906 1498
1044.353872 86.29829906 1498
1052.100907 86.29829906 1498
1059.847941 86.29829906 1498
1067.594976 86.29829906 1498
1075.342011 86.29829906 1498
1083.089046 86.29829906 1498
1093.748861 86.5287351 1502
1101.516582 86.5287351 1502
1109.284303 86.5287351 1502
1117.052024 86.5287351 1502
1124.819746 86.5287351 1502
1132.587467 86.5287351 1502
1140.355188 86.5287351 1502
1148.122909 86.5287351 1502
1155.89063 86.5287351 1502
-119.4126111 51.41730873 819
-115.5989768 51.60565052 822
-111.4833934 51.66843112 823
-107.487755 51.79399231 825
-103.4714303 51.9195535 827
-99.43441925 52.0451147 829
-95.26194842 52.10789529 830
-91.40793996 52.35901768 834
-76.96066222 57.6953684 919
-72.60083696 58.00927139 924
-67.82229209 58.00927139 924
-62.97551806 57.94649079 923
-58.01297205 57.758149 920
-37.75277208 55.93751169 891
-23.06971705 53.9285326 859
-18.51890076 53.61462961 854
-14.08585356 53.55184902 853
-9.674491252 53.55184902 853
-5.281639365 53.74019081 856
-0.8567594118 53.865752 858
3.584633851 53.9285326 859
8.027025668 53.9285326 859
16.99056045 54.17965499 863
21.45363861 54.17965499 863
25.94674773 54.24243558 864
30.45020001 54.30521618 865
34.47950593 53.61462961 854
38.80494839 53.48906842 852
43.05898721 53.30072663 849
47.56144094 53.42628782 851
51.96246008 53.42628782 851
56.42971127 53.48906842 852
60.90730563 53.55184902 853
74.57598453 53.865752 858
82.57507088 53.30072663 849
86.45358108 52.98682365 844
90.28037543 52.67292066 839
94.05545392 52.35901768 834
97.77881656 52.0451147 829
101.8198218 51.9195535 827
105.9684318 51.85677291 826
109.973236 51.73121171 824
114.0959881 51.66843112 823
118.3522028 51.66843112 823
122.757395 51.73121171 824
127.1729303 51.79399231 825
132.2360912 52.10789529 830
137.3509679 52.42179828 835
142.178233 52.61014007 838
148.6100457 53.36350723 850
153.1859002 53.42628782 851
158.5128119 53.74019081 856
166.5563409 54.93302215 875
169.908348 54.55633857 869
174.6031489 54.61911916 870
179.1024282 54.61911916 870
183.8127439 54.68189976 871
188.1009867 54.61911916 870
192.3788863 54.55633857 869
196.6464428 54.49355797 868
200.2084877 54.24243558 864
204.6767375 54.24243558 864
208.4187894 54.05409379 861
212.3770493 53.9285326 859
216.8194411 53.9285326 859
221.5194136 53.99131319 860
225.7042247 53.9285326 859
230.1466165 53.9285326 859
235.1351993 54.05409379 861
239.5879343 54.05409379 861
244.6075465 54.17965499 863
249.3592349 54.24243558 864
255.2963937 54.55633857 869
260.3884082 54.68189976 871
265.805234 54.87024155 874
269.7066064 54.74468036 872
275.1596333 54.93302215 875
279.3651308 54.87024155 874
287.7450961 54.74468036 872
292.9250276 54.87024155 874
298.1256453 54.99580274 876
303.6924471 55.18414453 879
308.9396091 55.30970573 881
313.8516166 55.37248632 882
318.4129549 55.37248632 882
322.2419252 55.24692513 880
327.1642759 55.30970573 881
330.2143339 55.05858334 877
333.9864167 54.93302215 875
336.9640725 54.68189976 871
340.6844395 54.55633857 869
344.7813336 54.49355797 868
348.0631144 54.30521618 865
351.7214223 54.17965499 863
355.359044 54.05409379 861
359.3938791 53.99131319 860
363.418371 53.9285326 859
367.8607629 53.9285326 859
372.3031547 53.9285326 859
377.6227189 54.05409379 861
383.4067272 54.24243558 864
388.3239064 54.30521618 865
395.0678325 54.61911916 870
400.4856568 54.74468036 872
406.8530557 54.99580274 876
411.8529802 55.05858334 877
417.8128225 55.24692513 880
422.3638176 55.24692513 880
426.9148127 55.24692513 880
431.4658078 55.24692513 880
436.0168029 55.24692513 880
440.0671528 55.18414453 879
443.6013427 55.05858334 877
448.1368231 55.05858334 877
452.1561434 54.99580274 876
456.6864522 54.99580274 876
461.216761 54.99580274 876
465.215395 54.93302215 875
470.8142248 55.05858334 877
475.3497052 55.05858334 877
480.9795645 55.18414453 879
819.5730159 92.28747721 1470
827.1752464 92.28747721 1470
838.7526077 92.72694138 1477
848.1101815 92.91528317 1480
855.7641279 92.91528317 1480
867.5018083 93.35474735 1487
877.5462044 93.60586974 1491
887.6319732 93.85699212 1495
897.1602094 94.04533391 1498
907.323552 94.2964563 1502
916.9190187 94.48479809 1505
927.1599351 94.73592048 1509
934.9638574 94.73592048 1509
945.2668328 94.98704286 1513
950.571702 94.73592048 1509
958.3756243 94.73592048 1509
963.6184344 94.48479809 1505
971.4016704 94.48479809 1505
977.2330427 94.2964563 1502
985.0007639 94.2964563 1502
990.1246277 94.04533391 1498
997.8716625 94.04533391 1498
1005.618697 94.04533391 1498
1013.365732 94.04533391 1498
1021.112767 94.04533391 1498
1028.859802 94.04533391 1498
1036.606837 94.04533391 1498
1042.262375 93.85699212 1495
1049.993895 93.85699212 1495
1057.725415 93.85699212 1495
1065.456936 93.85699212 1495
1073.188456 93.85699212 1495
1080.919976 93.85699212 1495
1090.836081 94.04533391 1498
1098.583116 94.04533391 1498
1106.330151 94.04533391 1498
1114.077185 94.04533391 1498
1121.82422 94.04533391 1498
1129.571255 94.04533391 1498
1137.31829 94.04533391 1498
1145.065325 94.04533391 1498
1152.81236 94.04533391 1498
-126.0099145 54.83741095 807
-122.1383942 54.97331531 809
-118.2461875 55.10921968 811
-114.4739259 55.31307622 814
-110.6706347 55.51693277 817
-106.7060259 55.65283713 819
-102.8458473 55.85669368 822
-98.95463918 56.06055022 825
-94.68808126 56.06055022 825
-90.85993073 56.33235895 829
-86.57268648 56.33235895 829
-84.96542647 58.16706787 856
-77.37938182 62.78781625 924
-72.99369863 63.12757716 929
-68.18929584 63.12757716 929
-63.38489305 63.12757716 929
-58.39131752 62.92372062 926
-53.4287715 62.71986407 923
-27.35196854 58.0311635 854
-22.82800872 57.75935478 850
-18.34542159 57.48754605 846
-13.97026039 57.48754605 846
-9.595099178 57.48754605 846
-5.238448389 57.69140259 849
-0.8497695332 57.82730696 851
3.563768695 58.0311635 854
7.998991819 58.16706787 856
12.44038508 58.23502005 857
16.89212152 58.30297223 858
21.32934175 58.30297223 858
25.73653102 58.23502005 857
30.02776949 57.96321132 853
34.39875767 57.89525914 852
38.66831125 57.69140259 849
42.85611801 57.41959387 845
47.22610764 57.41959387 845
51.53503679 57.35164168 844
55.96608688 57.41959387 845
60.47888378 57.55549823 847
73.88063735 57.75935478 850
77.2634951 57.01188077 839
81.60245521 57.01188077 839
85.63411586 56.80802423 836
89.74235174 56.67211986 834
93.71712495 56.46826332 831
97.66086865 56.26440677 828
101.6967023 56.12850241 826
105.9684318 56.12850241 826
109.973236 55.99259804 824
114.0959881 55.92464586 823
118.3522028 55.92464586 823
122.6084176 55.92464586 823
127.0187813 55.99259804 824
136.6929992 56.46826332 831
141.6692417 56.74007205 835
163.7010894 58.4388766 860
169.7128263 58.98249405 868
174.8038422 59.1863506 871
179.308293 59.1863506 871
183.8127439 59.1863506 871
188.3171947 59.1863506 871
192.6002659 59.11839842 870
197.0995452 59.11839842 870
201.1353789 58.98249405 868
205.1505262 58.84658969 866
208.9029213 58.64273314 863
212.6242868 58.4388766 860
217.0718502 58.4388766 860
221.5194136 58.4388766 860
225.966977 58.4388766 860
230.1466165 58.37092442 859
234.8621038 58.4388766 860
239.5879343 58.50682878 861
244.6075465 58.64273314 863
249.3592349 58.71068533 864
255.8839573 59.1863506 871
260.6873616 59.25430278 872
266.4134839 59.52611151 876
271.2530893 59.59406369 877
276.4175059 59.72996806 879
280.9633295 59.72996806 879
284.534719 59.52611151 876
289.0650278 59.52611151 876
293.930491 59.59406369 877
299.1466236 59.72996806 879
304.3834424 59.86587242 881
309.9916168 60.06972897 884
314.5632983 60.06972897 884
319.8570046 60.20563333 886
323.7066612 60.06972897 884
328.2783427 60.06972897 884
331.7204426 59.86587242 881
335.5132117 59.72996806 879
338.1246835 59.39020715 874
341.0764814 59.11839842 870
345.1785471 59.05044624 869
348.4654995 58.84658969 866
352.128979 58.71068533 864
355.359044 58.50682878 861
359.3938791 58.4388766 860
363.418371 58.37092442 859
367.8607629 58.37092442 859
371.8697401 58.30297223 858
377.6227189 58.50682878 861
383.4067272 58.71068533 864
388.7728357 58.84658969 866
395.5219334 59.1863506 871
401.4042019 59.39020715 874
406.8530557 59.52611151 876
412.7922117 59.72996806 879
418.2876098 59.86587242 881
423.3237354 59.9338246 882
427.8850736 59.9338246 882
432.4464119 59.9338246 882
437.0077502 59.9338246 882
441.0684433 59.86587242 881
445.6246099 59.86587242 881
449.6697882 59.79792024 880
453.7046234 59.72996806 879
458.2504469 59.72996806 879
462.7962704 59.72996806 879
466.2787445 59.59406369 877
471.8879175 59.72996806 879
809.7613412 99.61789894 1466
819.5730159 99.88970767 1470
827.1752464 99.88970767 1470
836.4811044 100.0935642 1473
846.3910393 100.3653729 1477
855.7641279 100.5692295 1480
863.4180742 100.5692295 1480
875.1919557 101.0448948 1487
885.2570382 101.3167035 1491
895.3634933 101.5885122 1495
907.323552 102.0641775 1502
916.9190187 102.268034 1505
927.1599351 102.5398428 1509
937.4422241 102.8116515 1513
945.2668328 102.8116515 1513
953.0914414 102.8116515 1513
958.3756243 102.5398428 1509
966.1795466 102.5398428 1509
971.4016704 102.268034 1505
979.1849064 102.268034 1505
986.9681423 102.268034 1505
992.7684851 102.0641775 1502
997.8716625 101.7923688 1498
1005.618697 101.7923688 1498
1013.365732 101.7923688 1498
1016.341212 101.3167035 1491
1024.052046 101.3167035 1491
1031.76288 101.3167035 1491
1036.685052 101.0448948 1487
1042.268188 100.8410382 1484
1049.94282 100.8410382 1484
1057.617453 100.8410382 1484
1065.292086 100.8410382 1484
1075.135789 101.0448948 1487
1082.825936 101.0448948 1487
1093.44955 101.3167035 1491
1101.160383 101.3167035 1491
1108.871217 101.3167035 1491
1119.577576 101.5885122 1495
1127.309096 101.5885122 1495
1135.040616 101.5885122 1495
1142.772137 101.5885122 1495
1150.503657 101.5885122 1495
-125.8537684 58.93775656 806
-121.8364451 59.01088033 807
-102.8458473 60.10773684 822
-98.95463918 60.32710814 825
-81.35768714 66.90824721 915
-77.37938182 67.56636112 924
-73.3865603 68.29759879 934
-68.55629958 68.29759879 934
-63.72603886 68.29759879 934
-58.70660541 68.07822749 931
-53.66031548 67.78573242 927
-37.75277208 65.15327679 891
-27.41602467 62.59394493 856
-22.85486521 62.22832609 851
-18.36710649 61.93583102 847
-13.95374708 61.78958349 845
-9.583757453 61.78958349 845
-5.22610811 61.93583102 847
-0.8487709791 62.15520233 850
3.551249601 62.22832609 851
7.970957969 62.37457363 853
12.42586888 62.59394493 856
16.87243373 62.6670687 857
21.30448237 62.6670687 857
25.70650006 62.59394493 856
29.99256695 62.30144986 852
34.31800941 62.15520233 850
38.48612839 61.78958349 845
42.70396612 61.57021219 842
47.17021875 61.71645972 844
60.19326922 61.64333595 843
306.1109307 64.78765795 886
311.7449631 65.00702926 889
316.6983433 65.08015302 890
321.6620667 65.15327679 891
325.9037652 65.08015302 890
329.3924094 64.86078172 887
333.6030785 64.78765795 886
337.4217056 64.64141042 884
340.0590353 64.27579158 879
343.0366911 63.98329651 875
346.3701877 63.76392521 872
350.0750399 63.61767767 870
352.9440924 63.3251826 866
356.5972288 63.17893507 864
360.6475787 63.1058113 863
364.2645139 62.95956377 861
368.7172489 62.95956377 861
372.7365693 62.88644 860
378.9384775 63.17893507 864
384.2942428 63.3251826 866
390.1196238 63.54455391 869
396.8842363 63.91017274 874
402.322747 64.05642028 876
408.2463881 64.27579158 879
414.2010588 64.49516288 882
420.186759 64.71453419 885
425.2435709 64.78765795 886
429.8255955 64.78765795 886
434.8979222 64.86078172 887
438.9896448 64.78765795 886
443.0710242 64.71453419 885
447.6478772 64.71453419 885
452.2247302 64.71453419 885
456.2854233 64.64141042 884
459.8144416 64.49516288 882
779.2246646 108.2231758 1480
786.878611 108.2231758 1480
794.5325573 108.2231758 1480
800.5604499 108.0038045 1477
804.368555 107.4919381 1470
811.9707855 107.4919381 1470
819.5730159 107.4919381 1470
827.1752464 107.4919381 1470
836.4811044 107.7113094 1473
844.0988496 107.7113094 1473
854.0294708 108.0038045 1477
863.4180742 108.2231758 1480
875.1919557 108.7350422 1487
885.2570382 109.0275373 1491
895.3634933 109.3200323 1495
907.323552 109.8318987 1502
916.9190187 110.05127 1505
927.1599351 110.3437651 1509
937.4422241 110.6362601 1513
945.2668328 110.6362601 1513
953.0914414 110.6362601 1513
960.91605 110.6362601 1513
966.1795466 110.3437651 1509
973.9834689 110.3437651 1509
981.7873912 110.3437651 1509
986.9681423 110.05127 1505
994.7513783 110.05127 1505
1002.534614 110.05127 1505
1005.618697 109.5394036 1498
1013.365732 109.5394036 1498
1016.341212 109.0275373 1491
1021.304757 108.7350422 1487
1026.918922 108.5156709 1484
1034.593555 108.5156709 1484
1042.268188 108.5156709 1484
1047.112786 108.2231758 1480
1054.766732 108.2231758 1480
1065.292086 108.5156709 1484
1072.966718 108.5156709 1484
1080.641351 108.5156709 1484
1090.516083 108.7350422 1487
1101.160383 109.0275373 1491
1108.871217 109.0275373 1491
1116.582051 109.0275373 1491
1124.292885 109.0275373 1491
1135.040616 109.3200323 1495
1139.714552 109.0275373 1491
1150.503657 109.3200323 1495
-125.5414762 62.94946365 804
-121.6854706 63.10605435 806
-113.6301377 63.26264506 808
-109.8578761 63.49753112 811
-105.9242968 63.65412182 813
-101.9700311 63.81071253 815
-98.71474914 64.43707535 823
-94.80285469 64.67196141 826
-90.85993073 64.90684747 829
-83.83159757 69.76115934 891
-80.82419411 71.17047569 909
-77.04440614 72.03172457 920
-73.1508433 72.89297345 931
-68.26269659 72.8146781 930
-62.97551806 72.26661063 923
-58.01297205 72.03172457 920
-52.38682363 70.85729428 905
-47.44296685 70.46581751 900
-42.0753977 69.29138722 885
-31.91730103 67.1774127 858
-22.64001336 66.00298241 843
-18.19362732 65.68980099 839
-13.85466721 65.68980099 839
-9.515707104 65.68980099 839
-5.182917134 65.76809635 840
-0.8437782086 66.15957311 845
3.530384445 66.23786846 846
7.914890269 66.31616382 847
12.35328787 66.62934523 851
16.79368258 66.78593593 853
21.20504488 66.78593593 853
25.55634527 66.62934523 851
29.92216186 66.55104987 850
34.1565129 66.23786846 846
38.34949125 65.92468705 842
42.55181422 65.68980099 839
46.94666321 65.76809635 840
51.16867397 65.61150564 838
55.36999838 65.45491494 836
59.55063645 65.29832423 834
466.6707381 116.1903035 1484
480.7207581 115.8771221 1480
487.3847557 115.6422361 1477
510.3000504 115.6422361 1477
517.938482 115.6422361 1477
525.5769136 115.6422361 1477
534.2983824 115.8771221 1480
541.9523287 115.8771221 1480
551.0916974 116.1903035 1484
558.7663301 116.1903035 1484
567.586059 116.4251896 1487
576.8236878 116.738371 1491
584.5345216 116.738371 1491
592.2453553 116.738371 1491
602.7728848 117.2864385 1498
750.6321466 116.1903035 1484
758.3067793 116.1903035 1484
765.9814119 116.1903035 1484
773.6560446 116.1903035 1484
779.2246646 115.8771221 1480
786.878611 115.8771221 1480
794.5325573 115.8771221 1480
802.1865036 115.8771221 1480
808.1988815 115.6422361 1477
815.837313 115.6422361 1477
825.1483426 115.8771221 1480
831.1141761 115.6422361 1477
840.4562352 115.8771221 1480
848.1101815 115.8771221 1480
858.0770039 116.1903035 1484
865.7516365 116.1903035 1484
877.5462044 116.738371 1491
887.6319732 117.0515524 1495
897.1602094 117.2864385 1498
907.323552 117.5996199 1502
916.9190187 117.834506 1505
927.1599351 118.1476874 1509
937.4422241 118.4608688 1513
947.7658859 118.7740502 1517
955.6111808 118.7740502 1517
963.4564758 118.7740502 1517
971.3017708 118.7740502 1517
976.5652673 118.4608688 1513
984.389876 118.4608688 1513
989.5913134 118.1476874 1509
994.7513783 117.834506 1505
1002.534614 117.834506 1505
1005.618697 117.2864385 1498
1013.365732 117.2864385 1498
1016.341212 116.738371 1491
1021.304757 116.4251896 1487
1026.918922 116.1903035 1484
1031.804893 115.8771221 1480
1039.45884 115.8771221 1480
1044.99026 115.6422361 1477
1052.628692 115.6422361 1477
