# .PCD v0.7 - Point Cloud Data file format
VERSION 0.7
FIELDS x y z rgb
SIZE 4 4 4 4
TYPE F F F F
COUNT 1 1 1 1
WIDTH 1062
HEIGHT 1
VIEWPOINT 0 0 0 1 0 0 0
POINTS 1062
DATA ascii
955.6111808 754.2429435 1517 1.646642704e-38
970.4426467 759.7120749 1528 1.646642704e-38
980.9059412 761.70085 1532 1.646642704e-38
986.2470115 759.7120749 1528 1.646642704e-38
991.5467092 757.7232998 1524 1.646642704e-38
994.8376557 754.2429435 1517 1.646642704e-38
1000.039093 752.2541684 1513 1.646642704e-38
1002.534614 748.2766183 1505 1.646642704e-38
1003.604775 743.3046806 1495 1.646642704e-38
1005.924462 739.3271305 1487 1.646642704e-38
1011.569657 737.8355492 1484 1.646642704e-38
1014.436534 734.3551928 1477 1.646642704e-38
1019.30699 732.3664177 1473 1.646642704e-38
1029.713397 734.3551928 1477 1.646642704e-38
1034.54248 732.3664177 1473 1.646642704e-38
1047.112786 735.8467741 1480 1.646642704e-38
1057.617453 737.8355492 1484 1.646642704e-38
1080.366974 748.2766183 1505 1.646642704e-38
1093.934397 752.2541684 1513 1.646642704e-38
1106.85637 755.7345248 1520 1.646642704e-38
1120.584113 759.7120749 1528 1.646642704e-38
1136.610215 765.1812063 1539 1.646642704e-38
1147.544124 767.1699814 1543 1.646642704e-38
1158.519405 769.1587564 1547 1.646642704e-38
1166.519848 769.1587564 1547 1.646642704e-38
1174.52029 769.1587564 1547 1.646642704e-38
1179.463148 767.1699814 1543 1.646642704e-38
-330.4613909 680.2026861 1354 1.646642704e-38
-321.309041 675.681398 1345 1.646642704e-38
-313.8858189 674.6766673 1343 1.646642704e-38
-301.6837686 663.1222642 1320 1.646642704e-38
-283.2416863 636.9992659 1268 1.646642704e-38
-258.622734 609.8715369 1214 1.646642704e-38
-246.5242942 595.805307 1186 1.646642704e-38
-237.755819 589.2745575 1173 1.646642704e-38
-228.1342111 580.2319811 1155 1.646642704e-38
-221.0069467 577.217789 1149 1.646642704e-38
-215.0647951 577.217789 1149 1.646642704e-38
-208.7586355 576.2130583 1147 1.646642704e-38
-202.2963297 574.7059623 1144 1.646642704e-38
-196.3800361 574.7059623 1144 1.646642704e-38
-190.9632103 576.2130583 1147 1.646642704e-38
-185.0314019 576.2130583 1147 1.646642704e-38
-179.3178007 751.0362007 1495 1.646642704e-38
-172.3896946 754.5527582 1502 1.646642704e-38
-167.033214 765.6047959 1524 1.646642704e-38
-159.569439 767.6142573 1528 1.646642704e-38
-152.3620673 771.1308148 1535 1.646642704e-38
-144.8000322 773.1402762 1539 1.646642704e-38
-137.1966243 775.1497376 1543 1.646642704e-38
-129.2168681 775.1497376 1543 1.646642704e-38
-120.9228226 773.1402762 1539 1.646642704e-38
-112.6701497 771.1308148 1535 1.646642704e-38
-104.5270787 769.6237187 1532 1.646642704e-38
-96.35197966 767.6142573 1528 1.646642704e-38
-87.81305132 762.0882384 1517 1.646642704e-38
-79.75689872 760.078777 1513 1.646642704e-38
-71.74211879 758.0693156 1509 1.646642704e-38
-63.93819649 758.0693156 1509 1.646642704e-38
-56.1342742 758.0693156 1509 1.646642704e-38
-48.68266063 763.5953345 1520 1.646642704e-38
-40.92927682 765.6047959 1524 1.646642704e-38
-33.13452032 767.6142573 1528 1.646642704e-38
-25.48003756 775.1497376 1543 1.646642704e-38
-17.54564826 777.159199 1547 1.646642704e-38
-9.569886279 779.1686604 1551 1.646642704e-38
-1.552751615 781.1781218 1555 1.646642704e-38
6.501582701 782.6852179 1558 1.646642704e-38
14.55891268 782.6852179 1558 1.646642704e-38
22.67430747 784.6946793 1562 1.646642704e-38
30.83107493 786.7041407 1566 1.646642704e-38
39.02921509 788.7136021 1570 1.646642704e-38
47.14860409 788.7136021 1570 1.646642704e-38
55.12718292 786.7041407 1566 1.646642704e-38
63.22588558 786.7041407 1566 1.646642704e-38
71.14240538 784.6946793 1562 1.646642704e-38
79.0175525 782.6852179 1558 1.646642704e-38
86.68366029 779.1686604 1551 1.646642704e-38
94.70478917 779.1686604 1551 1.646642704e-38
102.4609898 777.159199 1547 1.646642704e-38
110.4614324 777.159199 1547 1.646642704e-38
118.155574 775.1497376 1543 1.646642704e-38
126.1353302 775.1497376 1543 1.646642704e-38
134.1150864 775.1497376 1543 1.646642704e-38
142.0948426 775.1497376 1543 1.646642704e-38
149.6855525 773.1402762 1539 1.646642704e-38
157.2348898 771.1308148 1535 1.646642704e-38
166.0341112 775.1497376 1543 1.646642704e-38
174.0138674 775.1497376 1543 1.646642704e-38
181.9936236 775.1497376 1543 1.646642704e-38
190.4658578 777.159199 1547 1.646642704e-38
198.4663003 777.159199 1547 1.646642704e-38
207.0005935 779.1686604 1551 1.646642704e-38
215.5762594 781.1781218 1555 1.646642704e-38
224.6247155 784.6946793 1562 1.646642704e-38
233.2986415 786.7041407 1566 1.646642704e-38
242.6305362 790.7230635 1574 1.646642704e-38
288.551114 805.2916587 1603 1.646642704e-38
296.1004512 803.2821973 1599 1.646642704e-38
304.3698162 803.2821973 1599 1.646642704e-38
310.8794859 798.7609091 1590 1.646642704e-38
315.0884412 788.7136021 1570 1.646642704e-38
320.7374518 782.6852179 1558 1.646642704e-38
326.4733809 777.159199 1547 1.646642704e-38
331.8793271 771.1308148 1535 1.646642704e-38
335.8328775 762.0882384 1517 1.646642704e-38
340.9595581 756.0598542 1505 1.646642704e-38
345.498675 749.0267393 1491 1.646642704e-38
348.9454101 739.984163 1473 1.646642704e-38
349.0591106 724.4108371 1442 1.646642704e-38
342.4239968 695.776012 1385 1.646642704e-38
341.7619595 680.2026861 1354 1.646642704e-38
342.0671875 667.141187 1328 1.646642704e-38
342.3662454 654.5820532 1303 1.646642704e-38
343.4784195 644.0323808 1282 1.646642704e-38
347.1043418 638.5063619 1271 1.646642704e-38
352.8426256 636.9992659 1268 1.646642704e-38
359.4001958 636.9992659 1268 1.646642704e-38
367.6894274 640.013458 1274 1.646642704e-38
374.8655908 641.0181887 1276 1.646642704e-38
382.3613939 642.5252847 1279 1.646642704e-38
397.1872261 656.0891492 1306 1.646642704e-38
409.1993582 664.6293602 1323 1.646642704e-38
422.3307286 674.6766673 1343 1.646642704e-38
440.4635586 692.2594546 1378 1.646642704e-38
454.7358523 703.3114923 1400 1.646642704e-38
469.5656787 714.8658954 1423 1.646642704e-38
488.9904064 732.951048 1459 1.646642704e-38
500.2793363 738.4770669 1470 1.646642704e-38
508.9180598 739.984163 1473 1.646642704e-38
520.3931667 745.5101818 1484 1.646642704e-38
529.1353219 747.0172779 1487 1.646642704e-38
538.269519 749.0267393 1491 1.646642704e-38
541.9523287 743.5007204 1480 1.646642704e-38
548.4922083 741.9936244 1477 1.646642704e-38
551.9888409 736.4676055 1466 1.646642704e-38
559.570385 736.4676055 1466 1.646642704e-38
564.4438367 732.951048 1459 1.646642704e-38
570.8130539 731.443952 1456 1.646642704e-38
577.1512416 729.9368559 1453 1.646642704e-38
583.0560147 727.9273945 1449 1.646642704e-38
592.1798687 729.9368559 1453 1.646642704e-38
599.6941822 729.9368559 1453 1.646642704e-38
607.2084957 729.9368559 1453 1.646642704e-38
615.9920236 731.443952 1456 1.646642704e-38
623.5218518 731.443952 1456 1.646642704e-38
632.351924 732.951048 1459 1.646642704e-38
639.897267 732.951048 1459 1.646642704e-38
649.2176412 734.9605095 1463 1.646642704e-38
656.7836705 734.9605095 1463 1.646642704e-38
665.7120028 736.4676055 1466 1.646642704e-38
673.2935469 736.4676055 1466 1.646642704e-38
682.7328675 738.4770669 1470 1.646642704e-38
691.7439451 739.984163 1473 1.646642704e-38
701.2608395 741.9936244 1477 1.646642704e-38
710.3391478 743.5007204 1480 1.646642704e-38
719.933616 745.5101818 1484 1.646642704e-38
731.040363 749.0267393 1491 1.646642704e-38
742.2195122 752.5432968 1498 1.646642704e-38
749.9665471 752.5432968 1498 1.646642704e-38
756.1961315 751.0362007 1495 1.646642704e-38
761.883698 749.0267393 1491 1.646642704e-38
767.5298919 747.0172779 1487 1.646642704e-38
773.6560446 745.5101818 1484 1.646642704e-38
779.2246646 743.5007204 1480 1.646642704e-38
785.2835868 741.9936244 1477 1.646642704e-38
790.774633 739.984163 1473 1.646642704e-38
796.7663245 738.4770669 1470 1.646642704e-38
802.179797 736.4676055 1466 1.646642704e-38
809.7613412 736.4676055 1466 1.646642704e-38
817.3428853 736.4676055 1466 1.646642704e-38
824.9244294 736.4676055 1466 1.646642704e-38
832.5059735 736.4676055 1466 1.646642704e-38
840.0875177 736.4676055 1466 1.646642704e-38
847.6690618 736.4676055 1466 1.646642704e-38
857.5841683 738.4770669 1470 1.646642704e-38
866.9520853 739.984163 1473 1.646642704e-38
876.9447655 741.9936244 1477 1.646642704e-38
884.5831971 741.9936244 1477 1.646642704e-38
896.4501672 745.5101818 1484 1.646642704e-38
905.9525454 747.0172779 1487 1.646642704e-38
920.401314 752.5432968 1498 1.646642704e-38
930.6267156 754.5527582 1502 1.646642704e-38
942.7677797 758.0693156 1509 1.646642704e-38
953.0914414 760.078777 1513 1.646642704e-38
967.9022209 765.6047959 1524 1.646642704e-38
975.783717 765.6047959 1524 1.646642704e-38
983.6652131 765.6047959 1524 1.646642704e-38
986.9923608 762.0882384 1517 1.646642704e-38
994.8376557 762.0882384 1517 1.646642704e-38
997.3952357 758.0693156 1509 1.646642704e-38
1002.534614 756.0598542 1505 1.646642704e-38
1000.919545 749.0267393 1491 1.646642704e-38
1005.924462 747.0172779 1487 1.646642704e-38
1011.569657 745.5101818 1484 1.646642704e-38
1016.497001 743.5007204 1480 1.646642704e-38
1022.074965 741.9936244 1477 1.646642704e-38
1031.804893 743.5007204 1480 1.646642704e-38
1037.351828 741.9936244 1477 1.646642704e-38
1049.94282 745.5101818 1484 1.646642704e-38
1059.755494 747.0172779 1487 1.646642704e-38
1080.366974 756.0598542 1505 1.646642704e-38
1096.82649 762.0882384 1517 1.646642704e-38
1109.76915 765.6047959 1524 1.646642704e-38
1120.584113 767.6142573 1528 1.646642704e-38
1136.610215 773.1402762 1539 1.646642704e-38
1150.518962 777.159199 1547 1.646642704e-38
1158.519405 777.159199 1547 1.646642704e-38
1166.519848 777.159199 1547 1.646642704e-38
1174.52029 777.159199 1547 1.646642704e-38
1179.463148 775.1497376 1543 1.646642704e-38
-328.2648233 682.6371803 1345 1.646642704e-38
-320.831258 681.6221064 1343 1.646642704e-38
-312.4834995 678.5768848 1337 1.646642704e-38
-301.6837686 669.9487568 1320 1.646642704e-38
-282.7949329 642.5417622 1266 1.646642704e-38
-258.622734 616.1498415 1214 1.646642704e-38
-246.9400182 602.9538811 1188 1.646642704e-38
-237.755819 595.3408271 1173 1.646642704e-38
-228.1342111 586.2051622 1155 1.646642704e-38
-220.6222523 582.1448667 1147 1.646642704e-38
-214.6904439 582.1448667 1147 1.646642704e-38
-208.2126234 580.6222559 1144 1.646642704e-38
-202.2963297 580.6222559 1144 1.646642704e-38
-196.3800361 580.6222559 1144 1.646642704e-38
-190.4637424 580.6222559 1144 1.646642704e-38
-185.3540373 583.1599406 1149 1.646642704e-38
-197.2294298 738.9737803 1456 1.646642704e-38
-191.9145008 747.6019082 1473 1.646642704e-38
-185.6730382 753.1848145 1484 1.646642704e-38
-178.8380206 756.7375731 1491 1.646642704e-38
-171.9306009 760.2903316 1498 1.646642704e-38
-166.2660011 769.9335334 1517 1.646642704e-38
-159.151718 773.486292 1524 1.646642704e-38
-151.6672566 775.5164397 1528 1.646642704e-38
-144.1414225 777.5465875 1532 1.646642704e-38
-135.8628918 775.5164397 1528 1.646642704e-38
-127.9607093 775.5164397 1528 1.646642704e-38
-119.4299482 771.4561442 1520 1.646642704e-38
-111.5691385 771.4561442 1520 1.646642704e-38
-103.5036413 769.9335334 1517 1.646642704e-38
-95.6583463 769.9335334 1517 1.646642704e-38
-87.58150735 767.9033857 1513 1.646642704e-38
-79.54604108 765.8732379 1509 1.646642704e-38
-71.74211879 765.8732379 1509 1.646642704e-38
-63.93819649 765.8732379 1509 1.646642704e-38
-56.1342742 765.8732379 1509 1.646642704e-38
-48.58657643 769.9335334 1517 1.646642704e-38
-40.92927682 773.486292 1524 1.646642704e-38
-33.22125991 777.5465875 1532 1.646642704e-38
-25.48003756 783.1294938 1543 1.646642704e-38
-17.54564826 785.1596415 1547 1.646642704e-38
-9.594566837 789.219937 1555 1.646642704e-38
-1.552751615 789.219937 1555 1.646642704e-38
6.518274826 792.7726956 1562 1.646642704e-38
14.59629115 792.7726956 1562 1.646642704e-38
22.79043708 796.8329911 1570 1.646642704e-38
30.98857723 798.8631388 1574 1.646642704e-38
39.22809007 800.8932866 1578 1.646642704e-38
47.50897558 802.9234343 1582 1.646642704e-38
55.69042361 802.9234343 1582 1.646642704e-38
63.71037512 800.8932866 1578 1.646642704e-38
71.87113681 800.8932866 1578 1.646642704e-38
79.82902929 798.8631388 1574 1.646642704e-38
87.7455491 796.8329911 1570 1.646642704e-38
95.13221246 790.7425478 1558 1.646642704e-38
103.1895424 790.7425478 1558 1.646642704e-38
111.0326615 789.219937 1555 1.646642704e-38
118.7681758 787.1897893 1551 1.646642704e-38
126.4623174 785.1596415 1547 1.646642704e-38
134.46276 785.1596415 1547 1.646642704e-38
142.8315625 787.1897893 1551 1.646642704e-38
150.4636451 785.1596415 1547 1.646642704e-38
158.054355 783.1294938 1543 1.646642704e-38
167.325368 789.219937 1555 1.646642704e-38
175.3671833 789.219937 1555 1.646642704e-38
183.4089985 789.219937 1555 1.646642704e-38
191.8201722 790.7425478 1558 1.646642704e-38
199.8775022 790.7425478 1558 1.646642704e-38
207.9348322 790.7425478 1558 1.646642704e-38
216.5466991 792.7726956 1562 1.646642704e-38
225.7751621 796.8329911 1570 1.646642704e-38
234.4904608 798.8631388 1574 1.646642704e-38
243.2471322 800.8932866 1578 1.646642704e-38
289.2711417 815.6118577 1607 1.646642704e-38
296.8411653 813.58171 1603 1.646642704e-38
305.1312166 813.58171 1603 1.646642704e-38
311.8570944 809.5214145 1595 1.646642704e-38
316.6939874 800.8932866 1578 1.646642704e-38
322.3843707 794.8028433 1566 1.646642704e-38
328.1616725 789.219937 1555 1.646642704e-38
333.6089913 783.1294938 1543 1.646642704e-38
336.4970164 771.4561442 1520 1.646642704e-38
341.8657629 765.8732379 1509 1.646642704e-38
346.4255662 758.7677208 1495 1.646642704e-38
349.8929876 749.6320559 1477 1.646642704e-38
350.0273745 733.8984109 1446 1.646642704e-38
343.1657094 704.4612685 1388 1.646642704e-38
343.2764143 690.2502343 1360 1.646642704e-38
343.6126718 677.0542739 1334 1.646642704e-38
344.4682638 665.3809244 1311 1.646642704e-38
345.6218106 654.7226487 1290 1.646642704e-38
347.9236282 646.6020577 1274 1.646642704e-38
353.6774268 645.0794469 1271 1.646642704e-38
360.2505118 645.0794469 1271 1.646642704e-38
367.6894274 646.6020577 1274 1.646642704e-38
374.8655908 647.6171316 1276 1.646642704e-38
384.7530211 653.2000379 1287 1.646642704e-38
395.3624762 659.7980181 1300 1.646642704e-38
407.3435788 668.426146 1317 1.646642704e-38
418.5571108 675.5316631 1331 1.646642704e-38
435.6689625 691.7728451 1363 1.646642704e-38
448.5644372 700.90851 1381 1.646642704e-38
461.9760718 710.5517118 1400 1.646642704e-38
479.9412351 726.7928938 1432 1.646642704e-38
490.7502061 731.8682631 1442 1.646642704e-38
500.6261158 735.4210217 1449 1.646642704e-38
513.0291125 742.5265388 1463 1.646642704e-38
521.6626644 744.0491496 1466 1.646642704e-38
531.7712954 747.6019082 1473 1.646642704e-38
538.2904886 746.0792974 1470 1.646642704e-38
544.4072968 744.0491496 1466 1.646642704e-38
550.8592593 742.5265388 1463 1.646642704e-38
558.4252887 742.5265388 1463 1.646642704e-38
564.4438367 740.4963911 1459 1.646642704e-38
569.6369281 737.4511695 1453 1.646642704e-38
577.1512416 737.4511695 1453 1.646642704e-38
583.0560147 735.4210217 1449 1.646642704e-38
592.1798687 737.4511695 1453 1.646642704e-38
599.6941822 737.4511695 1453 1.646642704e-38
607.2084957 737.4511695 1453 1.646642704e-38
615.9920236 738.9737803 1456 1.646642704e-38
623.5218518 738.9737803 1456 1.646642704e-38
631.0516801 738.9737803 1456 1.646642704e-38
639.897267 740.4963911 1459 1.646642704e-38
647.44261 740.4963911 1459 1.646642704e-38
656.7836705 742.5265388 1463 1.646642704e-38
664.3496999 742.5265388 1463 1.646642704e-38
671.9157293 742.5265388 1463 1.646642704e-38
679.4817586 742.5265388 1463 1.646642704e-38
688.4566351 744.0491496 1466 1.646642704e-38
697.9373285 746.0792974 1470 1.646642704e-38
708.8992711 749.6320559 1477 1.646642704e-38
716.5377027 749.6320559 1477 1.646642704e-38
729.0791548 754.7074253 1487 1.646642704e-38
736.7693022 754.7074253 1487 1.646642704e-38
748.4646114 758.7677208 1495 1.646642704e-38
754.1728643 756.7375731 1491 1.646642704e-38
761.883698 756.7375731 1491 1.646642704e-38
767.5298919 754.7074253 1487 1.646642704e-38
775.2200393 754.7074253 1487 1.646642704e-38
779.2246646 751.1546667 1480 1.646642704e-38
785.2835868 749.6320559 1477 1.646642704e-38
792.9220183 749.6320559 1477 1.646642704e-38
798.3923783 747.6019082 1473 1.646642704e-38
804.368555 746.0792974 1470 1.646642704e-38
811.9707855 746.0792974 1470 1.646642704e-38
817.3428853 744.0491496 1466 1.646642704e-38
824.9244294 744.0491496 1466 1.646642704e-38
832.5059735 744.0491496 1466 1.646642704e-38
840.0875177 744.0491496 1466 1.646642704e-38
849.9819378 746.0792974 1470 1.646642704e-38
859.33434 747.6019082 1473 1.646642704e-38
869.306334 749.6320559 1477 1.646642704e-38
878.7259668 751.1546667 1480 1.646642704e-38
888.7755345 753.1848145 1484 1.646642704e-38
900.6787057 756.7375731 1491 1.646642704e-38
908.3895395 756.7375731 1491 1.646642704e-38
922.8589944 762.3204794 1502 1.646642704e-38
932.4854906 763.8430902 1505 1.646642704e-38
942.7677797 765.8732379 1509 1.646642704e-38
953.0914414 767.9033857 1513 1.646642704e-38
965.3617951 771.4561442 1520 1.646642704e-38
973.2226049 771.4561442 1520 1.646642704e-38
981.0834146 771.4561442 1520 1.646642704e-38
986.9923608 769.9335334 1517 1.646642704e-38
992.2144846 767.9033857 1513 1.646642704e-38
994.7513783 763.8430902 1505 1.646642704e-38
1000.536206 762.3204794 1502 1.646642704e-38
1003.604775 758.7677208 1495 1.646642704e-38
1005.924462 754.7074253 1487 1.646642704e-38
1013.614609 754.7074253 1487 1.646642704e-38
1019.24429 753.1848145 1484 1.646642704e-38
1024.150947 751.1546667 1480 1.646642704e-38
1034.593555 753.1848145 1484 1.646642704e-38
1042.268188 753.1848145 1484 1.646642704e-38
1052.065346 754.7074253 1487 1.646642704e-38
1065.456936 758.7677208 1495 1.646642704e-38
1083.238381 765.8732379 1509 1.646642704e-38
1098.995561 771.4561442 1520 1.646642704e-38
1112.68193 775.5164397 1528 1.646642704e-38
1123.517579 777.5465875 1532 1.646642704e-38
1139.564367 783.1294938 1543 1.646642704e-38
1150.518962 785.1596415 1547 1.646642704e-38
1161.51493 787.1897893 1551 1.646642704e-38
1166.519848 785.1596415 1547 1.646642704e-38
1174.52029 785.1596415 1547 1.646642704e-38
1179.463148 783.1294938 1543 1.646642704e-38
1187.442905 783.1294938 1543 1.646642704e-38
-320.1145836 687.0294199 1340 1.646642704e-38
-312.4834995 685.4912944 1337 1.646642704e-38
-301.6837686 676.7752495 1320 1.646642704e-38
-283.2416863 650.1144063 1268 1.646642704e-38
-259.0488011 623.4535632 1216 1.646642704e-38
-248.395052 612.6866842 1195 1.646642704e-38
-238.1611998 602.4325138 1175 1.646642704e-38
-228.5292487 593.2037604 1157 1.646642704e-38
-221.0069467 589.1020922 1149 1.646642704e-38
-214.6904439 588.0766751 1147 1.646642704e-38
-208.2126234 586.5385496 1144 1.646642704e-38
-202.8268271 588.0766751 1147 1.646642704e-38
-196.8950187 588.0766751 1147 1.646642704e-38
-191.2961889 589.1020922 1149 1.646642704e-38
-185.3540373 589.1020922 1149 1.646642704e-38
-192.8265181 758.8086131 1480 1.646642704e-38
-186.5488544 764.4484068 1491 1.646642704e-38
-179.3178007 766.4992409 1495 1.646642704e-38
-171.9306009 768.0373665 1498 1.646642704e-38
-165.8275937 775.7279943 1513 1.646642704e-38
-158.4207061 777.7788284 1517 1.646642704e-38
-151.2702219 781.3677881 1524 1.646642704e-38
-143.3887258 781.3677881 1524 1.646642704e-38
-135.1515677 779.316954 1520 1.646642704e-38
-127.290758 779.316954 1520 1.646642704e-38
-118.8799419 775.7279943 1513 1.646642704e-38
-110.7617303 773.6771602 1509 1.646642704e-38
-102.957808 773.6771602 1509 1.646642704e-38
-94.90165536 771.6263261 1505 1.646642704e-38
-86.94476143 770.0882006 1502 1.646642704e-38
-79.17704023 770.0882006 1502 1.646642704e-38
-71.40931903 770.0882006 1502 1.646642704e-38
-63.76871155 771.6263261 1505 1.646642704e-38
-56.1342742 773.6771602 1509 1.646642704e-38
-48.58657643 777.7788284 1517 1.646642704e-38
-41.03670274 783.4186221 1528 1.646642704e-38
-33.28631459 787.0075818 1535 1.646642704e-38
-25.48003756 791.10925 1543 1.646642704e-38
-17.59101516 795.2109182 1551 1.646642704e-38
-9.613077255 798.7998778 1558 1.646642704e-38
-1.555747277 798.7998778 1558 1.646642704e-38
6.534966951 802.901546 1566 1.646642704e-38
14.63366961 802.901546 1566 1.646642704e-38
22.79043708 804.9523801 1570 1.646642704e-38
30.98857723 807.0032142 1574 1.646642704e-38
39.32752756 811.1048823 1582 1.646642704e-38
47.50897558 811.1048823 1582 1.646642704e-38
55.83123378 813.1557164 1586 1.646642704e-38
63.87187164 811.1048823 1582 1.646642704e-38
72.05331966 811.1048823 1582 1.646642704e-38
80.03189849 809.0540483 1578 1.646642704e-38
88.19266018 809.0540483 1578 1.646642704e-38
95.62069622 802.901546 1566 1.646642704e-38
103.4544707 800.8507119 1562 1.646642704e-38
111.532487 800.8507119 1562 1.646642704e-38
119.3042024 798.7998778 1558 1.646642704e-38
127.1162919 797.2617522 1555 1.646642704e-38
135.4188624 798.7998778 1558 1.646642704e-38
143.1999224 797.2617522 1555 1.646642704e-38
151.2417376 797.2617522 1555 1.646642704e-38
159.5908523 798.7998778 1558 1.646642704e-38
168.0786012 800.8507119 1562 1.646642704e-38
176.1566175 800.8507119 1562 1.646642704e-38
184.2346339 800.8507119 1562 1.646642704e-38
192.8051282 802.901546 1566 1.646642704e-38
201.4169951 804.9523801 1570 1.646642704e-38
209.5363841 804.9523801 1570 1.646642704e-38
218.2103101 807.0032142 1574 1.646642704e-38
226.9256088 809.0540483 1578 1.646642704e-38
235.6822802 811.1048823 1582 1.646642704e-38
244.4803242 813.1557164 1586 1.646642704e-38
289.2711417 823.9225954 1607 1.646642704e-38
297.5818793 823.9225954 1607 1.646642704e-38
305.1312166 821.8717613 1603 1.646642704e-38
312.6391812 819.8209272 1599 1.646642704e-38
316.6939874 809.0540483 1578 1.646642704e-38
322.3843707 802.901546 1566 1.646642704e-38
328.1616725 797.2617522 1555 1.646642704e-38
333.6089913 791.10925 1543 1.646642704e-38
336.4970164 779.316954 1520 1.646642704e-38
341.8657629 773.6771602 1509 1.646642704e-38
346.4255662 766.4992409 1495 1.646642704e-38
349.8929876 757.2704875 1477 1.646642704e-38
350.7535723 742.9146489 1449 1.646642704e-38
343.907422 713.1775546 1391 1.646642704e-38
344.0336417 698.821716 1363 1.646642704e-38
344.3854139 685.4912944 1337 1.646642704e-38
345.2565207 673.6989984 1314 1.646642704e-38
346.1576584 662.4194109 1292 1.646642704e-38
349.2891056 655.7542001 1279 1.646642704e-38
354.5122279 653.1906575 1274 1.646642704e-38
361.1008277 653.1906575 1274 1.646642704e-38
367.6894274 653.1906575 1274 1.646642704e-38
374.8655908 654.2160745 1276 1.646642704e-38
382.3613939 655.7542001 1279 1.646642704e-38
393.8418513 663.9575364 1295 1.646642704e-38
404.8692062 671.1354557 1309 1.646642704e-38
415.0979611 676.7752495 1320 1.646642704e-38
429.9154472 689.5929626 1345 1.646642704e-38
441.7433994 697.2835904 1360 1.646642704e-38
454.7164478 706.5123438 1378 1.646642704e-38
472.5678362 722.9190165 1410 1.646642704e-38
482.9227063 727.5333932 1419 1.646642704e-38
492.6796695 731.1223529 1426 1.646642704e-38
504.6130505 737.7875637 1439 1.646642704e-38
514.5458477 741.3765233 1446 1.646642704e-38
524.551047 744.965483 1453 1.646642704e-38
533.1639126 746.5036085 1456 1.646642704e-38
540.6937408 746.5036085 1456 1.646642704e-38
548.2235691 746.5036085 1456 1.646642704e-38
555.7533974 746.5036085 1456 1.646642704e-38
563.2832257 746.5036085 1456 1.646642704e-38
569.6369281 744.965483 1453 1.646642704e-38
577.1512416 744.965483 1453 1.646642704e-38
584.6655552 744.965483 1453 1.646642704e-38
592.1798687 744.965483 1453 1.646642704e-38
599.6941822 744.965483 1453 1.646642704e-38
607.2084957 744.965483 1453 1.646642704e-38
615.9920236 746.5036085 1456 1.646642704e-38
622.2371227 744.965483 1453 1.646642704e-38
631.0516801 746.5036085 1456 1.646642704e-38
638.5815084 746.5036085 1456 1.646642704e-38
646.1113367 746.5036085 1456 1.646642704e-38
653.6411649 746.5036085 1456 1.646642704e-38
662.5332961 748.0417341 1459 1.646642704e-38
670.0786391 748.0417341 1459 1.646642704e-38
677.6239821 748.0417341 1459 1.646642704e-38
687.047788 750.0925682 1463 1.646642704e-38
696.0381793 751.6306938 1466 1.646642704e-38
703.6197234 751.6306938 1466 1.646642704e-38
713.1417894 753.6815278 1470 1.646642704e-38
724.1761342 757.2704875 1477 1.646642704e-38
735.2828813 760.8594472 1484 1.646642704e-38
744.4594496 762.3975727 1487 1.646642704e-38
754.1728643 764.4484068 1491 1.646642704e-38
761.883698 764.4484068 1491 1.646642704e-38
767.5298919 762.3975727 1487 1.646642704e-38
775.2200393 762.3975727 1487 1.646642704e-38
781.3306773 760.8594472 1484 1.646642704e-38
786.878611 758.8086131 1480 1.646642704e-38
792.9220183 757.2704875 1477 1.646642704e-38
800.5604499 757.2704875 1477 1.646642704e-38
804.368555 753.6815278 1470 1.646642704e-38
809.7613412 751.6306938 1466 1.646642704e-38
817.3428853 751.6306938 1466 1.646642704e-38
824.9244294 751.6306938 1466 1.646642704e-38
832.5059735 751.6306938 1466 1.646642704e-38
842.3797073 753.6815278 1470 1.646642704e-38
851.7165948 755.2196534 1473 1.646642704e-38
861.6679024 757.2704875 1477 1.646642704e-38
871.0720205 758.8086131 1480 1.646642704e-38
882.8821031 762.3975727 1487 1.646642704e-38
892.967872 764.4484068 1491 1.646642704e-38
903.0950134 766.4992409 1495 1.646642704e-38
912.6542791 768.0373665 1498 1.646642704e-38
924.7022547 771.6263261 1505 1.646642704e-38
934.9638574 773.6771602 1509 1.646642704e-38
945.2668328 775.7279943 1513 1.646642704e-38
955.6111808 777.7788284 1517 1.646642704e-38
965.3617951 779.316954 1520 1.646642704e-38
973.2226049 779.316954 1520 1.646642704e-38
979.1470658 777.7788284 1517 1.646642704e-38
984.389876 775.7279943 1513 1.646642704e-38
989.5913134 773.6771602 1509 1.646642704e-38
992.7684851 770.0882006 1502 1.646642704e-38
1000.536206 770.0882006 1502 1.646642704e-38
1000.919545 764.4484068 1491 1.646642704e-38
1005.924462 762.3975727 1487 1.646642704e-38
1011.569657 760.8594472 1484 1.646642704e-38
1021.304757 762.3975727 1487 1.646642704e-38
1026.918922 760.8594472 1484 1.646642704e-38
1034.593555 760.8594472 1484 1.646642704e-38
1044.375199 762.3975727 1487 1.646642704e-38
1052.065346 762.3975727 1487 1.646642704e-38
1065.456936 766.4992409 1495 1.646642704e-38
1086.109788 775.7279943 1513 1.646642704e-38
1101.887654 781.3677881 1524 1.646642704e-38
1115.59471 785.4694562 1532 1.646642704e-38
1125.717679 787.0075818 1535 1.646642704e-38
1139.564367 791.10925 1543 1.646642704e-38
1147.544124 791.10925 1543 1.646642704e-38
1161.51493 795.2109182 1551 1.646642704e-38
1166.519848 793.1600841 1547 1.646642704e-38
1171.483392 791.10925 1543 1.646642704e-38
1182.520733 793.1600841 1547 1.646642704e-38
1187.442905 791.10925 1543 1.646642704e-38
-311.7823398 690.8520637 1334 1.646642704e-38
-301.6837686 683.6017422 1320 1.646642704e-38
-283.9118165 658.2256169 1271 1.646642704e-38
-271.883603 645.2786142 1246 1.646642704e-38
-260.1139688 632.3316115 1221 1.646642704e-38
-249.4343618 621.4561292 1200 1.646642704e-38
-238.5665806 609.5448868 1177 1.646642704e-38
-228.9242863 600.2230448 1159 1.646642704e-38
-221.0069467 595.0442437 1149 1.646642704e-38
-215.0647951 595.0442437 1149 1.646642704e-38
-208.7586355 594.0084835 1147 1.646642704e-38
-203.180492 595.0442437 1149 1.646642704e-38
-197.2383404 595.0442437 1149 1.646642704e-38
-191.2961889 595.0442437 1149 1.646642704e-38
-186.3219435 598.1515244 1155 1.646642704e-38
-184.8769997 613.1700475 1184 1.646642704e-38
-204.5615304 726.5857911 1403 1.646642704e-38
-199.1258667 761.2837583 1470 1.646642704e-38
-193.3476708 768.5340798 1484 1.646642704e-38
-186.5488544 772.1592406 1491 1.646642704e-38
-179.3178007 774.230761 1495 1.646642704e-38
-171.9306009 775.7844013 1498 1.646642704e-38
-165.3891863 781.4810825 1509 1.646642704e-38
-158.0029851 783.5526029 1513 1.646642704e-38
-150.5754112 785.6241234 1517 1.646642704e-38
-142.7301162 785.6241234 1517 1.646642704e-38
-134.1734972 781.4810825 1509 1.646642704e-38
-126.3695749 781.4810825 1509 1.646642704e-38
-118.0156462 777.8559218 1502 1.646642704e-38
-110.247925 777.8559218 1502 1.646642704e-38
-102.2072872 775.7844013 1498 1.646642704e-38
-94.46025232 775.7844013 1498 1.646642704e-38
-86.53955948 774.230761 1495 1.646642704e-38
-78.9661826 775.7844013 1498 1.646642704e-38
-71.21914774 775.7844013 1498 1.646642704e-38
-63.64159783 777.8559218 1502 1.646642704e-38
-56.1342742 781.4810825 1509 1.646642704e-38
-48.58657643 785.6241234 1517 1.646642704e-38
-40.92927682 789.2492841 1524 1.646642704e-38
-33.28631459 794.9459653 1535 1.646642704e-38
-25.48003756 799.0890062 1543 1.646642704e-38
-17.59101516 803.232047 1551 1.646642704e-38
-9.594566837 805.3035675 1555 1.646642704e-38
-1.559741493 808.9287282 1562 1.646642704e-38
6.534966951 811.0002487 1566 1.646642704e-38
14.67104808 813.0717691 1570 1.646642704e-38
22.79043708 813.0717691 1570 1.646642704e-38
30.98857723 815.1432895 1574 1.646642704e-38
39.32752756 819.2863304 1582 1.646642704e-38
47.50897558 819.2863304 1582 1.646642704e-38
55.83123378 821.3578508 1586 1.646642704e-38
64.03336815 821.3578508 1586 1.646642704e-38
72.23550252 821.3578508 1586 1.646642704e-38
80.23476769 819.2863304 1582 1.646642704e-38
88.41621572 819.2863304 1582 1.646642704e-38
96.10917998 815.1432895 1574 1.646642704e-38
104.2492553 815.1432895 1574 1.646642704e-38
112.1037161 813.0717691 1570 1.646642704e-38
119.9168042 811.0002487 1566 1.646642704e-38
128.0155069 811.0002487 1566 1.646642704e-38
135.7665359 808.9287282 1562 1.646642704e-38
144.2129122 811.0002487 1566 1.646642704e-38
151.9225686 808.9287282 1562 1.646642704e-38
160.4103175 811.0002487 1566 1.646642704e-38
168.9394391 813.0717691 1570 1.646642704e-38
177.5099334 815.1432895 1574 1.646642704e-38
185.6500088 815.1432895 1574 1.646642704e-38
194.2825621 817.2148099 1578 1.646642704e-38
202.4433238 817.2148099 1578 1.646642704e-38
210.6040855 817.2148099 1578 1.646642704e-38
219.3193841 819.2863304 1582 1.646642704e-38
228.0760555 821.3578508 1586 1.646642704e-38
236.8740996 823.4293712 1590 1.646642704e-38
245.8676653 826.0187718 1595 1.646642704e-38
290.7111971 836.3763739 1615 1.646642704e-38
298.3225934 834.3048535 1611 1.646642704e-38
305.892617 832.2333331 1607 1.646642704e-38
312.6391812 828.0902922 1599 1.646642704e-38
317.4967605 819.2863304 1582 1.646642704e-38
323.2078302 813.0717691 1570 1.646642704e-38
328.7947818 806.8572078 1558 1.646642704e-38
334.4738235 801.1605266 1547 1.646642704e-38
336.4970164 787.1777637 1520 1.646642704e-38
341.8657629 781.4810825 1509 1.646642704e-38
346.4255662 774.230761 1495 1.646642704e-38
349.8929876 764.9089191 1477 1.646642704e-38
351.7218362 752.4797965 1453 1.646642704e-38
344.6491347 721.9248701 1394 1.646642704e-38
344.790869 707.4242271 1366 1.646642704e-38
345.9308982 695.5129846 1343 1.646642704e-38
346.0447776 682.0481018 1317 1.646642704e-38
347.7652017 672.2083798 1298 1.646642704e-38
350.6545829 664.9580583 1284 1.646642704e-38
355.0687621 660.8150174 1276 1.646642704e-38
361.1008277 659.7792572 1274 1.646642704e-38
367.6894274 659.7792572 1274 1.646642704e-38
375.7469362 662.3686577 1279 1.646642704e-38
382.3613939 662.3686577 1279 1.646642704e-38
392.3212263 668.0653389 1290 1.646642704e-38
402.0855371 673.24414 1300 1.646642704e-38
412.2677478 678.9408212 1311 1.646642704e-38
425.4404909 689.2984233 1331 1.646642704e-38
436.8712295 696.5487449 1345 1.646642704e-38
448.7767555 704.3169465 1360 1.646642704e-38
464.1889739 717.2639492 1385 1.646642704e-38
475.4355325 723.4785105 1397 1.646642704e-38
484.7332233 726.5857911 1403 1.646642704e-38
494.4436423 730.2109519 1410 1.646642704e-38
507.429031 738.4970336 1426 1.646642704e-38
518.4138359 743.6758347 1436 1.646642704e-38
528.0373365 746.7831153 1442 1.646642704e-38
538.0942517 750.4082761 1449 1.646642704e-38
545.5878789 750.4082761 1449 1.646642704e-38
554.6083011 752.4797965 1453 1.646642704e-38
563.2832257 754.0334368 1456 1.646642704e-38
570.8130539 754.0334368 1456 1.646642704e-38
577.1512416 752.4797965 1453 1.646642704e-38
585.8727105 754.0334368 1456 1.646642704e-38
593.4025387 754.0334368 1456 1.646642704e-38
600.932367 754.0334368 1456 1.646642704e-38
608.4621953 754.0334368 1456 1.646642704e-38
615.9920236 754.0334368 1456 1.646642704e-38
623.5218518 754.0334368 1456 1.646642704e-38
631.0516801 754.0334368 1456 1.646642704e-38
638.5815084 754.0334368 1456 1.646642704e-38
646.1113367 754.0334368 1456 1.646642704e-38
652.2943768 752.4797965 1453 1.646642704e-38
661.1709932 754.0334368 1456 1.646642704e-38
668.7008215 754.0334368 1456 1.646642704e-38
676.2306497 754.0334368 1456 1.646642704e-38
683.760478 754.0334368 1456 1.646642704e-38
692.7146682 755.5870771 1459 1.646642704e-38
702.1798467 757.6585976 1463 1.646642704e-38
709.7458761 757.6585976 1463 1.646642704e-38
718.7828116 759.2122379 1466 1.646642704e-38
729.8326712 762.8373986 1473 1.646642704e-38
740.954933 766.4625594 1480 1.646642704e-38
748.6088794 766.4625594 1480 1.646642704e-38
758.3067793 768.5340798 1484 1.646642704e-38
765.9814119 768.5340798 1484 1.646642704e-38
775.2200393 770.0877201 1487 1.646642704e-38
782.9101867 770.0877201 1487 1.646642704e-38
789.0053099 768.5340798 1484 1.646642704e-38
794.5325573 766.4625594 1480 1.646642704e-38
802.1865036 766.4625594 1480 1.646642704e-38
804.368555 761.2837583 1470 1.646642704e-38
811.9707855 761.2837583 1470 1.646642704e-38
819.5730159 761.2837583 1470 1.646642704e-38
824.9244294 759.2122379 1466 1.646642704e-38
834.7774769 761.2837583 1470 1.646642704e-38
844.0988496 762.8373986 1473 1.646642704e-38
854.0294708 764.9089191 1477 1.646642704e-38
863.4180742 766.4625594 1480 1.646642704e-38
875.1919557 770.0877201 1487 1.646642704e-38
887.6319732 774.230761 1495 1.646642704e-38
897.1602094 775.7844013 1498 1.646642704e-38
907.323552 777.8559218 1502 1.646642704e-38
916.9190187 779.4095621 1505 1.646642704e-38
927.1599351 781.4810825 1509 1.646642704e-38
934.9638574 781.4810825 1509 1.646642704e-38
945.2668328 783.5526029 1513 1.646642704e-38
953.0914414 783.5526029 1513 1.646642704e-38
963.4564758 785.6241234 1517 1.646642704e-38
971.3017708 785.6241234 1517 1.646642704e-38
976.5652673 783.5526029 1513 1.646642704e-38
981.7873912 781.4810825 1509 1.646642704e-38
986.9681423 779.4095621 1505 1.646642704e-38
992.7684851 777.8559218 1502 1.646642704e-38
997.8716625 775.7844013 1498 1.646642704e-38
1000.919545 772.1592406 1491 1.646642704e-38
1005.924462 770.0877201 1487 1.646642704e-38
1011.569657 768.5340798 1484 1.646642704e-38
1019.24429 768.5340798 1484 1.646642704e-38
1024.150947 766.4625594 1480 1.646642704e-38
1031.804893 766.4625594 1480 1.646642704e-38
1039.45884 766.4625594 1480 1.646642704e-38
1049.94282 768.5340798 1484 1.646642704e-38
1062.606215 772.1592406 1491 1.646642704e-38
1083.238381 781.4810825 1509 1.646642704e-38
1098.995561 787.1777637 1520 1.646642704e-38
1112.68193 791.3208046 1528 1.646642704e-38
1123.517579 793.392325 1532 1.646642704e-38
1136.610215 797.0174857 1539 1.646642704e-38
1147.544124 799.0890062 1543 1.646642704e-38
1155.52388 799.0890062 1543 1.646642704e-38
1166.519848 801.1605266 1547 1.646642704e-38
1171.483392 799.0890062 1543 1.646642704e-38
1182.520733 801.1605266 1547 1.646642704e-38
1187.442905 799.0890062 1543 1.646642704e-38
-301.6837686 690.4282348 1320 1.646642704e-38
-284.5819467 666.3678569 1274 1.646642704e-38
-272.3200133 652.7685129 1248 1.646642704e-38
-250.2658097 629.7542384 1204 1.646642704e-38
-239.9854133 619.2932046 1184 1.646642704e-38
-230.3069178 609.8782741 1166 1.646642704e-38
-221.3916411 602.0324987 1151 1.646642704e-38
-215.4391464 602.0324987 1151 1.646642704e-38
-209.4866517 602.0324987 1151 1.646642704e-38
-203.5341569 602.0324987 1151 1.646642704e-38
-197.2383404 600.9863953 1149 1.646642704e-38
-191.962146 603.0786021 1153 1.646642704e-38
-187.7738028 608.8321707 1164 1.646642704e-38
-186.2823148 624.0006698 1193 1.646642704e-38
-194.5011272 697.7509585 1334 1.646642704e-38
-205.1811522 763.1324202 1459 1.646642704e-38
-199.1258667 768.8859888 1470 1.646642704e-38
-193.3476708 776.2087125 1484 1.646642704e-38
-186.5488544 779.8700743 1491 1.646642704e-38
-178.8380206 779.8700743 1491 1.646642704e-38
-171.9306009 783.5314362 1498 1.646642704e-38
-164.950779 787.192798 1505 1.646642704e-38
-157.585264 789.2850048 1509 1.646642704e-38
-149.7813417 789.2850048 1509 1.646642704e-38
-141.6010711 787.192798 1505 1.646642704e-38
-133.5510886 785.623643 1502 1.646642704e-38
-125.7833674 785.623643 1502 1.646642704e-38
-117.1513505 779.8700743 1491 1.646642704e-38
-109.4405168 779.8700743 1491 1.646642704e-38
-101.4567664 777.7778676 1487 1.646642704e-38
-93.76661895 777.7778676 1487 1.646642704e-38
-85.90281356 776.2087125 1484 1.646642704e-38
-78.22818089 776.2087125 1484 1.646642704e-38
-70.6961767 777.7778676 1487 1.646642704e-38
-63.34499918 781.9622811 1495 1.646642704e-38
-55.87387664 785.623643 1502 1.646642704e-38
-48.58657643 793.4694184 1517 1.646642704e-38
-41.03670274 799.222987 1528 1.646642704e-38
-33.28631459 802.8843488 1535 1.646642704e-38
-25.41398432 804.9765556 1539 1.646642704e-38
-17.59101516 811.2531759 1551 1.646642704e-38
-9.594566837 813.3453827 1555 1.646642704e-38
-1.555747277 814.9145378 1558 1.646642704e-38
6.534966951 819.0989513 1566 1.646642704e-38
14.63366961 819.0989513 1566 1.646642704e-38
22.79043708 821.1911581 1570 1.646642704e-38
30.98857723 823.2833649 1574 1.646642704e-38
39.22809007 825.3755716 1578 1.646642704e-38
47.38885175 825.3755716 1578 1.646642704e-38
55.69042361 827.4677784 1582 1.646642704e-38
64.03336815 829.5599852 1586 1.646642704e-38
72.23550252 829.5599852 1586 1.646642704e-38
80.43763689 829.5599852 1586 1.646642704e-38
88.41621572 827.4677784 1582 1.646642704e-38
96.59766374 827.4677784 1582 1.646642704e-38
104.7791118 827.4677784 1582 1.646642704e-38
112.6749452 825.3755716 1578 1.646642704e-38
120.529406 823.2833649 1574 1.646642704e-38
128.6694814 823.2833649 1574 1.646642704e-38
136.8095567 823.2833649 1574 1.646642704e-38
144.949632 823.2833649 1574 1.646642704e-38
153.0897074 823.2833649 1574 1.646642704e-38
161.6395153 825.3755716 1578 1.646642704e-38
170.230696 827.4677784 1582 1.646642704e-38
178.412144 827.4677784 1582 1.646642704e-38
187.0653837 829.5599852 1586 1.646642704e-38
195.267518 829.5599852 1586 1.646642704e-38
203.4696524 829.5599852 1586 1.646642704e-38
211.6717868 829.5599852 1586 1.646642704e-38
220.4284581 831.6521919 1590 1.646642704e-38
229.370308 834.2674504 1595 1.646642704e-38
238.2148964 836.3596572 1599 1.646642704e-38
246.4842613 836.3596572 1599 1.646642704e-38
290.7111971 844.7284843 1615 1.646642704e-38
298.3225934 842.6362775 1611 1.646642704e-38
305.1312166 838.451864 1603 1.646642704e-38
311.8570944 834.2674504 1595 1.646642704e-38
316.6939874 825.3755716 1578 1.646642704e-38
322.3843707 819.0989513 1566 1.646642704e-38
328.1616725 813.3453827 1555 1.646642704e-38
333.6089913 807.0687624 1543 1.646642704e-38
335.8328775 793.4694184 1517 1.646642704e-38
341.8657629 789.2850048 1509 1.646642704e-38
346.4255662 781.9622811 1495 1.646642704e-38
349.8929876 772.5473506 1477 1.646642704e-38
352.448034 761.5632651 1456 1.646642704e-38
347.6159852 735.4106804 1406 1.646642704e-38
346.3053238 717.6269229 1372 1.646642704e-38
347.9915439 706.6428373 1351 1.646642704e-38
348.146796 693.0434933 1325 1.646642704e-38
349.9085928 683.1055111 1306 1.646642704e-38
351.4738693 673.167529 1287 1.646642704e-38
355.9035632 668.9831154 1279 1.646642704e-38
361.667705 667.4139603 1276 1.646642704e-38
368.2666479 667.4139603 1276 1.646642704e-38
374.8655908 667.4139603 1276 1.646642704e-38
382.3613939 668.9831154 1279 1.646642704e-38
391.4088514 673.167529 1287 1.646642704e-38
399.6111646 675.7827874 1292 1.646642704e-38
408.8085981 679.967201 1300 1.646642704e-38
420.0066154 687.2899247 1314 1.646642704e-38
428.7509465 690.4282348 1320 1.646642704e-38
438.2173024 694.6126484 1328 1.646642704e-38
448.1015582 699.3201136 1337 1.646642704e-38
461.8224894 709.7811475 1357 1.646642704e-38
471.9498097 714.4886127 1366 1.646642704e-38
482.1702185 719.1960779 1375 1.646642704e-38
498.1771693 732.2723703 1400 1.646642704e-38
509.027513 737.5028872 1410 1.646642704e-38
518.5165523 740.6411974 1416 1.646642704e-38
528.4390063 744.3025592 1423 1.646642704e-38
542.9521886 754.2405414 1442 1.646642704e-38
553.0815061 757.9019032 1449 1.646642704e-38
563.2832257 761.5632651 1456 1.646642704e-38
570.8130539 761.5632651 1456 1.646642704e-38
579.5345228 763.1324202 1459 1.646642704e-38
588.6894062 765.2246269 1463 1.646642704e-38
596.2554356 765.2246269 1463 1.646642704e-38
603.8214649 765.2246269 1463 1.646642704e-38
611.3874943 765.2246269 1463 1.646642704e-38
617.2612379 763.1324202 1459 1.646642704e-38
623.5218518 761.5632651 1456 1.646642704e-38
631.0516801 761.5632651 1456 1.646642704e-38
637.2657498 759.99411 1453 1.646642704e-38
644.7800633 759.99411 1453 1.646642704e-38
650.4986593 757.9019032 1449 1.646642704e-38
657.9922865 757.9019032 1449 1.646642704e-38
665.4859137 757.9019032 1449 1.646642704e-38
672.9795408 757.9019032 1449 1.646642704e-38
680.473168 757.9019032 1449 1.646642704e-38
691.2903063 761.5632651 1456 1.646642704e-38
698.8201346 761.5632651 1456 1.646642704e-38
706.3499628 761.5632651 1456 1.646642704e-38
717.3119055 765.2246269 1463 1.646642704e-38
728.3462503 768.8859888 1470 1.646642704e-38
737.4504165 770.4551439 1473 1.646642704e-38
745.0681617 770.4551439 1473 1.646642704e-38
756.2628257 774.1165057 1480 1.646642704e-38
765.9814119 776.2087125 1484 1.646642704e-38
773.6560446 776.2087125 1484 1.646642704e-38
781.3306773 776.2087125 1484 1.646642704e-38
789.0053099 776.2087125 1484 1.646642704e-38
796.6799426 776.2087125 1484 1.646642704e-38
802.1865036 774.1165057 1480 1.646642704e-38
806.0101235 770.4551439 1473 1.646642704e-38
811.9707855 768.8859888 1470 1.646642704e-38
819.5730159 768.8859888 1470 1.646642704e-38
827.1752464 768.8859888 1470 1.646642704e-38
834.7774769 768.8859888 1470 1.646642704e-38
846.3910393 772.5473506 1477 1.646642704e-38
858.0770039 776.2087125 1484 1.646642704e-38
869.8353707 779.8700743 1491 1.646642704e-38
879.9004531 781.9622811 1495 1.646642704e-38
893.5693109 787.192798 1505 1.646642704e-38
903.7481682 789.2850048 1509 1.646642704e-38
916.3847059 793.4694184 1517 1.646642704e-38
926.0577465 795.0385734 1520 1.646642704e-38
933.9185562 795.0385734 1520 1.646642704e-38
941.7793659 795.0385734 1520 1.646642704e-38
952.1392288 797.1307802 1524 1.646642704e-38
957.5009854 795.0385734 1520 1.646642704e-38
967.9022209 797.1307802 1524 1.646642704e-38
973.2226049 795.0385734 1520 1.646642704e-38
979.1470658 793.4694184 1517 1.646642704e-38
981.7873912 789.2850048 1509 1.646642704e-38
986.9681423 787.192798 1505 1.646642704e-38
992.7684851 785.623643 1502 1.646642704e-38
997.8716625 783.5314362 1498 1.646642704e-38
1000.919545 779.8700743 1491 1.646642704e-38
1005.924462 777.7778676 1487 1.646642704e-38
1011.569657 776.2087125 1484 1.646642704e-38
1016.497001 774.1165057 1480 1.646642704e-38
1022.074965 772.5473506 1477 1.646642704e-38
1029.713397 772.5473506 1477 1.646642704e-38
1037.351828 772.5473506 1477 1.646642704e-38
1047.112786 774.1165057 1480 1.646642704e-38
1059.755494 777.7778676 1487 1.646642704e-38
1078.213418 785.623643 1502 1.646642704e-38
1093.934397 791.3772116 1513 1.646642704e-38
1109.76915 797.1307802 1524 1.646642704e-38
1123.517579 801.3151937 1532 1.646642704e-38
1136.610215 804.9765556 1539 1.646642704e-38
1144.569285 804.9765556 1539 1.646642704e-38
1152.528354 804.9765556 1539 1.646642704e-38
1163.503636 807.0687624 1543 1.646642704e-38
1171.483392 807.0687624 1543 1.646642704e-38
1179.463148 807.0687624 1543 1.646642704e-38
1187.442905 807.0687624 1543 1.646642704e-38
-285.6988303 675.5975731 1279 1.646642704e-38
-273.411039 661.8637678 1253 1.646642704e-38
-263.3094721 652.8839721 1236 1.646642704e-38
-251.3051195 638.6219436 1209 1.646642704e-38
-240.7961748 627.5292547 1188 1.646642704e-38
-231.096993 618.0212357 1170 1.646642704e-38
-221.7763356 609.04144 1153 1.646642704e-38
-215.8134977 609.04144 1153 1.646642704e-38
-209.4866517 607.9849934 1151 1.646642704e-38
-203.5341569 607.9849934 1151 1.646642704e-38
-197.2383404 606.9285469 1149 1.646642704e-38
-192.2951246 610.0978866 1155 1.646642704e-38
-188.4190736 616.9647892 1168 1.646642704e-38
-187.999922 635.9808272 1204 1.646642704e-38
-194.7571428 681.4080291 1290 1.646642704e-38
-206.0195598 746.3794924 1413 1.646642704e-38
-206.1655717 774.3753261 1466 1.646642704e-38
-200.4804644 781.770452 1480 1.646642704e-38
-193.3476708 783.8833451 1484 1.646642704e-38
-186.5488544 787.5809081 1491 1.646642704e-38
-179.3178007 789.6938012 1495 1.646642704e-38
-171.9306009 791.278471 1498 1.646642704e-38
-164.950779 794.976034 1505 1.646642704e-38
-157.167543 794.976034 1505 1.646642704e-38
-149.7813417 797.0889271 1509 1.646642704e-38
-141.6010711 794.976034 1505 1.646642704e-38
-133.5510886 793.3913642 1502 1.646642704e-38
-125.4483917 791.278471 1498 1.646642704e-38
-117.1513505 787.5809081 1491 1.646642704e-38
-108.6331085 781.770452 1480 1.646642704e-38
-100.9791622 781.770452 1480 1.646642704e-38
-93.13604317 780.1857822 1477 1.646642704e-38
-85.49761161 780.1857822 1477 1.646642704e-38
-78.01732326 781.770452 1480 1.646642704e-38
-70.6961767 785.468015 1487 1.646642704e-38
-63.34499918 789.6938012 1495 1.646642704e-38
-55.87387664 793.3913642 1502 1.646642704e-38
-48.58657643 801.3147133 1517 1.646642704e-38
-41.03670274 807.1251694 1528 1.646642704e-38
-33.28631459 810.8227323 1535 1.646642704e-38
-25.41398432 812.9356255 1539 1.646642704e-38
-17.59101516 819.2743048 1551 1.646642704e-38
-9.613077255 822.9718677 1558 1.646642704e-38
-1.555747277 822.9718677 1558 1.646642704e-38
6.518274826 825.0847609 1562 1.646642704e-38
14.63366961 827.197654 1566 1.646642704e-38
22.73237227 827.197654 1566 1.646642704e-38
30.90982608 829.3105471 1570 1.646642704e-38
39.12865258 831.4234402 1574 1.646642704e-38
47.38885175 833.5363333 1578 1.646642704e-38
55.54961344 833.5363333 1578 1.646642704e-38
63.87187164 835.6492264 1582 1.646642704e-38
72.23550252 837.7621195 1586 1.646642704e-38
80.43763689 837.7621195 1586 1.646642704e-38
88.63977126 837.7621195 1586 1.646642704e-38
96.84190562 837.7621195 1586 1.646642704e-38
105.04404 837.7621195 1586 1.646642704e-38
113.2461744 837.7621195 1586 1.646642704e-38
121.4483087 837.7621195 1586 1.646642704e-38
129.6504431 837.7621195 1586 1.646642704e-38
137.8525775 837.7621195 1586 1.646642704e-38
146.0547118 837.7621195 1586 1.646642704e-38
154.6458925 839.8750127 1590 1.646642704e-38
163.7906116 844.6290222 1599 1.646642704e-38
172.4903955 846.7419153 1603 1.646642704e-38
180.7804468 846.7419153 1603 1.646642704e-38
189.5422898 848.8548084 1607 1.646642704e-38
197.8530274 848.8548084 1607 1.646642704e-38
206.1637651 848.8548084 1607 1.646642704e-38
214.4745027 848.8548084 1607 1.646642704e-38
222.7852404 848.8548084 1607 1.646642704e-38
231.6712014 850.9677015 1611 1.646642704e-38
240.0026254 850.9677015 1611 1.646642704e-38
248.9506454 853.0805946 1615 1.646642704e-38
290.7111971 853.0805946 1615 1.646642704e-38
297.5818793 848.8548084 1607 1.646642704e-38
305.1312166 846.7419153 1603 1.646642704e-38
311.8570944 842.516129 1595 1.646642704e-38
315.8912143 831.4234402 1574 1.646642704e-38
322.3843707 827.197654 1566 1.646642704e-38
328.1616725 821.3871979 1555 1.646642704e-38
333.6089913 815.0485186 1543 1.646642704e-38
335.8328775 801.3147133 1517 1.646642704e-38
340.9595581 794.976034 1505 1.646642704e-38
346.4255662 789.6938012 1495 1.646642704e-38
350.6036707 781.770452 1480 1.646642704e-38
354.1424957 772.7906563 1463 1.646642704e-38
350.0883606 747.9641622 1416 1.646642704e-38
351.0825125 719.9683285 1363 1.646642704e-38
351.2998236 706.2345232 1337 1.646642704e-38
352.8557555 695.6700577 1317 1.646642704e-38
354.4779195 685.6338154 1298 1.646642704e-38
355.9035632 675.5975731 1279 1.646642704e-38
361.667705 674.0129032 1276 1.646642704e-38
367.6894274 672.9564567 1274 1.646642704e-38
374.8655908 674.0129032 1276 1.646642704e-38
381.4645337 674.0129032 1276 1.646642704e-38
390.4964765 678.2386895 1284 1.646642704e-38
398.9925714 681.4080291 1290 1.646642704e-38
408.1796618 685.6338154 1298 1.646642704e-38
