# .PCD v0.7 - Point Cloud Data file format
VERSION 0.7
FIELDS x y z rgb
SIZE 4 4 4 4
TYPE F F F F
COUNT 1 1 1 1
WIDTH 1000
HEIGHT 1
VIEWPOINT 0 0 0 1 0 0 0
POINTS 1000
DATA ascii
-1002.528848 -395.9870297 -1317 7.117465351e-39
-1004.034421 -399.2944384 -1328 7.117465351e-39
-1006.177096 -402.9025207 -1340 7.117465351e-39
-1002.975706 -404.4058883 -1345 7.117465351e-39
-996.0199239 -404.4058883 -1345 7.117465351e-39
-991.2702326 -405.3079089 -1348 7.117465351e-39
-982.1083593 -404.4058883 -1345 7.117465351e-39
-975.152577 -404.4058883 -1345 7.117465351e-39
-955.9593631 -399.2944384 -1328 7.117465351e-39
-941.2300471 -395.9870297 -1317 7.117465351e-39
-922.3574715 -390.8755798 -1300 7.117465351e-39
-906.4780664 -386.966824 -1287 7.117465351e-39
-862.6308021 -373.737189 -1243 7.117465351e-39
-847.9366886 -370.1291067 -1231 7.117465351e-39
-833.3666932 -366.5210244 -1219 7.117465351e-39
-825.027102 -365.6190039 -1216 7.117465351e-39
-814.0253216 -363.5142892 -1209 7.117465351e-39
-807.7728749 -363.5142892 -1209 7.117465351e-39
-801.5204283 -363.5142892 -1209 7.117465351e-39
-795.2679816 -363.5142892 -1209 7.117465351e-39
-789.0155349 -363.5142892 -1209 7.117465351e-39
-782.7630882 -363.5142892 -1209 7.117465351e-39
-776.5106415 -363.5142892 -1209 7.117465351e-39
-771.5324019 -364.1156363 -1211 7.117465351e-39
-767.165408 -365.0176568 -1214 7.117465351e-39
-764.0209052 -366.5210244 -1219 7.117465351e-39
-758.9599203 -367.1223715 -1221 7.117465351e-39
-755.7275006 -368.6257391 -1226 7.117465351e-39
-753.6658564 -370.7304538 -1233 7.117465351e-39
-750.3196618 -372.2338214 -1238 7.117465351e-39
-746.9217514 -373.737189 -1243 7.117465351e-39
-743.4721252 -375.2405566 -1248 7.117465351e-39
-739.9707831 -376.7439242 -1253 7.117465351e-39
-735.2469498 -377.6459448 -1256 7.117465351e-39
-729.9118708 -378.2472918 -1258 7.117465351e-39
-728.0063726 -380.65268 -1266 7.117465351e-39
-724.3085103 -382.1560476 -1271 7.117465351e-39
-720.5589321 -383.6594152 -1276 7.117465351e-39
-718.4362274 -386.0648034 -1284 7.117465351e-39
-720.6656428 -390.8755798 -1300 7.117465351e-39
-721.6311942 -395.0850091 -1314 7.117465351e-39
-720.8198962 -398.3924179 -1325 7.117465351e-39
-726.3609446 -405.3079089 -1348 7.117465351e-39
-725.7937096 -408.9159912 -1360 7.117465351e-39
-723.5168559 -411.6220529 -1369 7.117465351e-39
-726.3802004 -417.3348498 -1388 7.117465351e-39
-722.3109824 -419.138891 -1394 7.117465351e-39
-718.1797055 -420.9429321 -1400 7.117465351e-39
-712.4629278 -421.8449527 -1403 7.117465351e-39
-708.7256898 -423.9496673 -1410 7.117465351e-39
-702.9261667 -424.8516879 -1413 7.117465351e-39
-695.6187166 -424.8516879 -1413 7.117465351e-39
-689.7726493 -425.7537085 -1416 7.117465351e-39
-683.8955524 -426.655729 -1419 7.117465351e-39
-676.5570728 -426.655729 -1419 7.117465351e-39
-671.1050444 -427.8584231 -1423 7.117465351e-39
-667.9438496 -430.5644848 -1432 7.117465351e-39
-665.1508359 -433.5712201 -1442 7.117465351e-39
-660.8860963 -435.6759347 -1449 7.117465351e-39
-666.0184105 -444.0947934 -1477 7.117465351e-39
-667.7408317 -450.4089373 -1498 7.117465351e-39
-669.6866297 -457.0237548 -1520 7.117465351e-39
-687.0796999 -474.4628192 -1578 7.117465351e-39
-693.1168628 -484.3850454 -1611 7.117465351e-39
-699.2377696 -494.6079452 -1645 7.117465351e-39
-721.3829903 -516.5571124 -1718 7.117465351e-39
-1065.996079 -398.5161761 -1303 7.117465351e-39
-1042.185816 -392.0934288 -1282 7.117465351e-39
-1029.093717 -389.6466679 -1274 7.117465351e-39
-1017.689552 -387.8115973 -1268 7.117465351e-39
-1009.537136 -387.1999071 -1266 7.117465351e-39
-1002.989909 -387.1999071 -1266 7.117465351e-39
-998.016841 -387.8115973 -1268 7.117465351e-39
-993.8049946 -388.7291326 -1271 7.117465351e-39
-991.1155914 -390.2583582 -1276 7.117465351e-39
-989.1460371 -392.0934288 -1282 7.117465351e-39
-994.7783556 -396.9869505 -1298 7.117465351e-39
-994.1554107 -399.4337114 -1306 7.117465351e-39
-993.4497203 -401.8804723 -1314 7.117465351e-39
-994.9139199 -405.2447685 -1325 7.117465351e-39
-992.5358104 -407.0798391 -1331 7.117465351e-39
-987.874036 -407.9973744 -1334 7.117465351e-39
-978.7690502 -407.0798391 -1331 7.117465351e-39
-971.8856701 -407.0798391 -1331 7.117465351e-39
-962.8272284 -406.1623038 -1328 7.117465351e-39
-952.3601185 -404.6330782 -1323 7.117465351e-39
-931.2245644 -398.5161761 -1303 7.117465351e-39
-915.262414 -394.5401897 -1290 7.117465351e-39
-900.8433931 -391.1758935 -1279 7.117465351e-39
-885.139822 -387.1999071 -1266 7.117465351e-39
-861.2428201 -379.5537794 -1241 7.117465351e-39
-845.8702304 -375.577793 -1228 7.117465351e-39
-833.3666932 -372.825187 -1219 7.117465351e-39
-825.027102 -371.9076517 -1216 7.117465351e-39
-814.0253216 -369.7667359 -1209 7.117465351e-39
-806.4366088 -369.1550457 -1207 7.117465351e-39
-800.1945053 -369.1550457 -1207 7.117465351e-39
-793.9524018 -369.1550457 -1207 7.117465351e-39
-787.7102983 -369.1550457 -1207 7.117465351e-39
-781.4681947 -369.1550457 -1207 7.117465351e-39
-776.5106415 -369.7667359 -1209 7.117465351e-39
-770.2581948 -369.7667359 -1209 7.117465351e-39
-765.2696121 -370.3784261 -1211 7.117465351e-39
-762.1406241 -371.9076517 -1216 7.117465351e-39
-757.7167427 -372.825187 -1219 7.117465351e-39
-752.6454146 -373.4368772 -1221 7.117465351e-39
-752.4433651 -376.4953283 -1231 7.117465351e-39
-749.1075138 -378.0245538 -1236 7.117465351e-39
-743.9172392 -378.636244 -1238 7.117465351e-39
-740.4934708 -380.1654696 -1243 7.117465351e-39
-738.7896645 -382.6122304 -1251 7.117465351e-39
-733.4907867 -383.2239207 -1253 7.117465351e-39
-728.7514385 -384.141456 -1256 7.117465351e-39
-726.281239 -386.2823717 -1263 7.117465351e-39
-722.5988915 -387.8115973 -1268 7.117465351e-39
-719.4295294 -389.6466679 -1274 7.117465351e-39
-715.6385785 -391.1758935 -1279 7.117465351e-39
-717.8938518 -396.0694152 -1295 7.117465351e-39
-717.2377014 -399.4337114 -1306 7.117465351e-39
-718.0998212 -403.7155429 -1320 7.117465351e-39
-724.7444143 -411.3616706 -1345 7.117465351e-39
-724.1926941 -415.0318119 -1357 7.117465351e-39
-723.5168559 -418.7019532 -1369 7.117465351e-39
-727.9501864 -425.4305456 -1391 7.117465351e-39
-725.419925 -428.1831516 -1400 7.117465351e-39
-721.2576185 -430.0182222 -1406 7.117465351e-39
-716.0176252 -431.2416027 -1410 7.117465351e-39
-713.2494708 -433.9942086 -1419 7.117465351e-39
-707.9008742 -435.2175891 -1423 7.117465351e-39
-700.5417083 -435.2175891 -1423 7.117465351e-39
-696.1053078 -437.0526597 -1429 7.117465351e-39
-688.7151123 -437.0526597 -1429 7.117465351e-39
-681.3249168 -437.0526597 -1429 7.117465351e-39
-673.9347214 -437.0526597 -1429 7.117465351e-39
-669.8096145 -439.1935755 -1436 7.117465351e-39
-662.383218 -439.1935755 -1436 7.117465351e-39
-654.9568214 -439.1935755 -1436 7.117465351e-39
-648.8832043 -440.1111108 -1439 7.117465351e-39
-650.3563909 -446.228013 -1459 7.117465351e-39
-648.9792142 -450.5098445 -1473 7.117465351e-39
-649.19888 -456.0150564 -1491 7.117465351e-39
-663.8605334 -471.9190021 -1543 7.117465351e-39
-670.7581765 -482.6235809 -1578 7.117465351e-39
-696.1891723 -507.0911895 -1658 7.117465351e-39
-700.885896 -516.878233 -1690 7.117465351e-39
-703.613423 -525.441896 -1718 7.117465351e-39
-1068.450406 -406.1878019 -1306 7.117465351e-39
-1043.811691 -399.3454346 -1284 7.117465351e-39
-1029.093717 -396.2352677 -1274 7.117465351e-39
-1017.689552 -394.3691675 -1268 7.117465351e-39
-1009.537136 -393.7471341 -1266 7.117465351e-39
-1000.613156 -392.814084 -1263 7.117465351e-39
-996.4426819 -393.7471341 -1266 7.117465351e-39
-989.8954548 -393.7471341 -1266 7.117465351e-39
-987.2319096 -395.3022176 -1271 7.117465351e-39
-982.9735189 -396.2352677 -1274 7.117465351e-39
-986.3480306 -400.2784847 -1287 7.117465351e-39
-985.781973 -402.7666182 -1295 7.117465351e-39
-985.1331701 -405.2547518 -1303 7.117465351e-39
-986.6542572 -408.6759354 -1314 7.117465351e-39
-982.0959145 -409.6089855 -1317 7.117465351e-39
-977.5065424 -410.5420356 -1320 7.117465351e-39
-970.6800497 -410.5420356 -1320 7.117465351e-39
-961.6629808 -409.6089855 -1317 7.117465351e-39
-952.6769414 -408.6759354 -1314 7.117465351e-39
-942.2822337 -407.120852 -1309 7.117465351e-39
-923.3631138 -401.8335682 -1292 7.117465351e-39
-909.586368 -398.7234012 -1282 7.117465351e-39
-895.2087198 -395.3022176 -1271 7.117465351e-39
-881.6440091 -392.1920507 -1261 7.117465351e-39
-859.1608471 -385.0386667 -1238 7.117465351e-39
-845.8702304 -381.9284998 -1228 7.117465351e-39
-833.3666932 -379.1293495 -1219 7.117465351e-39
-825.027102 -378.1962994 -1216 7.117465351e-39
-814.0253216 -376.0191826 -1209 7.117465351e-39
-806.4366088 -375.3971492 -1207 7.117465351e-39
-800.1945053 -375.3971492 -1207 7.117465351e-39
-791.9790321 -374.4640991 -1204 7.117465351e-39
-785.7524433 -374.4640991 -1204 7.117465351e-39
-781.4681947 -375.3971492 -1207 7.117465351e-39
-775.2260912 -375.3971492 -1207 7.117465351e-39
-770.2581948 -376.0191826 -1209 7.117465351e-39
-764.0057481 -376.0191826 -1209 7.117465351e-39
-760.8871033 -377.5742661 -1214 7.117465351e-39
-755.8519763 -378.1962994 -1216 7.117465351e-39
-751.4125802 -379.1293495 -1219 7.117465351e-39
-749.387137 -381.3064664 -1226 7.117465351e-39
-746.0771436 -382.8615499 -1231 7.117465351e-39
-742.7154343 -384.4166333 -1236 7.117465351e-39
-739.3020091 -385.9717168 -1241 7.117465351e-39
-735.8368681 -387.5268003 -1246 7.117465351e-39
-730.5638482 -388.1488336 -1248 7.117465351e-39
-727.0107902 -389.7039171 -1253 7.117465351e-39
-723.4060164 -391.2590006 -1258 7.117465351e-39
-719.7495267 -392.814084 -1263 7.117465351e-39
-717.7354253 -395.3022176 -1271 7.117465351e-39
-712.8409296 -396.2352677 -1274 7.117465351e-39
-716.2307773 -401.8335682 -1292 7.117465351e-39
-713.9425818 -404.3217017 -1300 7.117465351e-39
-714.8357311 -408.6759354 -1314 7.117465351e-39
-722.0501971 -416.7623695 -1340 7.117465351e-39
-720.990663 -420.1835531 -1351 7.117465351e-39
-721.9313551 -424.8488035 -1366 7.117465351e-39
-727.9501864 -432.6242208 -1391 7.117465351e-39
-725.419925 -435.4233711 -1400 7.117465351e-39
-723.3095605 -438.533538 -1410 7.117465351e-39
-719.0645087 -440.3996382 -1416 7.117465351e-39
-716.7679672 -443.5098051 -1426 7.117465351e-39
-710.8856987 -444.4428552 -1429 7.117465351e-39
-704.9724007 -445.3759053 -1432 7.117465351e-39
-697.5666905 -445.3759053 -1432 7.117465351e-39
-692.0888042 -446.619972 -1436 7.117465351e-39
-684.6624077 -446.619972 -1436 7.117465351e-39
-677.2360111 -446.619972 -1436 7.117465351e-39
-669.8096145 -446.619972 -1436 7.117465351e-39
-662.383218 -446.619972 -1436 7.117465351e-39
-650.3958408 -443.5098051 -1426 7.117465351e-39
-637.1591158 -439.4665881 -1413 7.117465351e-39
-628.514401 -438.533538 -1410 7.117465351e-39
-621.2224657 -438.533538 -1410 7.117465351e-39
-613.9305303 -438.533538 -1410 7.117465351e-39
-607.9293154 -439.4665881 -1413 7.117465351e-39
-665.9565906 -493.2724761 -1586 7.117465351e-39
-643.2390678 -482.3868918 -1551 7.117465351e-39
-654.8765212 -497.3156931 -1599 7.117465351e-39
-659.9517692 -507.579244 -1632 7.117465351e-39
-1070.904733 -413.8904572 -1309 7.117465351e-39
-1043.811691 -405.9857502 -1284 7.117465351e-39
-1030.709249 -403.456244 -1276 7.117465351e-39
-1017.689552 -400.9267377 -1268 7.117465351e-39
-1009.537136 -400.2943612 -1266 7.117465351e-39
-1000.613156 -399.3457963 -1263 7.117465351e-39
-994.0814433 -399.3457963 -1263 7.117465351e-39
-985.9859151 -398.7134198 -1261 7.117465351e-39
-979.464546 -398.7134198 -1261 7.117465351e-39
-974.4863064 -399.3457963 -1263 7.117465351e-39
-976.3849192 -402.8238674 -1274 7.117465351e-39
-973.6024274 -404.4048088 -1279 7.117465351e-39
-970.7682198 -405.9857502 -1284 7.117465351e-39
-968.6331748 -407.8828799 -1290 7.117465351e-39
-965.690364 -409.4638213 -1295 7.117465351e-39
-961.2147667 -410.4123861 -1298 7.117465351e-39
-950.0898669 -408.5152564 -1292 7.117465351e-39
-941.9477944 -407.8828799 -1290 7.117465351e-39
-933.1013878 -406.934315 -1287 7.117465351e-39
-920.6867661 -404.4048088 -1279 7.117465351e-39
-904.7815031 -400.2943612 -1266 7.117465351e-39
-892.5582301 -397.764855 -1258 7.117465351e-39
-882.5307049 -396.1839136 -1253 7.117465351e-39
-871.1565704 -393.9705956 -1246 7.117465351e-39
-857.7728652 -390.8087128 -1236 7.117465351e-39
-841.0484946 -386.0658886 -1221 7.117465351e-39
-829.9484541 -383.8525707 -1214 7.117465351e-39
-821.6347208 -382.9040058 -1211 7.117465351e-39
-814.0253216 -382.2716293 -1209 7.117465351e-39
-804.4322096 -380.6906879 -1204 7.117465351e-39
-798.2056209 -380.6906879 -1204 7.117465351e-39
-791.9790321 -380.6906879 -1204 7.117465351e-39
-785.7524433 -380.6906879 -1204 7.117465351e-39
-779.5258546 -380.6906879 -1204 7.117465351e-39
-773.2992658 -380.6906879 -1204 7.117465351e-39
-767.072677 -380.6906879 -1204 7.117465351e-39
-762.7418842 -381.6392527 -1207 7.117465351e-39
-757.7533014 -382.2716293 -1209 7.117465351e-39
-752.7440323 -382.9040058 -1211 7.117465351e-39
-748.3304941 -383.8525707 -1214 7.117465351e-39
-745.1084176 -385.4335121 -1219 7.117465351e-39
-743.0467734 -387.64683 -1226 7.117465351e-39
-737.9082146 -388.2792066 -1228 7.117465351e-39
-734.5361622 -389.860148 -1233 7.117465351e-39
-732.8840717 -392.3896542 -1241 7.117465351e-39
-727.6369097 -393.0220308 -1243 7.117465351e-39
-722.9492774 -393.9705956 -1246 7.117465351e-39
-719.3807047 -395.551537 -1251 7.117465351e-39
-716.900162 -397.764855 -1258 7.117465351e-39
-713.2178144 -399.3457963 -1263 7.117465351e-39
-709.483751 -400.9267377 -1268 7.117465351e-39
-711.7959118 -405.9857502 -1284 7.117465351e-39
-709.549089 -408.5152564 -1292 7.117465351e-39
-708.8515659 -411.9933275 -1303 7.117465351e-39
-715.5840759 -419.8980345 -1328 7.117465351e-39
-715.1202727 -423.6922938 -1340 7.117465351e-39
-715.589352 -428.1189297 -1354 7.117465351e-39
-722.7168997 -436.6560133 -1381 7.117465351e-39
-722.3109824 -440.7664609 -1394 7.117465351e-39
-719.718662 -443.6121554 -1403 7.117465351e-39
-717.5410669 -446.7740382 -1413 7.117465351e-39
-718.2758942 -451.8330507 -1429 7.117465351e-39
-712.3781109 -452.7816155 -1432 7.117465351e-39
-706.9415974 -454.0463686 -1436 7.117465351e-39
-700.9765835 -454.9949334 -1439 7.117465351e-39
-693.5346722 -454.9949334 -1439 7.117465351e-39
-686.0927609 -454.9949334 -1439 7.117465351e-39
-680.065688 -455.9434983 -1442 7.117465351e-39
-671.2089383 -454.9949334 -1439 7.117465351e-39
-660.5381394 -452.7816155 -1432 7.117465351e-39
-649.0275466 -449.935921 -1423 7.117465351e-39
-634.0026305 -444.5607202 -1406 7.117465351e-39
-622.7195874 -441.7150257 -1397 7.117465351e-39
-612.8513828 -439.8178961 -1391 7.117465351e-39
-601.3035904 -436.6560133 -1381 7.117465351e-39
-594.161631 -436.6560133 -1381 7.117465351e-39
-595.0959741 -442.6635906 -1400 7.117465351e-39
-633.2625433 -495.1508449 -1566 7.117465351e-39
-656.7014801 -520.1297189 -1645 7.117465351e-39
-1072.540951 -421.3027821 -1311 7.117465351e-39
-1046.250504 -413.5901454 -1287 7.117465351e-39
-1033.132546 -411.0192665 -1279 7.117465351e-39
-1020.097334 -408.4483876 -1271 7.117465351e-39
-1009.537136 -406.8415882 -1266 7.117465351e-39
-1000.613156 -405.8775086 -1263 7.117465351e-39
-992.5072843 -405.2347889 -1261 7.117465351e-39
-985.9859151 -405.2347889 -1261 7.117465351e-39
-979.464546 -405.2347889 -1261 7.117465351e-39
-974.4863064 -405.8775086 -1263 7.117465351e-39
-971.78656 -407.484308 -1268 7.117465351e-39
-967.5126546 -408.4483876 -1271 7.117465351e-39
-964.7198197 -410.0551869 -1276 7.117465351e-39
-962.6261474 -411.9833461 -1282 7.117465351e-39
-957.4875887 -412.6260658 -1284 7.117465351e-39
-950.8472731 -412.6260658 -1284 7.117465351e-39
-942.7362301 -411.9833461 -1282 7.117465351e-39
-931.7251052 -410.0551869 -1276 7.117465351e-39
-921.5010598 -408.4483876 -1271 7.117465351e-39
-911.3287302 -406.8415882 -1266 7.117465351e-39
-895.4906978 -402.66391 -1253 7.117465351e-39
-885.4631726 -401.0571107 -1248 7.117465351e-39
-874.078695 -398.8075916 -1241 7.117465351e-39
-864.1649447 -397.2007923 -1236 7.117465351e-39
-854.3029102 -395.593993 -1231 7.117465351e-39
-839.6708558 -391.7376746 -1219 7.117465351e-39
-829.9484541 -390.1308753 -1214 7.117465351e-39
-820.2777683 -388.524076 -1209 7.117465351e-39
-812.6787123 -387.8813562 -1207 7.117465351e-39
-803.0959435 -386.2745569 -1202 7.117465351e-39
-796.8796979 -386.2745569 -1202 7.117465351e-39
-790.6634523 -386.2745569 -1202 7.117465351e-39
-784.4472067 -386.2745569 -1202 7.117465351e-39
-778.2309611 -386.2745569 -1202 7.117465351e-39
-772.0147155 -386.2745569 -1202 7.117465351e-39
-767.072677 -386.9172767 -1204 7.117465351e-39
-760.8460883 -386.9172767 -1204 7.117465351e-39
-756.4997807 -387.8813562 -1207 7.117465351e-39
-751.5008547 -388.524076 -1209 7.117465351e-39
-746.4812425 -389.1667957 -1211 7.117465351e-39
-743.2746807 -390.773595 -1216 7.117465351e-39
-740.0164031 -392.3803943 -1221 7.117465351e-39
-736.7064097 -393.9871937 -1226 7.117465351e-39
-731.5575078 -394.6299134 -1228 7.117465351e-39
-729.9312753 -397.2007923 -1236 7.117465351e-39
-726.4661343 -398.8075916 -1241 7.117465351e-39
-721.2086291 -399.4503114 -1243 7.117465351e-39
-717.6555711 -401.0571107 -1248 7.117465351e-39
-715.7604161 -403.6279896 -1256 7.117465351e-39
-710.3943077 -404.2707093 -1258 7.117465351e-39
-706.6861021 -405.8775086 -1263 7.117465351e-39
-709.0241208 -411.0192665 -1279 7.117465351e-39
-706.803156 -413.5901454 -1287 7.117465351e-39
-706.1314908 -417.1251039 -1298 7.117465351e-39
-711.2733285 -424.1950209 -1320 7.117465351e-39
-710.3172261 -427.7299794 -1331 7.117465351e-39
-710.8328497 -432.2290175 -1345 7.117465351e-39
-711.7269975 -437.0494155 -1360 7.117465351e-39
-717.6475686 -445.0834121 -1385 7.117465351e-39
-716.640749 -448.9397305 -1397 7.117465351e-39
-713.9863695 -451.8319692 -1406 7.117465351e-39
-716.7679672 -458.2591665 -1426 7.117465351e-39
-710.8856987 -459.2232461 -1429 7.117465351e-39
-706.9415974 -461.4727652 -1436 7.117465351e-39
-700.9765835 -462.4368448 -1439 7.117465351e-39
-693.5346722 -462.4368448 -1439 7.117465351e-39
-687.5231141 -463.4009244 -1442 7.117465351e-39
-680.065688 -463.4009244 -1442 7.117465351e-39
-671.2089383 -462.4368448 -1439 7.117465351e-39
-660.5381394 -460.1873257 -1432 7.117465351e-39
-649.0275466 -457.2950869 -1423 7.117465351e-39
-632.649851 -450.8678897 -1403 7.117465351e-39
-620.045058 -447.0115713 -1391 7.117465351e-39
-607.1237998 -442.833893 -1378 7.117465351e-39
-593.4661793 -438.0134951 -1363 7.117465351e-39
-581.2544268 -434.1571767 -1351 7.117465351e-39
-576.8180263 -436.0853359 -1357 7.117465351e-39
-576.0986395 -440.9057339 -1372 7.117465351e-39
-576.8830067 -447.0115713 -1391 7.117465351e-39
-631.5512106 -508.3913054 -1582 7.117465351e-39
-639.9194023 -521.8884197 -1624 7.117465351e-39
-644.7422412 -532.8146551 -1658 7.117465351e-39
-1074.995278 -429.0623249 -1314 7.117465351e-39
-1050.315191 -421.878633 -1292 7.117465351e-39
-1035.555844 -418.6133185 -1282 7.117465351e-39
-1022.505117 -416.0010669 -1274 7.117465351e-39
-1011.131981 -414.0418782 -1268 7.117465351e-39
-1002.989909 -413.3888153 -1266 7.117465351e-39
-992.5072843 -411.756158 -1261 7.117465351e-39
-985.9859151 -411.756158 -1261 7.117465351e-39
-979.464546 -411.756158 -1261 7.117465351e-39
-972.9431769 -411.756158 -1261 7.117465351e-39
-970.2537737 -413.3888153 -1266 7.117465351e-39
-965.2289898 -414.0418782 -1268 7.117465351e-39
-960.9395696 -415.0214725 -1271 7.117465351e-39
-956.61912 -416.0010669 -1274 7.117465351e-39
-951.5219339 -416.6541298 -1276 7.117465351e-39
-944.922991 -416.6541298 -1276 7.117465351e-39
-936.8533207 -416.0010669 -1274 7.117465351e-39
-922.232608 -412.4092209 -1263 7.117465351e-39
-914.2508547 -411.756158 -1261 7.117465351e-39
-901.9706942 -409.1439064 -1253 7.117465351e-39
-891.9173111 -407.5112492 -1248 7.117465351e-39
-876.9491036 -403.5928718 -1236 7.117465351e-39
-867.0353533 -401.9602146 -1231 7.117465351e-39
-857.1733189 -400.3275573 -1226 7.117465351e-39
-848.7509823 -399.347963 -1223 7.117465351e-39
-836.2267587 -396.4091799 -1214 7.117465351e-39
-827.8975107 -395.4295856 -1211 7.117465351e-39
-818.9208159 -394.1234598 -1207 7.117465351e-39
-810.6587984 -393.1438654 -1204 7.117465351e-39
-803.0959435 -392.4908025 -1202 7.117465351e-39
-796.8796979 -392.4908025 -1202 7.117465351e-39
-790.6634523 -392.4908025 -1202 7.117465351e-39
-784.4472067 -392.4908025 -1202 7.117465351e-39
-778.2309611 -392.4908025 -1202 7.117465351e-39
-772.0147155 -392.4908025 -1202 7.117465351e-39
-765.7984699 -392.4908025 -1202 7.117465351e-39
-760.8460883 -393.1438654 -1204 7.117465351e-39
-756.4997807 -394.1234598 -1207 7.117465351e-39
-751.5008547 -394.7765227 -1209 7.117465351e-39
-746.4812425 -395.4295856 -1211 7.117465351e-39
-742.0521895 -396.4091799 -1214 7.117465351e-39
-740.0164031 -398.6949001 -1221 7.117465351e-39
-734.9037023 -399.347963 -1223 7.117465351e-39
-731.5575078 -400.9806202 -1228 7.117465351e-39
-728.1595974 -402.6132775 -1233 7.117465351e-39
-724.7099712 -404.2459347 -1238 7.117465351e-39
-720.0481968 -405.2255291 -1241 7.117465351e-39
-716.5054821 -406.8581863 -1246 7.117465351e-39
-714.0507973 -409.1439064 -1253 7.117465351e-39
-710.3943077 -410.7765637 -1258 7.117465351e-39
-705.5670426 -411.756158 -1261 7.117465351e-39
-707.3610463 -416.6541298 -1276 7.117465351e-39
-705.1555962 -419.2663814 -1284 7.117465351e-39
-704.4994458 -422.8582273 -1295 7.117465351e-39
-708.0402679 -429.0623249 -1314 7.117465351e-39
-707.1151951 -432.6541708 -1325 7.117465351e-39
-708.1903484 -437.5521426 -1340 7.117465351e-39
-707.0170394 -441.1439885 -1351 7.117465351e-39
-714.020469 -449.9603377 -1378 7.117465351e-39
-713.562836 -454.2052465 -1391 7.117465351e-39
-712.4629278 -458.1236239 -1403 7.117465351e-39
-713.2494708 -463.3481271 -1419 7.117465351e-39
-710.8856987 -466.6134416 -1429 7.117465351e-39
-704.9724007 -467.5930359 -1432 7.117465351e-39
-700.9765835 -469.8787561 -1439 7.117465351e-39
-693.5346722 -469.8787561 -1439 7.117465351e-39
-686.0927609 -469.8787561 -1439 7.117465351e-39
-680.065688 -470.8583504 -1442 7.117465351e-39
-671.2089383 -469.8787561 -1439 7.117465351e-39
-662.383218 -468.8991617 -1436 7.117465351e-39
-650.3958408 -465.6338472 -1426 7.117465351e-39
-631.2970716 -457.1440296 -1400 7.117465351e-39
-618.7077934 -453.2256522 -1388 7.117465351e-39
-605.8020499 -448.9807433 -1375 7.117465351e-39
-590.853709 -443.1031772 -1357 7.117465351e-39
-577.8125057 -438.5317369 -1343 7.117465351e-39
-568.3166553 -436.5725482 -1337 7.117465351e-39
-562.6619366 -437.5521426 -1340 7.117465351e-39
-560.2939914 -441.1439885 -1351 7.117465351e-39
-560.6791479 -447.0215546 -1369 7.117465351e-39
-579.0753269 -467.5930359 -1432 7.117465351e-39
-613.9128256 -508.7359986 -1558 7.117465351e-39
-620.2435915 -520.8176622 -1595 7.117465351e-39
-626.19166 -532.8993259 -1632 7.117465351e-39
-1074.995278 -435.857788 -1314 7.117465351e-39
-1050.315191 -428.5603213 -1292 7.117465351e-39
-1037.171376 -425.906697 -1284 7.117465351e-39
-1022.505117 -422.5896666 -1274 7.117465351e-39
-1011.131981 -420.5994484 -1268 7.117465351e-39
-1002.989909 -419.9360423 -1266 7.117465351e-39
-992.5072843 -418.2775272 -1261 7.117465351e-39
-985.9859151 -418.2775272 -1261 7.117465351e-39
-979.464546 -418.2775272 -1261 7.117465351e-39
-972.9431769 -418.2775272 -1261 7.117465351e-39
-967.9545941 -418.9409332 -1263 7.117465351e-39
-963.7065466 -419.9360423 -1266 7.117465351e-39
-958.6714196 -420.5994484 -1268 7.117465351e-39
-952.1138494 -420.5994484 -1268 7.117465351e-39
-945.5562791 -420.5994484 -1268 7.117465351e-39
-938.9987089 -420.5994484 -1268 7.117465351e-39
-928.7643203 -418.9409332 -1263 7.117465351e-39
-917.1212634 -416.619012 -1256 7.117465351e-39
-907.0006497 -414.9604968 -1251 7.117465351e-39
-894.7722051 -412.3068725 -1243 7.117465351e-39
-883.3411831 -409.9849513 -1236 7.117465351e-39
-869.8540462 -406.6679209 -1226 7.117465351e-39
-859.9920117 -405.0094058 -1221 7.117465351e-39
-852.2791809 -404.3459997 -1219 7.117465351e-39
-843.8930453 -403.3508906 -1216 7.117465351e-39
-834.1603005 -401.6923754 -1211 7.117465351e-39
-826.530215 -401.0289694 -1209 7.117465351e-39
-818.9208159 -400.3655633 -1207 7.117465351e-39
-810.6587984 -399.3704542 -1204 7.117465351e-39
-803.0959435 -398.7070481 -1202 7.117465351e-39
-796.8796979 -398.7070481 -1202 7.117465351e-39
-790.6634523 -398.7070481 -1202 7.117465351e-39
-784.4472067 -398.7070481 -1202 7.117465351e-39
-778.2309611 -398.7070481 -1202 7.117465351e-39
-772.0147155 -398.7070481 -1202 7.117465351e-39
-765.7984699 -398.7070481 -1202 7.117465351e-39
-760.8460883 -399.3704542 -1204 7.117465351e-39
-756.4997807 -400.3655633 -1207 7.117465351e-39
-750.2576771 -400.3655633 -1207 7.117465351e-39
-745.248408 -401.0289694 -1209 7.117465351e-39
-740.2184526 -401.6923754 -1211 7.117465351e-39
-738.8042551 -404.3459997 -1219 7.117465351e-39
-734.9037023 -405.6728118 -1223 7.117465351e-39
-730.3660461 -406.6679209 -1226 7.117465351e-39
-728.1595974 -408.9898422 -1233 7.117465351e-39
-723.5391958 -409.9849513 -1236 7.117465351e-39
-718.3075485 -410.6483574 -1238 7.117465351e-39
-714.7803485 -412.3068725 -1243 7.117465351e-39
-712.9110514 -414.9604968 -1251 7.117465351e-39
-709.2649049 -416.619012 -1256 7.117465351e-39
-705.5670426 -418.2775272 -1261 7.117465351e-39
-704.5892553 -421.5945575 -1271 7.117465351e-39
-702.4096632 -424.2481818 -1279 7.117465351e-39
-700.1473256 -426.9018061 -1287 7.117465351e-39
-699.418773 -430.5505395 -1298 7.117465351e-39
-702.8458203 -436.8528971 -1317 7.117465351e-39
-699.2058439 -438.8431153 -1323 7.117465351e-39
-698.1204519 -442.4918487 -1334 7.117465351e-39
-704.6936414 -451.1161276 -1360 7.117465351e-39
-703.8161114 -455.0965641 -1372 7.117465351e-39
-703.3222772 -459.4087035 -1385 7.117465351e-39
-706.7151205 -466.3744673 -1406 7.117465351e-39
-704.418579 -469.6914976 -1416 7.117465351e-39
-702.0186057 -473.008528 -1426 7.117465351e-39
-697.5666905 -474.9987462 -1432 7.117465351e-39
-692.0888042 -476.3255583 -1436 7.117465351e-39
-686.0927609 -477.3206674 -1439 7.117465351e-39
-678.6508496 -477.3206674 -1439 7.117465351e-39
-671.2089383 -477.3206674 -1439 7.117465351e-39
-662.383218 -476.3255583 -1436 7.117465351e-39
-651.764135 -474.0036371 -1429 7.117465351e-39
-634.0026305 -466.3744673 -1406 7.117465351e-39
-621.3823227 -462.3940308 -1394 7.117465351e-39
-605.8020499 -456.0916732 -1375 7.117465351e-39
-593.4661793 -452.1112367 -1363 7.117465351e-39
-578.672986 -446.1405821 -1345 7.117465351e-39
-563.2158326 -439.5065214 -1325 7.117465351e-39
-551.7446154 -435.857788 -1314 7.117465351e-39
-543.7049761 -434.8626789 -1311 7.117465351e-39
-538.1536891 -435.857788 -1314 7.117465351e-39
-535.8064303 -439.5065214 -1325 7.117465351e-39
-546.5193472 -454.101455 -1369 7.117465351e-39
-551.6546572 -464.384249 -1400 7.117465351e-39
-595.7449418 -508.1690497 -1532 7.117465351e-39
-602.4025161 -520.773765 -1570 7.117465351e-39
-582.5488743 -510.4909709 -1539 7.117465351e-39
-1074.995278 -442.6532512 -1314 7.117465351e-39
-1050.315191 -435.2420095 -1292 7.117465351e-39
-1035.555844 -431.8732633 -1282 7.117465351e-39
-1020.097334 -428.1676425 -1271 7.117465351e-39
-1009.537136 -426.4832694 -1266 7.117465351e-39
-1000.613156 -425.4726455 -1263 7.117465351e-39
-992.5072843 -424.7988963 -1261 7.117465351e-39
-985.9859151 -424.7988963 -1261 7.117465351e-39
-979.464546 -424.7988963 -1261 7.117465351e-39
-972.9431769 -424.7988963 -1261 7.117465351e-39
-966.4218077 -424.7988963 -1261 7.117465351e-39
-959.9004386 -424.7988963 -1261 7.117465351e-39
-954.8911695 -425.4726455 -1263 7.117465351e-39
-948.3594572 -425.4726455 -1263 7.117465351e-39
-940.3363312 -424.7988963 -1261 7.117465351e-39
-931.5933563 -423.7882724 -1258 7.117465351e-39
-921.4106836 -422.1038993 -1253 7.117465351e-39
-907.6287662 -418.7351531 -1243 7.117465351e-39
-897.5753831 -417.05078 -1238 7.117465351e-39
-886.134018 -414.6926577 -1231 7.117465351e-39
-876.1944098 -413.0082846 -1226 7.117465351e-39
-861.3399772 -408.9657891 -1214 7.117465351e-39
-852.9486701 -407.9551653 -1211 7.117465351e-39
-845.2875551 -407.281416 -1209 7.117465351e-39
-837.6471264 -406.6076668 -1207 7.117465351e-39
-829.3385647 -405.5970429 -1204 7.117465351e-39
-823.1119759 -405.5970429 -1204 7.117465351e-39
-815.5284347 -404.9232937 -1202 7.117465351e-39
-809.3121891 -404.9232937 -1202 7.117465351e-39
-801.7596774 -404.2495445 -1200 7.117465351e-39
-795.5537749 -404.2495445 -1200 7.117465351e-39
-789.3478725 -404.2495445 -1200 7.117465351e-39
-783.1419701 -404.2495445 -1200 7.117465351e-39
-778.2309611 -404.9232937 -1202 7.117465351e-39
-772.0147155 -404.9232937 -1202 7.117465351e-39
-765.7984699 -404.9232937 -1202 7.117465351e-39
-760.8460883 -405.5970429 -1204 7.117465351e-39
-754.6194995 -405.5970429 -1204 7.117465351e-39
-750.2576771 -406.6076668 -1207 7.117465351e-39
-744.0155736 -406.6076668 -1207 7.117465351e-39
-738.9959614 -407.281416 -1209 7.117465351e-39
-736.9860329 -409.6395384 -1216 7.117465351e-39
-732.5000925 -410.6501622 -1219 7.117465351e-39
-727.3873917 -411.3239115 -1221 7.117465351e-39
-725.206801 -413.6820338 -1228 7.117465351e-39
-720.6122573 -414.6926577 -1231 7.117465351e-39
-717.1471163 -416.3770308 -1236 7.117465351e-39
-711.9051258 -417.05078 -1238 7.117465351e-39
-710.0616867 -419.745777 -1246 7.117465351e-39
-704.7472941 -420.4195262 -1248 7.117465351e-39
-701.0908044 -422.1038993 -1253 7.117465351e-39
-701.8174644 -426.4832694 -1266 7.117465351e-39
-698.0161704 -428.1676425 -1271 7.117465351e-39
-694.1631605 -429.8520156 -1276 7.117465351e-39
-691.874965 -432.5470126 -1284 7.117465351e-39
-695.3744145 -438.9476304 -1303 7.117465351e-39
-692.8638408 -441.6426273 -1311 7.117465351e-39
-693.4104939 -446.358872 -1325 7.117465351e-39
-700.0302276 -455.1176121 -1351 7.117465351e-39
-699.1992418 -459.1601076 -1363 7.117465351e-39
-699.7675798 -464.2132269 -1378 7.117465351e-39
-703.6992665 -471.6244685 -1400 7.117465351e-39
-701.4337545 -474.9932147 -1410 7.117465351e-39
-698.5725116 -478.0250863 -1419 7.117465351e-39
-696.1053078 -481.3938325 -1429 7.117465351e-39
-690.1609803 -482.4044564 -1432 7.117465351e-39
-684.6624077 -483.7519549 -1436 7.117465351e-39
-678.6508496 -484.7625787 -1439 7.117465351e-39
-671.2089383 -484.7625787 -1439 7.117465351e-39
-663.7670269 -484.7625787 -1439 7.117465351e-39
-656.3251156 -484.7625787 -1439 7.117465351e-39
-641.6683806 -479.3725848 -1423 7.117465351e-39
-629.8516657 -476.0038386 -1413 7.117465351e-39
-615.4948827 -470.6138447 -1397 7.117465351e-39
-601.3035904 -465.2238507 -1381 7.117465351e-39
-586.4173085 -459.1601076 -1363 7.117465351e-39
-565.766244 -448.3801197 -1331 7.117465351e-39
-554.2639972 -444.6744989 -1320 7.117465351e-39
-543.7049761 -441.6426273 -1311 7.117465351e-39
-536.1059201 -440.9688781 -1309 7.117465351e-39
-530.1450793 -441.6426273 -1311 7.117465351e-39
-534.9422391 -451.4119913 -1340 7.117465351e-39
-535.8930955 -458.1494837 -1360 7.117465351e-39
-539.7480282 -467.5819731 -1388 7.117465351e-39
-572.7072429 -509.6913006 -1513 7.117465351e-39
-574.5898044 -518.4500408 -1539 7.117465351e-39
-573.6261757 -524.8506586 -1558 7.117465351e-39
-1074.995278 -449.4487143 -1314 7.117465351e-39
-1059.257503 -445.6862061 -1303 7.117465351e-39
-1035.555844 -438.5032358 -1282 7.117465351e-39
-1020.097334 -434.7407275 -1271 7.117465351e-39
-1007.144868 -432.0043578 -1263 7.117465351e-39
-999.0286534 -431.3202654 -1261 7.117465351e-39
-992.5072843 -431.3202654 -1261 7.117465351e-39
-983.6401913 -430.2941268 -1258 7.117465351e-39
-977.1343369 -430.2941268 -1258 7.117465351e-39
-970.6284826 -430.2941268 -1258 7.117465351e-39
-964.1226282 -430.2941268 -1258 7.117465351e-39
-959.9004386 -431.3202654 -1261 7.117465351e-39
-953.3790695 -431.3202654 -1261 7.117465351e-39
-946.8577004 -431.3202654 -1261 7.117465351e-39
-938.0992107 -430.2941268 -1258 7.117465351e-39
-930.1122858 -429.6100344 -1256 7.117465351e-39
-919.9399562 -427.8998034 -1251 7.117465351e-39
-906.1683821 -424.4793413 -1241 7.117465351e-39
-896.1253421 -422.7691103 -1236 7.117465351e-39
-883.9744713 -420.0327406 -1228 7.117465351e-39
-874.0503778 -418.3225096 -1223 7.117465351e-39
-861.3399772 -415.2440938 -1214 7.117465351e-39
-851.5400018 -413.5338627 -1209 7.117465351e-39
-843.8892299 -412.8497703 -1207 7.117465351e-39
-835.5651534 -411.8236317 -1204 7.117465351e-39
-827.9609259 -411.1395393 -1202 7.117465351e-39
-821.7446803 -411.1395393 -1202 7.117465351e-39
-815.5284347 -411.1395393 -1202 7.117465351e-39
-807.9655798 -410.4554469 -1200 7.117465351e-39
-801.7596774 -410.4554469 -1200 7.117465351e-39
-795.5537749 -410.4554469 -1200 7.117465351e-39
-789.3478725 -410.4554469 -1200 7.117465351e-39
-783.1419701 -410.4554469 -1200 7.117465351e-39
-778.2309611 -411.1395393 -1202 7.117465351e-39
-772.0147155 -411.1395393 -1202 7.117465351e-39
-765.7984699 -411.1395393 -1202 7.117465351e-39
-760.8460883 -411.8236317 -1204 7.117465351e-39
-754.6194995 -411.8236317 -1204 7.117465351e-39
-750.2576771 -412.8497703 -1207 7.117465351e-39
-744.0155736 -412.8497703 -1207 7.117465351e-39
-738.9959614 -413.5338627 -1209 7.117465351e-39
-735.7738849 -415.2440938 -1214 7.117465351e-39
-730.6973852 -415.9281862 -1216 7.117465351e-39
-726.19593 -416.9543248 -1219 7.117465351e-39
-724.0256824 -419.3486482 -1226 7.117465351e-39
-720.6122573 -421.0588793 -1231 7.117465351e-39
-715.4064679 -421.7429717 -1233 7.117465351e-39
-711.9051258 -423.4532027 -1238 7.117465351e-39
-708.3520679 -425.1634337 -1243 7.117465351e-39
-704.7472941 -426.8736648 -1248 7.117465351e-39
-699.9717449 -427.8998034 -1251 7.117465351e-39
-699.0456735 -431.3202654 -1261 7.117465351e-39
-695.2702374 -433.0304965 -1266 7.117465351e-39
-691.4430854 -434.7407275 -1271 7.117465351e-39
-689.1807478 -437.4770971 -1279 7.117465351e-39
-691.1050397 -442.9498364 -1295 7.117465351e-39
-690.2213395 -446.7123447 -1306 7.117465351e-39
-689.2238645 -450.474853 -1317 7.117465351e-39
-695.8849709 -459.3680543 -1343 7.117465351e-39
-694.5823723 -463.1305626 -1354 7.117465351e-39
-695.1972545 -468.2612557 -1369 7.117465351e-39
-700.6834125 -476.8124108 -1394 7.117465351e-39
-697.9514593 -479.8908266 -1403 7.117465351e-39
-695.6187166 -483.3112887 -1413 7.117465351e-39
-694.643925 -487.7578894 -1426 7.117465351e-39
-688.7151123 -488.784028 -1429 7.117465351e-39
-682.75527 -489.8101666 -1432 7.117465351e-39
-677.2360111 -491.1783514 -1436 7.117465351e-39
-671.2089383 -492.2044901 -1439 7.117465351e-39
-665.1508359 -493.2306287 -1442 7.117465351e-39
-657.6934098 -493.2306287 -1442 7.117465351e-39
-645.7267189 -489.8101666 -1432 7.117465351e-39
-634.3092147 -486.7317508 -1423 7.117465351e-39
-622.5442156 -483.3112887 -1413 7.117465351e-39
-608.2701779 -477.8385494 -1397 7.117465351e-39
-586.4173085 -466.2089784 -1363 7.117465351e-39
-571.7172037 -460.0521467 -1345 7.117465351e-39
-558.8828639 -455.2634998 -1331 7.117465351e-39
-548.6816807 -452.5271302 -1323 7.117465351e-39
-538.1536891 -449.4487143 -1314 7.117465351e-39
-529.3363149 -447.7384833 -1309 7.117465351e-39
-528.1556584 -452.5271302 -1323 7.117465351e-39
-526.8301976 -457.3157771 -1337 7.117465351e-39
-526.5265347 -463.1305626 -1354 7.117465351e-39
-538.3253058 -479.8908266 -1403 7.117465351e-39
-542.0467758 -489.8101666 -1432 7.117465351e-39
-555.5853011 -516.1477245 -1509 7.117465351e-39
-556.130598 -524.0147872 -1532 7.117465351e-39
-1074.995278 -456.2441775 -1314 7.117465351e-39
-1059.257503 -452.4247818 -1303 7.117465351e-39
-1033.132546 -444.0915548 -1279 7.117465351e-39
-1017.689552 -440.2721591 -1268 7.117465351e-39
-1005.550023 -437.8416346 -1261 7.117465351e-39
-999.0286534 -437.8416346 -1261 7.117465351e-39
-990.1460457 -436.7999812 -1258 7.117465351e-39
-983.6401913 -436.7999812 -1258 7.117465351e-39
-975.5808642 -436.1055456 -1256 7.117465351e-39
-969.085353 -436.1055456 -1256 7.117465351e-39
-962.5898418 -436.1055456 -1256 7.117465351e-39
-957.6167738 -436.7999812 -1258 7.117465351e-39
-951.1109194 -436.7999812 -1258 7.117465351e-39
-944.6050651 -436.7999812 -1258 7.117465351e-39
-936.607797 -436.1055456 -1256 7.117465351e-39
-927.89068 -435.0638922 -1253 7.117465351e-39
-919.9399562 -434.3694566 -1251 7.117465351e-39
-906.1683821 -430.8972787 -1241 7.117465351e-39
-893.9502806 -428.1195364 -1233 7.117465351e-39
-883.9744713 -426.3834475 -1228 7.117465351e-39
-872.6210232 -423.9529229 -1221 7.117465351e-39
-859.21146 -420.480745 -1211 7.117465351e-39
-850.1313335 -419.0918738 -1207 7.117465351e-39
-841.7917422 -418.0502205 -1204 7.117465351e-39
-834.1771715 -417.3557849 -1202 7.117465351e-39
-826.5832871 -416.6613493 -1200 7.117465351e-39
-820.3773846 -416.6613493 -1200 7.117465351e-39
-814.1714822 -416.6613493 -1200 7.117465351e-39
-807.9655798 -416.6613493 -1200 7.117465351e-39
-801.7596774 -416.6613493 -1200 7.117465351e-39
-795.5537749 -416.6613493 -1200 7.117465351e-39
-789.3478725 -416.6613493 -1200 7.117465351e-39
-784.4472067 -417.3557849 -1202 7.117465351e-39
-778.2309611 -417.3557849 -1202 7.117465351e-39
-772.0147155 -417.3557849 -1202 7.117465351e-39
-767.072677 -418.0502205 -1204 7.117465351e-39
-760.8460883 -418.0502205 -1204 7.117465351e-39
-754.6194995 -418.0502205 -1204 7.117465351e-39
-750.2576771 -419.0918738 -1207 7.117465351e-39
-744.0155736 -419.0918738 -1207 7.117465351e-39
-738.9959614 -419.7863094 -1209 7.117465351e-39
-735.7738849 -421.5223984 -1214 7.117465351e-39
-729.4955802 -421.5223984 -1214 7.117465351e-39
-726.19593 -423.2584873 -1219 7.117465351e-39
-722.2540046 -424.6473585 -1223 7.117465351e-39
-718.8560942 -426.3834475 -1228 7.117465351e-39
-714.2460357 -427.4251008 -1231 7.117465351e-39
-710.7550368 -429.1611898 -1236 7.117465351e-39
-708.3520679 -431.5917143 -1243 7.117465351e-39
-703.6178914 -432.6333677 -1246 7.117465351e-39
-699.9717449 -434.3694566 -1251 7.117465351e-39
-697.3825989 -436.7999812 -1258 7.117465351e-39
-693.6226775 -438.5360701 -1263 7.117465351e-39
-689.8110403 -440.2721591 -1268 7.117465351e-39
-687.5642175 -443.0499014 -1276 7.117465351e-39
-689.5040242 -448.6053861 -1292 7.117465351e-39
-687.050338 -451.3831284 -1300 7.117465351e-39
-686.0838924 -455.2025241 -1311 7.117465351e-39
-691.2215571 -463.1885333 -1334 7.117465351e-39
-691.5044593 -468.0495824 -1348 7.117465351e-39
-690.6269293 -472.2161959 -1360 7.117465351e-39
-696.1596315 -480.8966407 -1385 7.117465351e-39
-694.9666348 -485.0632541 -1397 7.117465351e-39
-692.1726225 -488.1882143 -1406 7.117465351e-39
-688.3112665 -490.6187388 -1413 7.117465351e-39
-687.2692443 -495.1325701 -1426 7.117465351e-39
-681.3249168 -496.1742235 -1429 7.117465351e-39
-675.3495598 -497.2158768 -1432 7.117465351e-39
-671.2089383 -499.6464014 -1439 7.117465351e-39
-665.1508359 -500.6880547 -1442 7.117465351e-39
-659.5178021 -502.0769259 -1446 7.117465351e-39
-648.8832043 -499.6464014 -1439 7.117465351e-39
-640.1040283 -498.604748 -1436 7.117465351e-39
-629.5935486 -496.1742235 -1429 7.117465351e-39
-617.8492359 -492.7020456 -1419 7.117465351e-39
-597.1733119 -481.938294 -1388 7.117465351e-39
-580.6436433 -474.2995026 -1366 7.117465351e-39
-566.0211123 -468.0495824 -1348 7.117465351e-39
-554.4878361 -464.2301867 -1337 7.117465351e-39
-542.6587809 -460.0635732 -1325 7.117465351e-39
-530.1450793 -455.2025241 -1311 7.117465351e-39
-523.3651309 -455.2025241 -1311 7.117465351e-39
-520.1315339 -458.3274842 -1320 7.117465351e-39
-518.7491856 -463.1885333 -1334 7.117465351e-39
-524.1285586 -474.2995026 -1366 7.117465351e-39
-526.5272801 -482.9799474 -1391 7.117465351e-39
-527.5473643 -490.6187388 -1413 7.117465351e-39
-537.1762454 -506.5907572 -1459 7.117465351e-39
-538.7061406 -515.271202 -1484 7.117465351e-39
-537.4725909 -521.5211222 -1502 7.117465351e-39
-1072.540951 -461.9824725 -1311 7.117465351e-39
-1056.818691 -458.1061894 -1300 7.117465351e-39
-1033.132546 -450.7060125 -1279 7.117465351e-39
-1016.084363 -446.1249506 -1266 7.117465351e-39
-1003.157754 -443.3058356 -1258 7.117465351e-39
-996.6519001 -443.3058356 -1258 7.117465351e-39
-988.5718866 -442.6010568 -1256 7.117465351e-39
-982.0763754 -442.6010568 -1256 7.117465351e-39
-973.2506551 -441.5438887 -1253 7.117465351e-39
-966.7706587 -441.5438887 -1253 7.117465351e-39
-960.2906623 -441.5438887 -1253 7.117465351e-39
-956.0943306 -442.6010568 -1256 7.117465351e-39
-949.5988194 -442.6010568 -1256 7.117465351e-39
-943.1033082 -442.6010568 -1256 7.117465351e-39
-936.607797 -442.6010568 -1256 7.117465351e-39
-927.89068 -441.5438887 -1253 7.117465351e-39
-917.7338652 -439.7819418 -1248 7.117465351e-39
-903.9778058 -436.258048 -1238 7.117465351e-39
-893.9502806 -434.4961011 -1233 7.117465351e-39
-883.9744713 -432.7341543 -1228 7.117465351e-39
-872.6210232 -430.2674286 -1221 7.117465351e-39
-859.21146 -426.7435349 -1211 7.117465351e-39
-850.1313335 -425.3339774 -1207 7.117465351e-39
-840.3934171 -423.5720305 -1202 7.117465351e-39
-834.1771715 -423.5720305 -1202 7.117465351e-39
-826.5832871 -422.8672517 -1200 7.117465351e-39
-820.3773846 -422.8672517 -1200 7.117465351e-39
-814.1714822 -422.8672517 -1200 7.117465351e-39
-807.9655798 -422.8672517 -1200 7.117465351e-39
-801.7596774 -422.8672517 -1200 7.117465351e-39
-795.5537749 -422.8672517 -1200 7.117465351e-39
-790.6634523 -423.5720305 -1202 7.117465351e-39
-784.4472067 -423.5720305 -1202 7.117465351e-39
-778.2309611 -423.5720305 -1202 7.117465351e-39
-773.2992658 -424.2768092 -1204 7.117465351e-39
-767.072677 -424.2768092 -1204 7.117465351e-39
-760.8460883 -424.2768092 -1204 7.117465351e-39
-754.6194995 -424.2768092 -1204 7.117465351e-39
-750.2576771 -425.3339774 -1207 7.117465351e-39
-744.0155736 -425.3339774 -1207 7.117465351e-39
-738.9959614 -426.0387561 -1209 7.117465351e-39
-733.9556627 -426.7435349 -1211 7.117465351e-39
-729.4955802 -427.800703 -1214 7.117465351e-39
-724.4087374 -428.5054817 -1216 7.117465351e-39
-721.072886 -430.2674286 -1221 7.117465351e-39
-717.6853188 -432.0293755 -1226 7.117465351e-39
-712.5053874 -432.7341543 -1228 7.117465351e-39
-709.0299032 -434.4961011 -1233 7.117465351e-39
-705.5027032 -436.258048 -1238 7.117465351e-39
-701.9237873 -438.0199949 -1243 7.117465351e-39
-697.174096 -439.077163 -1246 7.117465351e-39
-691.839017 -439.7819418 -1248 7.117465351e-39
-689.7783713 -442.6010568 -1256 7.117465351e-39
-686.0029352 -444.3630037 -1261 7.117465351e-39
-682.1757832 -446.1249506 -1266 7.117465351e-39
-685.2346494 -452.4679593 -1284 7.117465351e-39
-682.8223359 -455.2870744 -1292 7.117465351e-39
-681.897263 -459.1633575 -1303 7.117465351e-39
-686.5581433 -466.9159238 -1325 7.117465351e-39
-685.8616187 -471.1445963 -1337 7.117465351e-39
-684.5331622 -475.0208794 -1348 7.117465351e-39
-689.6252812 -483.4782245 -1372 7.117465351e-39
-688.9969858 -488.0592864 -1385 7.117465351e-39
-686.2650325 -491.2307908 -1394 7.117465351e-39
-683.4399908 -494.4022951 -1403 7.117465351e-39
-683.8955524 -500.0405252 -1419 7.117465351e-39
-678.4642104 -501.4500827 -1423 7.117465351e-39
-673.9347214 -503.5644189 -1429 7.117465351e-39
-669.8096145 -506.0311446 -1436 7.117465351e-39
-665.1508359 -508.1454808 -1442 7.117465351e-39
-660.8860963 -510.6122065 -1449 7.117465351e-39
-653.3924691 -510.6122065 -1449 7.117465351e-39
-645.8988419 -510.6122065 -1449 7.117465351e-39
-637.0834648 -509.5550383 -1446 7.117465351e-39
-626.5574703 -507.0883127 -1439 7.117465351e-39
-606.638595 -496.8690208 -1410 7.117465351e-39
-599.3466596 -496.8690208 -1410 7.117465351e-39
-574.8389486 -482.4210563 -1369 7.117465351e-39
-561.5381675 -477.1352157 -1354 7.117465351e-39
-548.8020878 -472.2017644 -1340 7.117465351e-39
-533.7845192 -465.1539769 -1320 7.117465351e-39
-523.3651309 -461.9824725 -1311 7.117465351e-39
-516.5851825 -461.9824725 -1311 7.117465351e-39
-510.9718365 -463.0396406 -1314 7.117465351e-39
-505.327461 -464.0968088 -1317 7.117465351e-39
-506.0869687 -471.1445963 -1337 7.117465351e-39
-503.2794388 -475.0208794 -1348 7.117465351e-39
-501.8308585 -480.3067201 -1363 7.117465351e-39
-508.2133402 -493.345127 -1400 7.117465351e-39
-507.7720416 -500.0405252 -1419 7.117465351e-39
-506.4288901 -506.0311446 -1436 7.117465351e-39
-505.952389 -513.0789321 -1456 7.117465351e-39
-1072.540951 -468.7624209 -1311 7.117465351e-39
-1055.192816 -464.1141284 -1298 7.117465351e-39
-1029.093717 -455.5326653 -1274 7.117465351e-39
-1013.67658 -451.5994947 -1263 7.117465351e-39
-1001.562909 -449.096568 -1256 7.117465351e-39
-992.6906445 -448.0238851 -1253 7.117465351e-39
-984.636489 -447.3087632 -1251 7.117465351e-39
-975.8211119 -446.2360803 -1248 7.117465351e-39
-967.8135007 -445.5209584 -1246 7.117465351e-39
-961.3697053 -445.5209584 -1246 7.117465351e-39
-954.92591 -445.5209584 -1246 7.117465351e-39
-948.4821146 -445.5209584 -1246 7.117465351e-39
-942.0383193 -445.5209584 -1246 7.117465351e-39
-937.0962808 -446.2360803 -1248 7.117465351e-39
-930.6421422 -446.2360803 -1248 7.117465351e-39
-922.7069332 -445.5209584 -1246 7.117465351e-39
-914.0570468 -444.4482755 -1243 7.117465351e-39
-903.9778058 -442.6604707 -1238 7.117465351e-39
-893.9502806 -440.8726659 -1233 7.117465351e-39
-882.5347735 -438.3697392 -1226 7.117465351e-39
-872.6210232 -436.5819343 -1221 7.117465351e-39
-857.7924485 -432.2912028 -1209 7.117465351e-39
-850.1313335 -431.5760809 -1207 7.117465351e-39
-841.7917422 -430.503398 -1204 7.117465351e-39
-834.1771715 -429.7882761 -1202 7.117465351e-39
-826.5832871 -429.0731541 -1200 7.117465351e-39
-818.3264412 -428.0004713 -1197 7.117465351e-39
-814.1714822 -429.0731541 -1200 7.117465351e-39
-807.9655798 -429.0731541 -1200 7.117465351e-39
-801.7596774 -429.0731541 -1200 7.117465351e-39
-796.8796979 -429.7882761 -1202 7.117465351e-39
-790.6634523 -429.7882761 -1202 7.117465351e-39
-784.4472067 -429.7882761 -1202 7.117465351e-39
-778.2309611 -429.7882761 -1202 7.117465351e-39
-773.2992658 -430.503398 -1204 7.117465351e-39
-767.072677 -430.503398 -1204 7.117465351e-39
-760.8460883 -430.503398 -1204 7.117465351e-39
-756.4997807 -431.5760809 -1207 7.117465351e-39
-750.2576771 -431.5760809 -1207 7.117465351e-39
-744.0155736 -431.5760809 -1207 7.117465351e-39
-738.9959614 -432.2912028 -1209 7.117465351e-39
-733.9556627 -433.0063247 -1211 7.117465351e-39
-729.4955802 -434.0790076 -1214 7.117465351e-39
-724.4087374 -434.7941295 -1216 7.117465351e-39
-719.8917674 -435.8668124 -1219 7.117465351e-39
-715.9291557 -437.2970563 -1223 7.117465351e-39
-712.5053874 -439.0848611 -1228 7.117465351e-39
-707.8798141 -440.157544 -1231 7.117465351e-39
-704.3629573 -441.9453488 -1236 7.117465351e-39
-700.7943846 -443.7331536 -1241 7.117465351e-39
-695.4955067 -444.4482755 -1243 7.117465351e-39
-691.839017 -446.2360803 -1248 7.117465351e-39
-688.1308115 -448.0238851 -1253 7.117465351e-39
-684.3708902 -449.8116899 -1258 7.117465351e-39
-682.1757832 -452.6721776 -1266 7.117465351e-39
-684.1673057 -458.393153 -1282 7.117465351e-39
-681.7653354 -461.2536407 -1290 7.117465351e-39
-680.327277 -464.8292503 -1300 7.117465351e-39
-685.5218291 -473.0531524 -1323 7.117465351e-39
-684.3226622 -476.986323 -1334 7.117465351e-39
-683.0097205 -480.9194936 -1345 7.117465351e-39
-688.1173542 -489.5009567 -1369 7.117465351e-39
-685.5146906 -492.7190053 -1378 7.117465351e-39
-683.3112376 -496.294615 -1388 7.117465351e-39
-680.5172253 -499.5126636 -1397 7.117465351e-39
-681.0038164 -505.233639 -1413 7.117465351e-39
-676.5570728 -507.3790048 -1419 7.117465351e-39
-672.5198829 -509.8819315 -1426 7.117465351e-39
-669.8096145 -513.4575411 -1436 7.117465351e-39
-665.1508359 -515.6029069 -1442 7.117465351e-39
-660.8860963 -518.1058336 -1449 7.117465351e-39
-655.196175 -519.5360775 -1453 7.117465351e-39
-652.1394104 -523.1116871 -1463 7.117465351e-39
-645.895131 -524.18437 -1466 7.117465351e-39
-633.9594696 -520.6087604 -1456 7.117465351e-39
-622.12724 -517.0331507 -1446 7.117465351e-39
-607.4229622 -510.9546144 -1429 7.117465351e-39
-590.3751364 -502.7307123 -1406 7.117465351e-39
-575.6388305 -496.294615 -1388 7.117465351e-39
-552.0785182 -481.9921765 -1348 7.117465351e-39
-538.2327236 -475.9136401 -1331 7.117465351e-39
-528.1556584 -473.0531524 -1323 7.117465351e-39
-518.9494168 -470.9077867 -1317 7.117465351e-39
-512.1384389 -470.9077867 -1317 7.117465351e-39
-503.0252857 -468.7624209 -1311 7.117465351e-39
-500.7876288 -473.0531524 -1323 7.117465351e-39
