# .PCD v0.7 - Point Cloud Data file format
VERSION 0.7
FIELDS x y z rgb
SIZE 4 4 4 4
TYPE F F F F
COUNT 1 1 1 1
WIDTH 887
HEIGHT 1
VIEWPOINT 0 0 0 1 0 0 0
POINTS 887
DATA ascii
668.0725063 -45.40776657 -1344.983698 2.349126937e-38
675.948759 -45.52362366 -1347.80059 2.349126937e-38
683.8560319 -45.63961479 -1350.616731 2.349126937e-38
-171.7112113 -32.03091056 -856.2072682 2.349126937e-38
-168.9119816 -32.1403265 -859.1479123 2.349126937e-38
-165.6499194 -32.21930273 -861.0745114 2.349126937e-38
-165.3536736 -32.51254101 -870.0927843 2.349126937e-38
-162.8570055 -32.65308924 -874.043589 2.349126937e-38
-159.4863726 -32.73253466 -875.9675569 2.349126937e-38
-156.5061917 -32.84273256 -878.9038156 2.349126937e-38
-152.277104 -32.86100813 -878.8013225 2.349126937e-38
-148.8496007 -32.94069929 -880.7239121 2.349126937e-38
-145.7970394 -33.05120998 -883.6584166 2.349126937e-38
-142.3230058 -33.13110222 -885.5798786 2.349126937e-38
-138.44301 -33.18030902 -886.4886739 2.349126937e-38
-135.3128982 -33.29115483 -889.4212989 2.349126937e-38
-132.9016502 -33.46377371 -894.3770019 2.349126937e-38
-129.699158 -33.57493231 -897.3078728 2.349126937e-38
-126.4656455 -33.68622496 -900.2379919 2.349126937e-38
-123.2011128 -33.79765166 -903.1673592 2.349126937e-38
-119.551298 -33.87830352 -905.084561 2.349126937e-38
-49.31702511 -33.6303373 -886.3343376 2.349126937e-38
-45.03623713 -33.64883628 -886.2305916 2.349126937e-38
-41.02182033 -33.69862396 -887.1361291 2.349126937e-38
-36.47466097 -33.68583424 -886.0230994 2.349126937e-38
-32.44990418 -33.7356666 -886.9283864 2.349126937e-38
-28.41480729 -33.78554364 -887.8334228 2.349126937e-38
-24.3693704 -33.83546536 -888.7382086 2.349126937e-38
-20.79463569 -33.94823257 -891.6600581 2.349126937e-38
-16.9535296 -34.02971108 -893.5726239 2.349126937e-38
-12.4012002 -34.01694371 -892.4594689 2.349126937e-38
-8.084221978 -34.03559909 -892.3548458 2.349126937e-38
-3.987084705 -34.08574423 -893.2583786 2.349126937e-38
11.02266939 -33.82620947 -882.8663327 2.349126937e-38
16.08976087 -33.71834724 -878.7322182 2.349126937e-38
21.30948287 -33.57870479 -873.5915765 2.349126937e-38
25.72222137 -33.5653342 -872.4818046 2.349126937e-38
30.30827057 -33.52027276 -870.3650043 2.349126937e-38
35.40908185 -33.38011646 -865.2272446 2.349126937e-38
39.93826063 -33.33480926 -863.1118226 2.349126937e-38
44.27861864 -33.32112588 -862.0038048 2.349126937e-38
48.93457789 -33.24392677 -858.8824822 2.349126937e-38
53.55951694 -33.16659361 -855.7619114 2.349126937e-38
57.84817457 -33.15268681 -854.6551466 2.349126937e-38
62.12649221 -33.13873534 -853.5486323 2.349126937e-38
66.25217923 -33.15656407 -853.4486452 2.349126937e-38
70.51498672 -33.14254556 -852.3425069 2.349126937e-38
74.50355328 -33.19222152 -853.2486709 2.349126937e-38
78.50245993 -33.24194217 -854.1545844 2.349126937e-38
82.51170658 -33.29170749 -855.0602473 2.349126937e-38
86.29841277 -33.40539071 -857.9769596 2.349126937e-38
89.89359841 -33.58312587 -862.9039695 2.349126937e-38
93.96488554 -33.6331593 -863.8081288 2.349126937e-38
97.84465221 -33.74724467 -866.7225858 2.349126937e-38
101.5639188 -33.92551602 -871.6465886 2.349126937e-38
105.6066561 -34.00786587 -873.5542678 2.349126937e-38
109.7554937 -34.05823442 -874.4565477 2.349126937e-38
113.8344213 -34.14074066 -876.3633499 2.349126937e-38
118.0841892 -34.15910559 -876.2603556 2.349126937e-38
122.264047 -34.2096082 -877.1618837 2.349126937e-38
126.5189849 -34.22799547 -877.0587641 2.349126937e-38
130.7739227 -34.24638275 -876.9556445 2.349126937e-38
139.0868789 -34.41206547 -880.76549 2.349126937e-38
143.5387364 -34.30154457 -876.6462858 2.349126937e-38
147.9492336 -34.19084493 -872.528084 2.349126937e-38
152.2509309 -34.14455469 -870.4181751 2.349126937e-38
156.5319481 -34.0981751 -868.3087674 2.349126937e-38
165.0137324 -34.03750889 -865.0947249 2.349126937e-38
169.2509188 -33.95850009 -861.9835514 2.349126937e-38
173.4492155 -33.91176302 -859.8761485 2.349126937e-38
177.6160337 -33.99464907 -861.7808206 2.349126937e-38
181.803532 -34.07762449 -863.6849915 2.349126937e-38
186.0117104 -34.16068926 -865.5886613 2.349126937e-38
190.2277584 -34.21134826 -866.4893123 2.349126937e-38
194.4541466 -34.26205195 -867.3897127 2.349126937e-38
198.7140253 -34.34534014 -869.2921295 2.349126937e-38
202.937943 -34.36359337 -869.1897617 2.349126937e-38
207.12837 -34.34926208 -868.0853775 2.349126937e-38
211.1924749 -34.23706554 -863.9755706 2.349126937e-38
215.302881 -34.18994866 -861.8702977 2.349126937e-38
219.392607 -34.14274242 -859.765526 2.349126937e-38
223.4616528 -34.09544681 -857.6612555 2.349126937e-38
227.3913368 -33.98266939 -853.5547063 2.349126937e-38
231.4731931 -33.96786892 -852.4529534 2.349126937e-38
235.5447094 -33.95302377 -851.351451 2.349126937e-38
239.6058855 -33.93813393 -850.2501993 2.349126937e-38
243.6567216 -33.92319942 -849.1491981 2.349126937e-38
247.5268357 -33.84260436 -846.0469207 2.349126937e-38
251.5466516 -33.82753579 -844.9466713 2.349126937e-38
255.5561275 -33.81242254 -843.8466726 2.349126937e-38
259.6559643 -33.83013956 -843.7473119 2.349126937e-38
263.7558012 -33.84785658 -843.6479512 2.349126937e-38
267.8556381 -33.8655736 -843.5485906 2.349126937e-38
271.9554749 -33.88329062 -843.4492299 2.349126937e-38
276.0553118 -33.90100765 -843.3498693 2.349126937e-38
280.4082512 -33.98469799 -845.2500307 2.349126937e-38
284.6501494 -34.0354687 -846.1500552 2.349126937e-38
288.9023877 -34.0862841 -847.0498291 2.349126937e-38
293.164966 -34.13714417 -847.9493524 2.349126937e-38
297.5851159 -34.22112496 -849.847885 2.349126937e-38
302.0259458 -34.30519512 -851.7459164 2.349126937e-38
306.3298844 -34.35623393 -852.6444373 2.349126937e-38
310.9696461 -34.47360354 -855.5404756 2.349126937e-38
315.1366934 -34.491611 -855.439486 2.349126937e-38
319.4768223 -34.5428062 -856.3371299 2.349126937e-38
323.8272912 -34.59404609 -857.2345232 2.349126937e-38
328.0046786 -34.61209824 -857.133283 2.349126937e-38
332.182066 -34.63015039 -857.0320429 2.349126937e-38
336.1656917 -34.61492542 -855.9326706 2.349126937e-38
340.1389773 -34.59965578 -854.8335489 2.349126937e-38
343.4896175 -34.48437608 -850.7410331 2.349126937e-38
347.4267129 -34.46895005 -849.6427884 2.349126937e-38
351.3534681 -34.45347932 -848.5447944 2.349126937e-38
355.0502715 -34.40457511 -846.4495453 2.349126937e-38
358.9511767 -34.38899268 -845.3521778 2.349126937e-38
363.0716937 -34.40679907 -845.2523159 2.349126937e-38
366.9570887 -34.39114961 -844.1553243 2.349126937e-38
371.0724356 -34.40893365 -844.0555877 2.349126937e-38
375.4332447 -34.46021823 -844.9527304 2.349126937e-38
380.0550258 -34.54507035 -846.8463764 2.349126937e-38
384.6974871 -34.63001184 -848.7395211 2.349126937e-38
389.3606285 -34.71504269 -850.6321648 2.349126937e-38
393.5121657 -34.73298312 -850.5315511 2.349126937e-38
398.4776396 -34.85176027 -853.4196957 2.349126937e-38
402.6446869 -34.86976773 -853.3187062 2.349126937e-38
407.0933864 -34.92143211 -854.2137188 2.349126937e-38
412.1260707 -35.04049969 -857.1002344 2.349126937e-38
416.6057905 -35.09229813 -857.9944953 2.349126937e-38
421.0958503 -35.14414124 -858.8885055 2.349126937e-38
424.689253 -35.09479018 -856.7957623 2.349126937e-38
428.8769804 -35.11288701 -856.6942716 2.349126937e-38
432.7520354 -35.09719288 -855.5975306 2.349126937e-38
436.6167503 -35.08145406 -854.5010401 2.349126937e-38
439.1790749 -34.93032794 -849.4248012 2.349126937e-38
442.0178818 -34.81283641 -845.3446898 2.349126937e-38
445.148681 -34.72904647 -842.2603299 2.349126937e-38
448.9255053 -34.71292785 -841.1659695 2.349126937e-38
451.3172189 -34.56106446 -836.0938654 2.349126937e-38
455.0526829 -34.54476709 -835.0005074 2.349126937e-38
458.0697414 -34.46048565 -831.918904 2.349126937e-38
461.7741852 -34.44405422 -830.8262977 2.349126937e-38
465.468289 -34.42757813 -829.7339421 2.349126937e-38
469.1520528 -34.41105735 -828.641837 2.349126937e-38
473.2001892 -34.42855095 -828.5437293 2.349126937e-38
675.9270925 -52.27062228 -1348.109658 2.349126937e-38
683.8343157 -52.40211193 -1350.926508 2.349126937e-38
-169.9557241 -35.99522303 -852.3402848 2.349126937e-38
-167.1772243 -36.12004808 -855.28214 2.349126937e-38
-164.3677044 -36.24500716 -858.2232434 2.349126937e-38
-164.5137769 -36.62043605 -868.2574265 2.349126937e-38
-162.0275153 -36.78160423 -872.2094285 2.349126937e-38
-158.6672556 -36.87133726 -874.1341203 2.349126937e-38
-155.6974646 -36.99698895 -877.0713395 2.349126937e-38
-151.8846958 -37.05107144 -877.9820003 2.349126937e-38
-148.4623957 -37.14107259 -879.9051885 2.349126937e-38
-145.4150543 -37.2670594 -882.8405283 2.349126937e-38
-142.3366925 -37.39318026 -885.7751163 2.349126937e-38
-138.0714145 -37.41161221 -885.6717461 2.349126937e-38
-134.5663939 -37.50197083 -887.5929296 2.349126937e-38
-132.5405276 -37.73636148 -893.5622179 2.349126937e-38
-126.1149624 -37.98976496 -899.4248784 2.349126937e-38
-66.15650572 -37.79759707 -885.9349974 2.349126937e-38
-62.1731257 -37.85241684 -886.8415234 2.349126937e-38
-53.61154965 -37.88941481 -886.6340313 2.349126937e-38
-49.60748954 -37.94432395 -887.5400561 2.349126937e-38
-45.32153151 -37.96284528 -887.4361848 2.349126937e-38
-41.03557338 -37.9813666 -887.3323134 2.349126937e-38
-36.74961536 -37.99988792 -887.2284421 2.349126937e-38
-32.7197051 -38.05490878 -888.1338404 2.349126937e-38
-28.67945475 -38.10997432 -889.0389881 2.349126937e-38
-25.12027996 -38.23817296 -891.9619235 2.349126937e-38
-21.28954715 -38.3299391 -893.8752132 2.349126937e-38
-17.43813424 -38.42179461 -895.7880018 2.349126937e-38
-13.33584351 -38.47712824 -896.691646 2.349126937e-38
-8.773157418 -38.45923941 -895.5780037 2.349126937e-38
-4.440669054 -38.47796181 -895.4730047 2.349126937e-38
0.3211944813 -38.42332768 -893.3514711 2.349126937e-38
11.00896611 -38.09345365 -883.061807 2.349126937e-38
17.07201125 -37.78120035 -873.8872888 2.349126937e-38
21.68394378 -37.72591832 -871.7693888 2.349126937e-38
26.08635877 -37.70733689 -870.6596308 2.349126937e-38
30.84576845 -37.61508615 -867.5350923 2.349126937e-38
35.93115264 -37.44903205 -862.3965251 2.349126937e-38
40.61818174 -37.35646851 -859.2737408 2.349126937e-38
45.10603351 -37.30065027 -857.1588479 2.349126937e-38
49.57320508 -37.24474267 -855.0444562 2.349126937e-38
54.17751371 -37.15182167 -851.9236766 2.349126937e-38
58.44550784 -37.13265936 -850.8171763 2.349126937e-38
62.70316197 -37.11345235 -849.7109267 2.349126937e-38
66.8081688 -37.13119172 -849.6114407 2.349126937e-38
70.91317572 -37.14893108 -849.5119547 2.349126937e-38
74.88621564 -37.20370617 -850.4187313 2.349126937e-38
78.86959556 -37.25852594 -851.3252574 2.349126937e-38
82.74168856 -37.35047082 -853.2375447 2.349126937e-38
86.63446175 -37.44250507 -855.1493309 2.349126937e-38
90.32534131 -37.60887887 -859.0721386 2.349126937e-38
94.16369802 -37.73828396 -861.9883079 2.349126937e-38
98.03307483 -37.86782312 -864.9037254 2.349126937e-38
101.7419184 -38.07188057 -869.8291621 2.349126937e-38
105.6836757 -38.2017325 -872.7428254 2.349126937e-38
109.74189 -38.29448168 -874.6506021 2.349126937e-38
113.9813178 -38.31280193 -874.5478584 2.349126937e-38
148.2079913 -38.15986084 -865.6938514 2.349126937e-38
152.4397952 -38.14054214 -864.5882281 2.349126937e-38
160.8957791 -38.06426575 -861.3741022 2.349126937e-38
165.109619 -38.00726341 -859.26585 2.349126937e-38
169.3158351 -37.91262209 -856.1547184 2.349126937e-38
177.6161933 -37.98609724 -856.9566212 2.349126937e-38
181.7802621 -38.11690987 -859.8648968 2.349126937e-38
185.9753511 -38.24785656 -862.7724206 2.349126937e-38
190.1886664 -38.34127598 -864.6764383 2.349126937e-38
194.4226618 -38.43478478 -866.5799549 2.349126937e-38
198.6773374 -38.52838295 -868.4829703 2.349126937e-38
202.896085 -38.54661383 -868.3807278 2.349126937e-38
207.0478845 -38.48934338 -866.2739792 2.349126937e-38
211.0244276 -38.28089152 -860.1592208 2.349126937e-38
215.0265584 -38.14776226 -856.0499709 2.349126937e-38
219.0852973 -38.09008965 -853.9454777 2.349126937e-38
223.0692019 -37.99448765 -850.8397338 2.349126937e-38
227.1407348 -37.97447634 -849.7379948 2.349126937e-38
231.1374333 -37.91653563 -847.6350051 2.349126937e-38
235.1831159 -37.89641262 -846.5338926 2.349126937e-38
239.2184585 -37.87624493 -845.4330307 2.349126937e-38
243.2434611 -37.85603254 -844.3324194 2.349126937e-38
247.1729491 -37.79780139 -842.2310585 2.349126937e-38
251.1721015 -37.7774773 -841.1310737 2.349126937e-38
255.1609138 -37.75710853 -840.0313395 2.349126937e-38
259.2400705 -37.77473618 -839.93248 2.349126937e-38
263.2133727 -37.75430038 -838.8331216 2.349126937e-38
267.2873594 -37.77190569 -838.7343875 2.349126937e-38
271.3613461 -37.78951101 -838.6356533 2.349126937e-38
275.4353328 -37.80711632 -838.5369191 2.349126937e-38
279.5093195 -37.82472163 -838.438185 2.349126937e-38
283.9784203 -37.95685242 -841.339068 2.349126937e-38
288.2047918 -38.01272226 -842.239705 2.349126937e-38
292.4415034 -38.06863679 -843.1400915 2.349126937e-38
296.9829847 -38.20108036 -846.0392204 2.349126937e-38
301.4031014 -38.29539347 -847.9382262 2.349126937e-38
305.8438981 -38.38979594 -849.8367309 2.349126937e-38
310.305375 -38.48428777 -851.7347344 2.349126937e-38
314.6196371 -38.54053742 -852.6332414 2.349126937e-38
318.9442394 -38.59683176 -853.5314978 2.349126937e-38
323.6356516 -38.72992324 -856.426993 2.349126937e-38
327.8078689 -38.74795305 -856.3258782 2.349126937e-38
331.7915112 -38.72756194 -855.2262693 2.349126937e-38
335.3773232 -38.63023961 -852.1301733 2.349126937e-38
338.5342847 -38.45585203 -847.038342 2.349126937e-38
342.2518013 -38.39670486 -844.9421183 2.349126937e-38
345.5301274 -38.26044776 -840.85041 2.349126937e-38
349.1959438 -38.20107718 -838.7554394 2.349126937e-38
353.0606752 -38.18017221 -837.6587123 2.349126937e-38
356.9150667 -38.15922255 -836.5622357 2.349126937e-38
361.2189887 -38.21542752 -837.4609933 2.349126937e-38
365.0630401 -38.19443317 -836.3647674 2.349126937e-38
369.1370268 -38.21203848 -836.2660332 2.349126937e-38
373.456459 -38.26831048 -837.1644149 2.349126937e-38
378.2874621 -38.40200519 -840.0565271 2.349126937e-38
382.6379145 -38.45841123 -840.9541571 2.349126937e-38
387.2596624 -38.55359567 -842.8482763 2.349126937e-38
391.9020905 -38.64886946 -844.7418944 2.349126937e-38
396.8364943 -38.78301102 -847.6315007 2.349126937e-38
401.2489871 -38.83968515 -848.5276271 2.349126937e-38
405.3901842 -38.85758091 -848.427264 2.349126937e-38
415.1324573 -39.08771121 -853.2064789 2.349126937e-38
419.5966503 -39.14460876 -854.1013523 2.349126937e-38
423.7688677 -39.16263856 -854.0002375 2.349126937e-38
427.6335991 -39.1417336 -852.9035103 2.349126937e-38
431.8006465 -39.15974106 -852.8025208 2.349126937e-38
435.3320419 -39.09978959 -850.7108079 2.349126937e-38
438.1967653 -38.96174515 -846.6291234 2.349126937e-38
441.0201285 -38.82352196 -842.5484412 2.349126937e-38
444.4688034 -38.76321303 -840.458733 2.349126937e-38
447.5582921 -38.66374589 -837.3746655 2.349126937e-38
450.6167606 -38.56414471 -834.2913498 2.349126937e-38
453.644209 -38.46440947 -831.2087859 2.349126937e-38
456.9946533 -38.40367605 -829.1214584 2.349126937e-38
460.3244173 -38.34285325 -827.0346321 2.349126937e-38
463.9978576 -38.32112163 -825.9425409 2.349126937e-38
468.030484 -38.33854821 -825.8448091 2.349126937e-38
471.6884141 -38.31674957 -824.7530939 2.349126937e-38
475.7158705 -38.3341538 -824.6554874 2.349126937e-38
684.5826722 -59.24314888 -1353.223751 2.349126937e-38
692.5312057 -59.39031567 -1356.040309 2.349126937e-38
-168.6900753 -39.57391099 -840.4568784 2.349126937e-38
-168.6422898 -39.95906765 -849.4854252 2.349126937e-38
-165.4423343 -40.0584404 -851.4144745 2.349126937e-38
-163.0853899 -40.23971466 -855.3705555 2.349126937e-38
-164.1004895 -40.74859488 -867.4347633 2.349126937e-38
-161.1979587 -40.88945459 -870.3743214 2.349126937e-38
-158.2644077 -41.03044834 -873.3131276 2.349126937e-38
-155.711002 -41.21257158 -877.2644473 2.349126937e-38
-151.4922543 -41.23080246 -877.1622048 2.349126937e-38
-147.6743322 -41.29007346 -878.072977 2.349126937e-38
-144.6373804 -41.43151405 -881.0092773 2.349126937e-38
-141.5694086 -41.57308869 -883.9448258 2.349126937e-38
-137.699786 -41.6325831 -884.854345 2.349126937e-38
-134.1999685 -41.73325168 -886.7761271 2.349126937e-38
-130.679471 -41.83400963 -888.697408 2.349126937e-38
-54.47102993 -42.29165323 -889.8603774 2.349126937e-38
-49.89798715 -42.26864292 -888.746248 2.349126937e-38
-45.60685907 -42.28718658 -888.6422513 2.349126937e-38
-41.3157309 -42.30573025 -888.5382547 2.349126937e-38
-37.28583733 -42.36591726 -889.4438896 2.349126937e-38
-32.98953911 -42.38448327 -889.3397677 2.349126937e-38
-29.19502982 -42.48642532 -891.2544078 2.349126937e-38
-25.6255646 -42.63016712 -894.1778025 2.349126937e-38
-22.02507929 -42.77404296 -897.1004454 2.349126937e-38
-18.39357379 -42.91805285 -900.0223366 2.349126937e-38
-14.27061945 -42.97864202 -900.9257162 2.349126937e-38
-9.912280944 -42.99747613 -900.8200907 2.349126937e-38
-4.894319764 -42.89084401 -897.6885774 2.349126937e-38
-0.1220830512 -42.82592225 -895.5663198 2.349126937e-38
5.25807595 -42.63531085 -890.4194275 2.349126937e-38
17.45684544 -41.91812626 -872.0643771 2.349126937e-38
22.6405431 -41.72666587 -866.9222461 2.349126937e-38
27.01712454 -41.70280658 -865.8128779 2.349126937e-38
32.11810172 -41.51098872 -860.6727516 2.349126937e-38
36.81035074 -41.40294907 -857.549132 2.349126937e-38
41.99161114 -41.16870591 -851.4037595 2.349126937e-38
46.43813579 -41.10237662 -849.2893957 2.349126937e-38
50.86398025 -41.03595798 -847.175533 2.349126937e-38
55.11131088 -41.01154013 -846.0692973 2.349126937e-38
59.5009651 -40.9449651 -843.9563117 2.349126937e-38
63.57495184 -40.96257041 -843.8575775 2.349126937e-38
67.50661488 -41.02233292 -844.7655932 2.349126937e-38
71.58577156 -41.03996057 -844.6667337 2.349126937e-38
75.40096105 -41.141992 -846.5808727 2.349126937e-38
79.36364428 -41.20188856 -847.4881365 2.349126937e-38
83.21502401 -41.30407638 -849.4013984 2.349126937e-38
87.08708393 -41.40635356 -851.3141591 2.349126937e-38
90.75721693 -41.59330263 -855.2384146 2.349126937e-38
94.68097714 -41.69580322 -857.1499223 2.349126937e-38
98.62541753 -41.7983932 -859.0609288 2.349126937e-38
101.824191 -42.23993877 -869.0164111 2.349126937e-38
152.9326353 -41.69089829 -849.7183743 2.349126937e-38
157.1051482 -41.6233849 -847.6106512 2.349126937e-38
161.2101551 -41.64112426 -847.5111653 2.349126937e-38
165.3334048 -41.61617021 -846.4079366 2.349126937e-38
169.4593874 -41.54845575 -844.3013412 2.349126937e-38
173.5409814 -41.60886617 -845.2057233 2.349126937e-38
177.6274499 -41.75484214 -848.1165882 2.349126937e-38
181.7522504 -42.02930048 -854.0364259 2.349126937e-38
185.9086622 -42.13280646 -855.9422952 2.349126937e-38
190.1113087 -42.32205672 -859.8536451 2.349126937e-38
194.3373681 -42.46863591 -862.7611271 2.349126937e-38
198.5944478 -42.61534916 -865.6678572 2.349126937e-38
202.8542602 -42.71930198 -867.5712206 2.349126937e-38
206.9674654 -42.60876005 -864.4616343 2.349126937e-38
214.925625 -42.21542801 -854.2357607 2.349126937e-38
218.9250895 -42.10439457 -851.128931 2.349126937e-38
222.9476714 -42.03623326 -849.0248415 2.349126937e-38
226.9495731 -41.96798259 -846.9212532 2.349126937e-38
230.9307947 -41.89964254 -844.8181662 2.349126937e-38
234.9609838 -41.87428635 -843.7171929 2.349126937e-38
238.9808329 -41.84888547 -842.6164702 2.349126937e-38
242.9903419 -41.82343991 -841.5159981 2.349126937e-38
246.9043531 -41.75480943 -839.4145399 2.349126937e-38
250.8880119 -41.72925215 -838.3146943 2.349126937e-38
254.9568286 -41.74683512 -838.2160854 2.349126937e-38
258.9249773 -41.72121083 -837.1166157 2.349126937e-38
262.988624 -41.73877146 -837.0181321 2.349126937e-38
267.0522706 -41.75633208 -836.9196486 2.349126937e-38
270.9997392 -41.73061842 -835.8206801 2.349126937e-38
275.0582158 -41.74815671 -835.7223218 2.349126937e-38
279.1166924 -41.765695 -835.6239635 2.349126937e-38
283.5702333 -41.91325723 -838.5259324 2.349126937e-38
287.7810782 -41.9742262 -839.427182 2.349126937e-38
292.0022631 -42.03523985 -840.3281809 2.349126937e-38
296.5281845 -42.18311487 -843.2283957 2.349126937e-38
300.9327579 -42.28769326 -845.1282507 2.349126937e-38
305.5155496 -42.43581403 -848.0270872 2.349126937e-38
309.9666533 -42.5405935 -849.9258146 2.349126937e-38
314.4384371 -42.64546232 -851.8240408 2.349126937e-38
318.7578527 -42.70690048 -852.7226591 2.349126937e-38
337.5265532 -42.36028507 -842.2347891 2.349126937e-38
340.8101156 -42.20338569 -838.1420089 2.349126937e-38
344.6800337 -42.1773369 -837.0449198 2.349126937e-38
348.3252031 -42.10754464 -834.9499771 2.349126937e-38
352.1692711 -42.08138415 -833.8535145 2.349126937e-38
356.0029989 -42.05517896 -832.7573025 2.349126937e-38
360.0563055 -42.0726949 -832.6590695 2.349126937e-38
364.109612 -42.09021085 -832.5608365 2.349126937e-38
367.9226598 -42.0639163 -831.4651258 2.349126937e-38
372.2162252 -42.12524274 -832.3643706 2.349126937e-38
377.0213284 -42.27432421 -835.2578192 2.349126937e-38
390.2922143 -42.50276194 -838.9493979 2.349126937e-38
395.1955483 -42.6522679 -841.840466 2.349126937e-38
399.3005551 -42.67000727 -841.74098 2.349126937e-38
403.6871811 -42.73173585 -842.6379695 2.349126937e-38
408.6577255 -42.88153226 -845.5274086 2.349126937e-38
413.0753717 -42.9433949 -846.4236463 2.349126937e-38
417.8004871 -43.04935848 -848.315733 2.349126937e-38
421.9416843 -43.06725423 -848.2153699 2.349126937e-38
426.0828813 -43.08514999 -848.1150069 2.349126937e-38
430.5367178 -43.14716902 -849.0103675 2.349126937e-38
434.3652757 -43.1209415 -847.9142808 2.349126937e-38
437.2145554 -42.96216541 -843.8320256 2.349126937e-38
440.3506241 -42.84740089 -840.7461205 2.349126937e-38
443.4556727 -42.73250231 -837.6609671 2.349126937e-38
446.5297011 -42.61746969 -834.5765656 2.349126937e-38
449.9163687 -42.54656034 -832.4878877 2.349126937e-38
452.2358677 -42.34272262 -827.4151712 2.349126937e-38
455.5656651 -42.27156751 -825.3278716 2.349126937e-38
459.2339519 -42.24464739 -824.2356691 2.349126937e-38
463.2562382 -42.26202929 -824.1381879 2.349126937e-38
466.9090149 -42.23504215 -823.0463614 2.349126937e-38
470.5514515 -42.20801031 -821.9547854 2.349126937e-38
474.9432475 -42.26976125 -822.8516496 2.349126937e-38
685.7159821 -66.14928655 -1356.51591 2.349126937e-38
693.679976 -66.31201877 -1359.332802 2.349126937e-38
702.8610697 -66.60832742 -1365.130099 2.349126937e-38
-167.3608821 -43.4603303 -837.5980931 2.349126937e-38
-167.3287559 -43.89191533 -846.6291457 2.349126937e-38
-164.5813759 -44.04760324 -849.5731726 2.349126937e-38
-162.2348379 -44.24949744 -853.5304508 2.349126937e-38
-161.9804003 -44.68204316 -862.5561157 2.349126937e-38
-159.1037695 -44.83828962 -865.4970101 2.349126937e-38
-156.6124705 -45.04080938 -869.45078 2.349126937e-38
-153.2574472 -45.1511847 -871.3765437 2.349126937e-38
-150.2877557 -45.30783331 -874.3151828 2.349126937e-38
-146.4853602 -45.37220343 -875.2265675 2.349126937e-38
-143.0682965 -45.48284686 -877.1508277 2.349126937e-38
-140.0210546 -45.6398306 -880.0875873 2.349126937e-38
-136.1721286 -45.7044018 -880.9978444 2.349126937e-38
-133.83351 -45.95420023 -885.9588513 2.349126937e-38
-129.9432238 -46.01895017 -886.868106 2.349126937e-38
-59.64241792 -46.70625555 -893.1926413 2.349126937e-38
-55.04867845 -46.67816845 -892.077774 2.349126937e-38
-50.74204023 -46.69677914 -891.9734014 2.349126937e-38
-46.43540201 -46.71538983 -891.8690289 2.349126937e-38
-42.12876379 -46.73400052 -891.7646564 2.349126937e-38
-37.82212567 -46.75261121 -891.6602838 2.349126937e-38
-33.7715684 -46.81805375 -892.5656543 2.349126937e-38
-29.96158214 -46.93039514 -894.4803918 2.349126937e-38
-26.13091569 -47.04282591 -896.3946282 2.349126937e-38
-23.00128187 -47.29604262 -901.3364646 2.349126937e-38
-19.34914595 -47.45564035 -904.2585645 2.349126937e-38
-15.20552821 -47.52148504 -905.1616796 2.349126937e-38
-10.82650951 -47.54040851 -905.0555529 2.349126937e-38
5.034705822 -46.98575104 -891.6251737 2.349126937e-38
11.79908222 -46.43972099 -879.4187956 2.349126937e-38
18.43937785 -45.89315475 -867.2154247 2.349126937e-38
23.20922707 -45.76995175 -864.0892157 2.349126937e-38
27.9480562 -45.64661471 -860.9637585 2.349126937e-38
32.65586504 -45.52314362 -857.8390531 2.349126937e-38
37.51118421 -45.35237151 -853.7072359 2.349126937e-38
42.49850358 -45.13423137 -848.5686829 2.349126937e-38
47.09774169 -45.01029109 -845.4466087 2.349126937e-38
51.33991886 -44.98068475 -844.3402616 2.349126937e-38
55.72960636 -44.90377741 -842.2268028 2.349126937e-38
59.7932529 -44.92133804 -842.1283192 2.349126937e-38
63.85689954 -44.93889866 -842.0298356 2.349126937e-38
67.7782059 -45.00378264 -842.9383385 2.349126937e-38
71.70985235 -45.06871131 -843.8465908 2.349126937e-38
75.65183879 -45.13368467 -844.7545925 2.349126937e-38
79.4773352 -45.24609309 -846.6689541 2.349126937e-38
83.3235118 -45.35859088 -848.5828146 2.349126937e-38
87.07387834 -45.51861309 -851.5025338 2.349126937e-38
90.85526508 -45.67876937 -854.4215013 2.349126937e-38
94.77382206 -45.79157994 -856.3336076 2.349126937e-38
139.9820329 -46.3225118 -862.262732 2.349126937e-38
152.9869689 -45.70757276 -847.8980387 2.349126937e-38
157.1777744 -45.58186749 -844.785863 2.349126937e-38
161.2672711 -45.59953982 -844.6867529 2.349126937e-38
165.3750274 -45.5693526 -843.5836635 2.349126937e-38
169.485533 -45.49123879 -841.4769707 2.349126937e-38
173.5674391 -45.46093986 -840.3745078 2.349126937e-38
177.6280077 -45.62230259 -843.2867092 2.349126937e-38
181.7220172 -45.83174829 -847.201637 2.349126937e-38
185.8725683 -46.13731527 -853.122268 2.349126937e-38
194.270138 -46.50917376 -859.9435083 2.349126937e-38
198.4885569 -46.62328016 -861.8483473 2.349126937e-38
202.7841977 -46.83359718 -865.7583885 2.349126937e-38
206.8871126 -46.70751211 -862.6483429 2.349126937e-38
214.868539 -46.31055682 -853.4230797 2.349126937e-38
218.8628832 -46.18400256 -850.3156652 2.349126937e-38
222.8262071 -46.05731425 -847.2090026 2.349126937e-38
226.877093 -46.02688128 -846.1072915 2.349126937e-38
230.7887167 -45.89996955 -843.0018819 2.349126937e-38
234.8085824 -45.86940252 -841.9009225 2.349126937e-38
238.818108 -45.8387908 -840.8002138 2.349126937e-38
242.8172935 -45.8081344 -839.6997556 2.349126937e-38
246.7209978 -45.72912692 -837.5980747 2.349126937e-38
250.6943331 -45.69835881 -836.4982431 2.349126937e-38
254.6573285 -45.66754602 -835.398662 2.349126937e-38
258.6099837 -45.63668854 -834.2993315 2.349126937e-38
262.6581202 -45.65418214 -834.2012239 2.349126937e-38
266.7062567 -45.67167575 -834.1031162 2.349126937e-38
270.7543933 -45.68916935 -834.0050085 2.349126937e-38
274.6811983 -45.65820016 -832.9063045 2.349126937e-38
278.8506663 -45.72415656 -833.8087931 2.349126937e-38
283.1621459 -45.8386651 -835.7113768 2.349126937e-38
287.357464 -45.9047332 -836.613239 2.349126937e-38
291.7051338 -46.01939813 -838.5149456 2.349126937e-38
296.2206654 -46.18272694 -841.4161209 2.349126937e-38
300.7672172 -46.3461898 -844.3165444 2.349126937e-38
305.3447891 -46.50978669 -847.2162161 2.349126937e-38
309.7906896 -46.62487613 -849.115542 2.349126937e-38
314.2572702 -46.74005493 -851.0143669 2.349126937e-38
318.5714991 -46.80663689 -851.9133471 2.349126937e-38
322.8960681 -46.87326353 -852.8120768 2.349126937e-38
336.9167514 -46.31065239 -839.4263034 2.349126937e-38
340.1848702 -46.13302137 -835.3329525 2.349126937e-38
343.8300728 -46.0528968 -833.2375364 2.349126937e-38
347.6689873 -46.0215478 -832.1409625 2.349126937e-38
351.4975617 -45.99015412 -831.0446392 2.349126937e-38
355.315796 -45.95871576 -829.9485664 2.349126937e-38
359.3535924 -45.97616468 -829.8507093 2.349126937e-38
363.3913889 -45.9936136 -829.7528522 2.349126937e-38
367.1889431 -45.96208587 -828.6572807 2.349126937e-38
371.4669818 -46.02851143 -829.5571381 2.349126937e-38
376.0059429 -46.14400302 -831.4542087 2.349126937e-38
380.3098318 -46.2105403 -832.3534396 2.349126937e-38
384.3631383 -46.22805624 -832.2552066 2.349126937e-38
388.6825373 -46.29466054 -833.1540616 2.349126937e-38
393.5548012 -46.45953092 -836.0465914 2.349126937e-38
397.6287879 -46.47713623 -835.9478572 2.349126937e-38
401.7027746 -46.49474154 -835.849123 2.349126937e-38
406.6370789 -46.65988003 -838.7401492 2.349126937e-38
411.3104609 -46.7759525 -840.6339621 2.349126937e-38
416.0045229 -46.89211433 -842.5272739 2.349126937e-38
420.4169825 -46.95912079 -843.4238735 2.349126937e-38
424.8397822 -47.02617193 -844.3202226 2.349126937e-38
429.2729218 -47.09326775 -845.216321 2.349126937e-38
433.0808161 -47.0617847 -844.1204989 2.349126937e-38
436.2324448 -46.93158874 -841.0335079 2.349126937e-38
439.3530533 -46.80125873 -837.9472687 2.349126937e-38
442.7759444 -46.72017346 -835.8572404 2.349126937e-38
445.8396825 -46.5895977 -832.7723795 2.349126937e-38
448.8724003 -46.45888787 -829.6882704 2.349126937e-38
451.5252851 -46.27859816 -825.6098298 2.349126937e-38
454.8447755 -46.19706607 -823.5223075 2.349126937e-38
458.5027389 -46.16493511 -822.4301189 2.349126937e-38
462.1503621 -46.13275947 -821.338181 2.349126937e-38
466.5266314 -46.19960953 -822.2356577 2.349126937e-38
470.1639146 -46.16738921 -821.1439704 2.349126937e-38
474.1706909 -46.18470408 -821.0468651 2.349126937e-38
478.5624703 -46.25162117 -821.9439659 2.349126937e-38
695.9991664 -73.41359255 -1365.608957 2.349126937e-38
703.6298077 -73.54244449 -1367.4311 2.349126937e-38
-166.4075543 -46.88929043 -826.7168152 2.349126937e-38
-164.2420338 -47.11106728 -830.6794254 2.349126937e-38
-162.4773719 -47.38421655 -835.6555236 2.349126937e-38
-160.2239609 -47.60637321 -839.6160038 2.349126937e-38
-157.9291896 -47.82870861 -843.5754816 2.349126937e-38
-156.8731841 -48.20500487 -850.5763003 2.349126937e-38
-157.430953 -48.78674616 -861.6313215 2.349126937e-38
-154.1276632 -48.90723037 -863.5588115 2.349126937e-38
-151.6260906 -49.13045944 -867.5132774 2.349126937e-38
-148.677129 -49.30251715 -870.4531277 2.349126937e-38
-145.6971473 -49.47470891 -873.3922261 2.349126937e-38
-141.8947682 -49.5442452 -874.3038475 2.349126937e-38
-138.4725677 -49.66524326 -876.2284556 2.349126937e-38
-134.6443386 -49.73489125 -877.1394505 2.349126937e-38
-65.13721352 -51.20356235 -897.5379336 2.349126937e-38
-60.51760732 -51.17042081 -896.4222031 2.349126937e-38
-56.19028901 -51.18912087 -896.3173294 2.349126937e-38
-51.58619296 -51.15591229 -895.2019748 2.349126937e-38
-47.53565228 -51.22652098 -896.1075819 2.349126937e-38
-43.20833396 -51.24522104 -896.0027082 2.349126937e-38
-38.88101555 -51.2639211 -895.8978345 2.349126937e-38
-34.80979488 -51.33461915 -896.8029404 2.349126937e-38
-31.4810168 -51.5614229 -900.7373587 2.349126937e-38
-27.86512088 -51.73636269 -903.6610457 2.349126937e-38
-25.42114227 -52.17176164 -911.6319996 2.349126937e-38
-21.24652083 -52.24290653 -912.5345995 2.349126937e-38
-17.52205419 -52.41831551 -915.4556552 2.349126937e-38
-12.86625775 -52.38533036 -914.3390477 2.349126937e-38
13.01182895 -50.37297209 -873.5609633 2.349126937e-38
18.82439443 -49.97325293 -865.3899099 2.349126937e-38
24.36018227 -49.62544241 -858.2293372 2.349126937e-38
28.87915366 -49.5387613 -856.1122726 2.349126937e-38
33.74487929 -49.34736925 -851.9792583 2.349126937e-38
38.39069752 -49.2081316 -848.8553465 2.349126937e-38
43.52562676 -48.9116935 -842.7082618 2.349126937e-38
47.92568744 -48.82449851 -840.594079 2.349126937e-38
52.30506802 -48.73721417 -838.4803974 2.349126937e-38
56.50590149 -48.70226294 -837.3748161 2.349126937e-38
60.54369789 -48.71971186 -837.276959 2.349126937e-38
64.28644053 -48.84209512 -839.1937987 2.349126937e-38
68.19222025 -48.91207824 -840.1029141 2.349126937e-38
71.97115314 -49.03461789 -842.0188767 2.349126937e-38
75.902783 -49.10471272 -842.9273657 2.349126937e-38
79.5910594 -49.2799653 -845.8492984 2.349126937e-38
83.43203267 -49.40277306 -847.7637575 2.349126937e-38
87.29368613 -49.52567019 -849.6777154 2.349126937e-38
91.064683 -49.70128024 -852.5976434 2.349126937e-38
141.0531458 -49.33314857 -840.344656 2.349126937e-38
149.3362638 -49.15652444 -836.1288202 2.349126937e-38
153.4468026 -49.06807832 -834.021654 2.349126937e-38
157.5366612 -48.97954283 -831.9149891 2.349126937e-38
161.5589476 -48.99692472 -831.8175079 2.349126937e-38
165.5629579 -49.06733233 -832.7242427 2.349126937e-38
169.5904143 -49.08473656 -832.6266362 2.349126937e-38
173.6099347 -49.1552112 -833.5329951 2.349126937e-38
177.6342633 -49.331916 -836.4467835 2.349126937e-38
181.6992284 -49.72121518 -843.3746793 2.349126937e-38
185.8062775 -49.89827745 -846.286463 2.349126937e-38
189.957091 -50.12863353 -850.2009591 2.349126937e-38
194.1313506 -50.30598624 -853.111114 2.349126937e-38
198.3135461 -50.43026855 -855.0173034 2.349126937e-38
214.5488999 -50.07559041 -846.5936509 2.349126937e-38
218.5071037 -49.93338129 -843.4864036 2.349126937e-38
222.4342872 -49.79103813 -840.3799081 2.349126937e-38
226.5082739 -49.80864344 -840.2811739 2.349126937e-38
230.4533716 -49.71948238 -838.1780173 2.349126937e-38
234.4474037 -49.68363749 -837.0774478 2.349126937e-38
238.4310957 -49.6477479 -835.9771289 2.349126937e-38
242.4044477 -49.61181364 -834.8770606 2.349126937e-38
246.2823349 -49.52236214 -832.7755328 2.349126937e-38
250.2298367 -49.48631617 -831.676091 2.349126937e-38
254.2624632 -49.50374275 -831.5783592 2.349126937e-38
258.1944549 -49.46762975 -830.4792933 2.349126937e-38
262.2219112 -49.48503398 -830.3816868 2.349126937e-38
266.2493676 -49.50243822 -830.2840803 2.349126937e-38
270.276824 -49.51984245 -830.1864738 2.349126937e-38
274.1829656 -49.48361775 -829.0880344 2.349126937e-38
278.2052519 -49.50099964 -828.9905532 2.349126937e-38
282.6225031 -49.67940241 -831.894819 2.349126937e-38
286.7971245 -49.75054731 -832.797419 2.349126937e-38
291.124081 -49.87545518 -834.7001001 2.349126937e-38
295.3245526 -49.94671178 -835.6020736 2.349126937e-38
300.2970395 -50.28682803 -841.5042023 2.349126937e-38
304.8590517 -50.46585638 -844.4049599 2.349126937e-38
309.452084 -50.64501877 -847.3049657 2.349126937e-38
313.9082914 -50.7704852 -849.2045144 2.349126937e-38
318.2121636 -50.84218862 -850.1039819 2.349126937e-38
326.4842179 -50.87793545 -849.9035064 2.349126937e-38
335.5115878 -50.0141665 -832.6205839 2.349126937e-38
342.5618335 -49.77910994 -827.430854 2.349126937e-38
346.3697444 -49.74246074 -826.3347952 2.349126937e-38
350.1673153 -49.70576686 -825.238987 2.349126937e-38
353.954546 -49.66902829 -824.1434294 2.349126937e-38
357.7314367 -49.63224504 -823.0481224 2.349126937e-38
361.7330429 -49.64953756 -822.9511424 2.349126937e-38
365.4944235 -49.61268729 -821.8562112 2.349126937e-38
369.4908597 -49.62995748 -821.7593565 2.349126937e-38
372.9861645 -49.53885268 -819.6671008 2.349126937e-38
382.0019798 -49.79023237 -823.4636922 2.349126937e-38
384.9444528 -49.59052919 -819.3772884 2.349126937e-38
391.1005157 -50.04196952 -827.258279 2.349126937e-38
393.4694769 -49.73357859 -821.1782283 2.349126937e-38
398.0290849 -49.85949185 -823.075271 2.349126937e-38
402.609373 -49.98549447 -824.9718126 2.349126937e-38
407.5022673 -50.16595269 -827.8645511 2.349126937e-38
412.1290857 -50.2921564 -829.759965 2.349126937e-38
416.7765843 -50.41844946 -831.6548777 2.349126937e-38
421.1373269 -50.49039866 -832.552967 2.349126937e-38
426.1336219 -50.6713037 -835.4431996 2.349126937e-38
430.5253847 -50.74338694 -836.3405371 2.349126937e-38
434.2815953 -50.70651433 -835.2457312 2.349126937e-38
437.3712333 -50.5605518 -832.1595339 2.349126937e-38
440.7631374 -50.46900017 -830.0697841 2.349126937e-38
444.1343614 -50.37735918 -827.9805355 2.349126937e-38
447.1412788 -50.23103918 -824.8963429 2.349126937e-38
449.4195834 -49.97536118 -819.8222623 2.349126937e-38
452.7080868 -49.88336271 -817.7350184 2.349126937e-38
456.6941829 -49.90058822 -817.6384143 2.349126937e-38
460.3159726 -49.8631347 -816.5468662 2.349126937e-38
464.2968986 -49.88033786 -816.4503874 2.349126937e-38
468.2778248 -49.89754102 -816.3539086 2.349126937e-38
472.2587509 -49.91474418 -816.2574297 2.349126937e-38
476.6246635 -49.98671572 -817.1553937 2.349126937e-38
696.7575312 -80.35799729 -1367.910683 2.349126937e-38
704.7938061 -80.55203931 -1370.72724 2.349126937e-38
-165.0625191 -50.67245367 -823.852921 2.349126937e-38
-162.4651696 -50.85849061 -826.8020015 2.349126937e-38
-159.8368001 -51.0446616 -829.7503301 2.349126937e-38
-158.4886063 -51.40011319 -835.7417121 2.349126937e-38
-155.7826861 -51.58661931 -838.6881612 2.349126937e-38
-154.752647 -51.99896696 -845.691263 2.349126937e-38
-154.493338 -52.52452583 -854.7210623 2.349126937e-38
-152.0590421 -52.76812906 -858.6781037 2.349126937e-38
-148.7609555 -52.89892324 -860.6061922 2.349126937e-38
-146.6603244 -53.1993555 -865.5753294 2.349126937e-38
-143.7062425 -53.38693402 -868.5157643 2.349126937e-38
-140.3254355 -53.51808567 -870.4418481 2.349126937e-38
-65.73572483 -55.64681591 -899.7584345 2.349126937e-38
-61.10576195 -55.60855289 -898.6422168 2.349126937e-38
-56.20417478 -55.51319276 -896.5154069 2.349126937e-38
-51.87685647 -55.53189282 -896.4105332 2.349126937e-38
-47.82116233 -55.60769 -897.3162516 2.349126937e-38
-43.22221974 -55.56929293 -896.2007857 2.349126937e-38
-39.41746979 -55.7022766 -898.1165952 2.349126937e-38
-35.33592561 -55.77818549 -899.0216871 2.349126937e-38
-31.7459296 -55.96851205 -901.9467105 2.349126937e-38
-28.37068765 -56.21618149 -905.8809478 2.349126937e-38
-26.39770983 -56.80741672 -915.8732251 2.349126937e-38
-21.96699084 -56.82656361 -915.7658454 2.349126937e-38
-17.99679984 -56.96026222 -917.6776454 2.349126937e-38
-13.55574076 -56.9794538 -917.5700151 2.349126937e-38
20.20569657 -53.74563697 -858.5192583 2.349126937e-38
25.3172627 -53.47637146 -853.3753316 2.349126937e-38
29.99932093 -53.32179174 -850.2498328 2.349126937e-38
34.46662522 -53.22455489 -848.1335479 2.349126937e-38
39.27037673 -53.01223012 -844.0010905 2.349126937e-38
44.37955536 -52.68468339 -837.8532123 2.349126937e-38
48.75379908 -52.58704439 -835.7391828 2.349126937e-38
52.78125548 -52.60444862 -835.6415763 2.349126937e-38
56.96659539 -52.56426421 -834.5361341 2.349126937e-38
60.83616818 -52.63925709 -835.4463633 2.349126937e-38
64.56853765 -52.77192798 -837.3639269 2.349126937e-38
68.46396068 -52.84703257 -838.2735296 2.349126937e-38
72.09531687 -53.03753786 -841.1975506 2.349126937e-38
76.0217601 -53.1127765 -842.1064014 2.349126937e-38
79.70481667 -53.30350521 -845.0291695 2.349126937e-38
83.54058671 -53.43662293 -846.9442271 2.349126937e-38
87.51356027 -53.51206265 -847.8519503 2.349126937e-38
145.6334664 -52.71434523 -828.3712313 2.349126937e-38
149.6740454 -52.67353525 -827.2692975 2.349126937e-38
153.7042844 -52.63268059 -826.1676143 2.349126937e-38
157.7241832 -52.59178126 -825.0661816 2.349126937e-38
161.7102793 -52.60900676 -824.9695775 2.349126937e-38
165.6780828 -52.68442412 -825.877426 2.349126937e-38
169.6562264 -52.75988618 -826.7850239 2.349126937e-38
173.6367574 -52.89362947 -828.6965733 2.349126937e-38
177.6351861 -53.08572103 -831.6116982 2.349126937e-38
181.6646349 -53.27794664 -834.5260713 2.349126937e-38
185.7326615 -53.52860988 -838.4435188 2.349126937e-38
189.8420483 -53.77945185 -842.3599638 2.349126937e-38
193.9927954 -54.03047256 -846.2754066 2.349126937e-38
198.1618352 -54.22330138 -849.1863966 2.349126937e-38
206.4593445 -54.37570005 -850.9933229 2.349126937e-38
218.2004742 -53.66891617 -837.6566525 2.349126937e-38
222.0966873 -53.51094048 -834.5501989 2.349126937e-38
226.1989117 -53.58693874 -835.4547896 2.349126937e-38
229.9893366 -53.37023499 -831.3468905 2.349126937e-38
233.947195 -53.32906754 -830.2469614 2.349126937e-38
237.7451775 -53.17066737 -827.1428884 2.349126937e-38
241.7519537 -53.18798224 -827.0457831 2.349126937e-38
245.6736219 -53.1466584 -825.9467311 2.349126937e-38
249.494672 -53.04662883 -823.8461083 2.349126937e-38
253.3904901 -53.00519329 -822.7476828 2.349126937e-38
257.3765862 -53.02241879 -822.6510787 2.349126937e-38
261.3626823 -53.0396443 -822.5544746 2.349126937e-38
265.3487784 -53.0568698 -822.4578705 2.349126937e-38
269.3348745 -53.0740953 -822.3612663 2.349126937e-38
273.3209707 -53.0913208 -822.2646622 2.349126937e-38
277.3070668 -53.1085463 -822.1680581 2.349126937e-38
281.5564396 -53.24345136 -824.073092 2.349126937e-38
285.8264925 -53.37844579 -825.9776247 2.349126937e-38
290.1172256 -53.51352959 -827.8816562 2.349126937e-38
294.4286388 -53.64870276 -829.7851866 2.349126937e-38
299.5223245 -54.07861104 -836.6898048 2.349126937e-38
304.2159252 -54.33197763 -840.5920913 2.349126937e-38
308.7882277 -54.52654913 -843.4933082 2.349126937e-38
313.3915503 -54.72125466 -846.3937733 2.349126937e-38
317.8528944 -54.85707574 -848.29367 2.349126937e-38
322.3349188 -54.99298618 -850.1930656 2.349126937e-38
326.1042685 -54.8927332 -848.0936957 2.349126937e-38
333.9078076 -53.58622421 -824.812361 2.349126937e-38
337.710565 -53.54438651 -823.7161909 2.349126937e-38
341.0846047 -53.38415433 -820.6223922 2.349126937e-38
345.0707008 -53.40137983 -820.5257881 2.349126937e-38
348.6177391 -53.30016614 -818.4318061 2.349126937e-38
352.5934951 -53.31734696 -818.3354526 2.349126937e-38
356.3393822 -53.2752635 -817.2406607 2.349126937e-38
360.0749292 -53.23313536 -816.1461194 2.349126937e-38
363.8001361 -53.19096254 -815.0518287 2.349126937e-38
367.515003 -53.14874503 -813.9577886 2.349126937e-38
371.4700789 -53.16583648 -813.8619362 2.349126937e-38
386.7479241 -53.11531626 -811.4836549 2.349126937e-38
390.9690592 -53.19182838 -812.3853639 2.349126937e-38
395.4821037 -53.32787288 -814.2840076 2.349126937e-38
400.3025677 -53.52351678 -817.1792103 2.349126937e-38
404.8621425 -53.65976235 -819.0767263 2.349126937e-38
409.4423976 -53.79609728 -820.9737412 2.349126937e-38
414.0433327 -53.93252158 -822.8702549 2.349126937e-38
418.6649479 -54.06903526 -824.7662674 2.349126937e-38
423.9324223 -54.32488179 -828.6546459 2.349126937e-38
427.9702188 -54.34233071 -828.5567888 2.349126937e-38
432.0080152 -54.35977962 -828.4589317 2.349126937e-38
435.7177121 -54.31753977 -827.3650169 2.349126937e-38
439.4170688 -54.27525524 -826.2713527 2.349126937e-38
442.7676458 -54.17319257 -824.182132 2.349126937e-38
445.753933 -54.01128474 -821.0977306 2.349126937e-38
448.3604201 -53.78946473 -817.0185245 2.349126937e-38
451.9873964 -53.74686741 -815.9266145 2.349126937e-38
455.2449127 -53.64440259 -813.8396491 2.349126937e-38
459.2103288 -53.66153872 -813.7435461 2.349126937e-38
463.1757448 -53.67867486 -813.6474432 2.349126937e-38
467.1411607 -53.69581099 -813.5513403 2.349126937e-38
471.1065767 -53.71294713 -813.4552374 2.349126937e-38
475.4569627 -53.79001779 -814.3538139 2.349126937e-38
701.41723 -87.92263541 -1380.158896 2.349126937e-38
707.143635 -87.77256865 -1377.008087 2.349126937e-38
-164.1699765 -54.48610129 -822.0028212 2.349126937e-38
-161.1355949 -54.62608835 -823.9377732 2.349126937e-38
-158.5227851 -54.82769077 -826.8871877 2.349126937e-38
-156.753119 -55.15252394 -831.8655271 2.349126937e-38
-154.0679288 -55.35443915 -834.8131874 2.349126937e-38
-152.2052021 -55.67967447 -839.7892715 2.349126937e-38
-151.9770626 -56.25159468 -848.8219524 2.349126937e-38
-149.1574514 -56.45409077 -851.766355 2.349126937e-38
-146.30682 -56.65672093 -854.7100058 2.349126937e-38
-143.8312303 -56.92116752 -858.6669914 2.349126937e-38
-140.9133885 -57.12408811 -861.6090134 2.349126937e-38
-137.173083 -57.2036886 -862.5226116 2.349126937e-38
-65.74966037 -59.98638627 -899.957222 2.349126937e-38
-61.40683191 -60.00515335 -899.8519723 2.349126937e-38
-56.78202248 -59.96170183 -898.7356433 2.349126937e-38
-52.44436407 -59.98044658 -898.630519 2.349126937e-38
-48.10670566 -59.99919132 -898.5253946 2.349126937e-38
-44.03551807 -60.08022169 -899.4309739 2.349126937e-38
-40.21529125 -60.22360469 -901.3468807 2.349126937e-38
-36.11825352 -60.30474676 -902.2518334 2.349126937e-38
-32.51279724 -60.51063881 -905.1771909 2.349126937e-38
-29.36790212 -60.84141488 -910.1222012 2.349126937e-38
-26.89316876 -61.35960637 -918.0961898 2.349126937e-38
-22.45210967 -61.37879794 -917.9885595 2.349126937e-38
-18.01105059 -61.39798952 -917.8809292 2.349126937e-38
-11.99421738 -60.97993062 -910.7053908 2.349126937e-38
15.02905867 -58.17860013 -863.8551793 2.349126937e-38
22.38427263 -57.19539056 -847.6089949 2.349126937e-38
27.43905127 -56.90004853 -842.4652632 2.349126937e-38
31.87536855 -56.79234533 -840.3492568 2.349126937e-38
36.29100573 -56.68455275 -838.2337515 2.349126937e-38
40.86454302 -56.51400538 -835.110174 2.349126937e-38
45.40706011 -56.34332395 -831.9873482 2.349126937e-38
49.58207652 -56.29792871 -830.88192 2.349126937e-38
53.42061263 -56.37795369 -831.7931376 2.349126937e-38
57.26948873 -56.45802336 -832.7041046 2.349126937e-38
61.12870483 -56.5381377 -833.614821 2.349126937e-38
64.55558092 -56.80669518 -837.5487519 2.349126937e-38
68.45098736 -56.88696593 -838.4585912 2.349126937e-38
72.21951379 -57.03012552 -840.3757511 2.349126937e-38
76.00872041 -57.17337447 -842.2924097 2.349126937e-38
79.56484731 -57.44249049 -846.2232082 2.349126937e-38
83.64917404 -57.46014049 -846.1242234 2.349126937e-38
87.50042105 -57.60365755 -848.0393785 2.349126937e-38
149.8171789 -56.41389858 -823.4314675 2.349126937e-38
153.8267542 -56.3677884 -822.3300488 2.349126937e-38
157.8546389 -56.25832019 -820.2239408 2.349126937e-38
161.7914056 -56.33876966 -821.1327777 2.349126937e-38
165.7568215 -56.3559058 -821.0366748 2.349126937e-38
169.7090983 -56.43642231 -821.9451359 2.349126937e-38
173.7274993 -56.07316453 -815.8222755 2.349126937e-38
177.6530695 -56.4073142 -820.748366 2.349126937e-38
181.6255982 -56.61479252 -823.6648273 2.349126937e-38
185.636688 -56.88587462 -827.5845997 2.349126937e-38
189.765404 -57.53808791 -837.5269946 2.349126937e-38
193.8902346 -57.80966152 -841.4440104 2.349126937e-38
217.8940439 -57.34245717 -831.8240617 2.349126937e-38
221.7592865 -57.16884898 -828.7176498 2.349126937e-38
233.5168 -56.96590927 -824.4157211 2.349126937e-38
237.4333148 -56.91939693 -823.3165578 2.349126937e-38
241.3394895 -56.87283992 -822.217645 2.349126937e-38
245.2353241 -56.82623821 -821.1189829 2.349126937e-38
248.9402957 -56.65193742 -818.0164553 2.349126937e-38
252.9005416 -56.66905122 -817.9204776 2.349126937e-38
256.760186 -56.62229312 -816.8226925 2.349126937e-38
260.715262 -56.63938457 -816.7268402 2.349126937e-38
264.6703379 -56.65647602 -816.6309879 2.349126937e-38
268.6254138 -56.67356747 -816.5351355 2.349126937e-38
272.5804897 -56.69065892 -816.4392832 2.349126937e-38
276.6620173 -56.77173397 -817.3446118 2.349126937e-38
281.0171285 -56.98086557 -820.2518012 2.349126937e-38
285.2664682 -57.12610295 -822.1573084 2.349126937e-38
289.3945261 -57.20737907 -823.0615093 2.349126937e-38
293.5329241 -57.28869988 -823.9654597 2.349126937e-38
298.4431716 -57.69054189 -829.8719318 2.349126937e-38
303.1005157 -57.9644167 -833.776042 2.349126937e-38
307.4739362 -58.11019028 -835.678542 2.349126937e-38
311.3646007 -58.06356624 -834.5800052 2.349126937e-38
315.2449253 -58.01689751 -833.4817189 2.349126937e-38
318.9367577 -57.90597709 -831.3837553 2.349126937e-38
331.9066284 -56.94703068 -815.0014982 2.349126937e-38
335.8617043 -56.96412214 -814.9056458 2.349126937e-38
339.8167803 -56.98121359 -814.8097935 2.349126937e-38
343.7718562 -56.99830504 -814.7139412 2.349126937e-38
347.7269321 -57.01539649 -814.6180888 2.349126937e-38
351.4573256 -56.96807986 -813.5234362 2.349126937e-38
354.9475267 -56.8562881 -811.4303591 2.349126937e-38
358.8870925 -56.87331253 -811.3348827 2.349126937e-38
362.5864658 -56.82586183 -810.2409818 2.349126937e-38
366.2754992 -56.77836647 -809.1473316 2.349126937e-38
369.9541924 -56.73082641 -808.0539319 2.349126937e-38
385.1079899 -56.66943768 -805.6781844 2.349126937e-38
389.0217055 -56.6863504 -805.5833345 2.349126937e-38
393.4985266 -56.83257081 -807.4833286 2.349126937e-38
402.8061021 -57.18997827 -812.2789847 2.349126937e-38
407.6471965 -57.40121 -815.1743961 2.349126937e-38
412.5193111 -57.61257578 -818.0690557 2.349126937e-38
416.80764 -57.6945445 -818.9693725 2.349126937e-38
422.3566009 -58.0357095 -823.8561196 2.349126937e-38
426.6862901 -58.11785694 -824.755434 2.349126937e-38
430.0575804 -58.00555133 -822.6652388 2.349126937e-38
