1426,1429,1432,1436,1439,1442,1446,1446,1446,1446,1449,1449,1453,1459,1463,1466,1477,1480,1487,1491,1498,1505,1509,1517,1520,1528,1532,1539,1543,1543,1551,1551,1551,1555,1558,1558,1558,1562,1570,1574,1574,1582,1586,1590,1595,1603,1603,1607,1607,1611,1611,1615,1619,1619,1624,1632,1645,1650,1658,1667,1676,1676,1676,1676,1676,1681,1681,1681,1681,1681,1686,1686,1686,1690,1690,1695,1695,1695,1699,1699,1704,1704,1709,1713,1718,1737,1742,1752,1757,1767,1767,1767,1762,1762,1762,1762,1767,1772,1772,1777,1782,1782,1782,1782,1782,1782,1782,1777,1777,1777,1777,1772,1772,1772,1772,1772,1772,1772,1772,1772,1772,1772,1777,1782,1788,1793,1793,1798,1798,1798,1798,1793,1793,1782,1772,1772,1762,1757,1757,1752,0,0,0,0,0,0,1200,1202,1204,1204,1209,1211,0,0,1241,0,0,0,0,0,0,0,0,0,1841,1841,1841,1841,1824,1814,1808,1798,1782,1777,1772,1772,1782,1793,1803,1808,1819,1824,1824,1830,1830,1835,1835,1830,1824,1824,0,0,0,0,0,0,0,0,0,0,0,0,0,0,0,0,0,0,0,0,0,0,0,0,0,0,0,0,0,0,0,0,0,0,0,0,801,801,802,802,0,1266,1266,1266,1266,1263,1266,1274,1279,1284,1295,1317,1351,0,1439,1470,1502,1505,1505,1505,1502,1502,1502,1502,1502,1502,1502,1502,1502,1502,1502,1505,1505,1509,1513,1520,1520,1524,1524,1528,1528,1532,1532,1535,1539,1539,1539,1543,1539,1539,1535,1532,1532,1528,1528,1528,1528,1528,1524,1524,1524,1520,1517,1513,1513,1513,1509,1513,1513,1517,1524,1532,1532,1535,1535,1543,1551,1551,1555,1558,1558,1562,1558,1558,1558,1555,1558,1558,1555,1558
1426,1429,1432,1436,1439,1442,1442,1446,1446,1446,1449,1449,1453,1459,1463,1466,1473,1480,1484,1491,1502,1505,1509,1517,1520,1528,1532,1539,1543,1547,1551,1555,1551,1555,1555,1555,1558,1562,1566,1570,1574,1582,1582,1586,1590,1599,1599,1603,1603,1607,1611,1615,1619,1619,1624,1632,1645,1650,1658,1667,1676,1676,1676,1676,1681,1681,1681,1681,1681,1681,1686,1686,1686,1690,1690,1695,1695,1695,1699,1699,1704,1704,1709,1713,1718,1737,1742,1752,1757,1767,1767,1772,1762,1762,1762,1762,1767,1772,1772,1777,1782,1788,1788,1788,1788,1788,1788,1782,1782,1782,1777,1777,1777,1777,1772,1772,1772,1772,1772,1772,1772,1772,1772,1782,1782,1788,1788,1793,1793,1793,1793,1793,1788,1782,1772,1767,1762,1757,1752,1752,0,0,0,0,0,0,1204,1207,1216,1216,1221,1223,0,0,1258,0,0,0,0,0,0,0,1835,1835,1835,1841,1846,1841,1830,1819,1814,1808,1793,1788,1788,1788,1793,1803,1808,1819,1824,1824,1830,1830,1835,1835,1835,1830,1830,1830,1824,0,0,0,0,0,0,0,0,0,0,0,0,0,0,0,0,0,0,768,768,768,770,771,0,0,0,0,0,0,0,0,0,0,0,0,801,801,0,0,0,1263,1261,1263,1266,1263,1266,1274,1279,1284,1292,1317,1351,0,1439,1473,1505,1505,1509,1505,1502,1502,1505,1505,1505,1505,1505,1505,1505,1505,1505,1509,1513,1513,1517,1520,1524,1528,1528,1528,1528,1532,1532,1535,1539,1539,1543,1543,1543,1539,1535,1532,1532,1528,1524,1524,1524,1520,1520,1520,1520,1517,1517,1513,1517,1513,1513,1513,1517,1520,1524,1532,1532,1535,1535,1543,1547,1547,1551,1555,1558,1558,1558,1558,1558,1558,1555,1555,1555,1555
1429,1429,1432,1436,1439,1442,1442,1446,1446,1446,1449,1449,1453,1459,1463,1466,1477,1480,1484,1491,1502,1505,1509,1517,1520,1528,1532,1539,1543,1547,1551,1555,1551,1555,1555,1555,1558,1558,1562,1566,1570,1578,1578,1582,1586,1590,1595,1599,1599,1603,1607,1611,1615,1619,1628,1632,1650,1654,1663,1672,1676,1681,1681,1681,1681,1686,1681,1681,1681,1686,1686,1686,1686,1690,1690,1695,1695,1695,1699,1704,1704,1704,1709,1713,1723,1737,1742,1752,1757,1767,1767,1772,1762,1762,1762,1762,1767,1772,1772,1777,1788,1788,1788,1788,1793,1793,1793,1793,1788,1788,1788,1782,1782,1782,1777,1777,1772,1772,1772,1772,1772,1772,1772,1777,1777,1782,1788,1788,1793,1793,1793,1793,1788,1782,1772,1772,1762,1762,1757,1757,1752,0,0,0,0,1207,1211,1214,1219,1219,1226,1228,0,0,0,0,0,0,0,0,0,1830,1835,1835,1841,1846,1846,1846,1830,1824,1819,1808,1798,1793,1793,1793,1798,1808,1814,1819,1824,1830,1835,1835,1841,1835,1835,1835,1835,1830,1830,0,0,0,0,0,0,0,0,0,0,0,0,0,0,0,0,0,770,770,770,771,771,773,0,0,0,0,0,0,0,0,0,0,0,0,0,0,0,0,0,1258,1261,1261,1261,1261,1261,1274,1279,1284,1290,1317,1351,0,1442,1477,1509,1509,1509,1505,1505,1505,1505,1505,1505,1509,1509,1509,1513,1513,1513,1513,1517,1520,1520,1524,1528,1528,1528,1528,1532,1532,1535,1539,1539,1543,1543,1543,1543,1543,1535,1535,1532,1532,1524,1524,1520,1520,1520,1520,1520,1520,1517,1517,1520,1520,1520,1520,1524,1524,1532,1535,1535,1539,1539,1543,1543,1547,1551,1555,1555,1555,1555,1555,1555,1555,1555,1558,1558,1555
1429,1432,1432,1436,1439,1442,1442,1446,1446,1449,1449,1453,1453,1459,1463,1466,1477,1480,1484,1491,1498,1505,1509,1517,1520,1528,1532,1539,1543,1547,1555,1555,1555,1555,1555,1555,1558,1558,1562,1566,1570,1574,1578,1578,1582,1590,1595,1595,1599,1603,1607,1611,1619,1624,1628,1637,1654,1658,1663,1676,1681,1686,1686,1686,1686,1686,1686,1686,1686,1686,1686,1690,1690,1690,1690,1695,1695,1699,1704,1704,1709,1709,1713,1718,1723,1737,1742,1752,1757,1767,1767,1767,1762,1762,1757,1757,1767,1767,1772,1777,1788,1788,1793,1793,1798,1798,1798,1793,1793,1793,1788,1788,1782,1782,1782,1777,1777,1777,1772,1772,1772,1772,1772,1772,1772,1777,1782,1788,1788,1788,1788,1788,1788,1782,1772,1772,1767,1762,1757,1757,1757,0,0,0,0,0,1211,1216,1223,1223,1228,1233,0,0,0,0,0,0,0,0,1830,1841,1835,1841,1841,1846,1846,1846,1835,1824,1819,1814,1803,1798,1798,1798,1803,1814,1819,1819,1830,1835,1835,1841,1841,1841,1841,1835,1835,1835,1830,0,0,0,0,0,0,0,0,0,0,0,0,0,0,0,0,0,771,772,772,773,774,776,776,0,0,0,0,0,0,0,0,0,0,0,0,0,0,0,0,1256,1256,1258,1258,1258,1261,1271,1279,1284,1290,1320,1351,0,1449,1480,1513,1509,1513,1513,1505,1505,1509,1509,1513,1513,1517,1517,1520,1520,1520,1524,1524,1528,1528,1528,1528,1528,1528,1532,1532,1532,1535,1539,1543,1543,1543,1547,1547,1543,1535,1535,1532,1532,1520,1520,1520,1520,1520,1520,1517,1517,1517,1517,1517,1520,1520,1524,1524,1532,1535,1535,1535,1539,1539,1539,1539,1543,1543,1547,1551,1551,1555,1555,1555,1555,1555,1558,1558,1558
1429,1432,1436,1436,1439,1442,1442,1446,1446,1449,1453,1453,1456,1463,1466,1470,1480,1484,1487,1491,1498,1505,1509,1517,1520,1528,1532,1547,1551,1555,1562,1562,1562,1558,1558,1558,1558,1562,1562,1566,1570,1578,1578,1582,1586,1590,1595,1599,1603,1611,1611,1615,1624,1628,1632,1641,1654,1658,1667,1681,1681,1686,1686,1686,1686,1686,1686,1686,1686,1686,1686,1690,1690,1690,1695,1695,1699,1699,1704,1709,1709,1713,1718,1723,1728,1742,1747,1752,1757,1762,1767,1767,1762,1762,1757,1757,1762,1767,1772,1777,1788,1788,1793,1793,1798,1798,1798,1798,1793,1793,1793,1788,1788,1788,1782,1782,1782,1782,1772,1772,1772,1772,1772,1772,1772,1772,1777,1782,1788,1788,1788,1788,1782,1782,1777,1772,1772,1767,1762,1762,1757,0,0,0,0,0,1216,1219,1226,1223,1231,1233,0,0,0,0,0,1846,1846,1835,1841,1841,1841,1846,1846,1846,1846,1846,1841,1830,1824,1819,1808,1803,1803,1803,1808,1819,1819,1830,1830,1835,1835,1841,1846,1846,1846,1846,1841,1841,1841,1841,0,0,0,0,0,0,0,0,0,0,0,0,0,0,0,0,773,773,773,775,776,777,0,0,0,0,0,0,0,0,0,0,0,0,0,0,0,0,0,1253,1253,1258,1258,1258,1261,1271,1276,1284,1287,1314,1348,0,1449,1484,1517,1513,1517,1513,1509,1509,1509,1513,1513,1517,1520,1520,1524,1524,1524,1528,1528,1528,1528,1528,1528,1528,1528,1528,1532,1532,1535,1539,1539,1543,1543,1547,1547,1543,1539,1535,1532,1528,1524,1524,1520,1520,1517,1520,1520,1517,1517,1517,1520,1520,1524,1528,1528,1532,1535,1539,1535,1539,1535,1539,1539,1539,1539,1543,1547,1547,1547,1551,1551,1555,1555,1555,1558,1558
1429,1432,1436,1436,1439,1442,1446,1446,1449,1453,1453,1456,1459,1463,1466,1470,1480,1484,1487,1491,1502,1502,1505,1513,1520,1528,1532,1547,1551,1558,1566,1566,1562,1562,1558,1558,1562,1562,1566,1570,1574,1582,1582,1586,1590,1599,1603,1607,1607,1615,1615,1619,1628,1632,1637,1641,1654,1658,1667,1676,1681,1686,1686,1686,1686,1686,1686,1686,1686,1686,1686,1690,1690,1690,1695,1695,1699,1699,1704,1709,1713,1713,1723,1723,1733,1742,1747,1752,1757,1762,1762,1762,1757,1757,1757,1757,1762,1767,1772,1777,1788,1788,1793,1793,1798,1798,1798,1798,1798,1793,1793,1788,1788,1788,1788,1782,1782,1782,1777,1772,1772,1772,1772,1772,1772,1772,1772,1777,1782,1782,1788,1788,1782,1782,1777,1777,1772,1772,1767,1767,0,0,0,0,0,0,1221,1223,1228,1228,1236,1238,0,0,0,0,0,1852,1852,1852,1846,1852,1852,1852,1852,1846,1846,1846,1841,1830,1824,1824,1814,1814,1814,1814,1819,1824,1830,1835,1841,1846,1852,1852,1852,1852,1852,1846,1846,1846,0,0,0,0,0,0,0,0,0,0,0,0,0,0,0,0,0,0,774,774,775,776,778,778,0,0,0,1814,1814,1814,0,1803,1788,0,0,0,0,0,0,0,0,1253,1253,1258,1258,1258,1261,1271,1276,1284,1287,1311,1345,0,1449,1484,1520,1517,1517,1517,1513,1509,1509,1513,1517,1517,1520,1520,1524,1524,1528,1528,1528,1528,1528,1528,1524,1524,1524,1528,1528,1532,1532,1539,1539,1543,1543,1543,1543,1539,1539,1535,1532,1528,1520,1520,1520,1517,1517,1520,1520,1520,1517,1520,1524,1524,1528,1532,1532,1535,1539,1539,1539,1539,1535,1535,1535,1535,1535,1535,1535,1539,1543,1543,1547,1547,1551,1555,1558,1558
1432,1432,1436,1436,1439,1442,1446,1446,1449,1453,1456,1459,1459,1466,1470,1473,1480,1484,1487,1491,1498,1502,1505,1513,1517,1524,1532,1547,1555,1558,1566,1566,1566,1562,1562,1562,1562,1566,1570,1574,1578,1582,1586,1590,1595,1603,1607,1607,1611,1615,1619,1624,1628,1632,1637,1641,1654,1658,1663,1672,1676,1681,1676,1676,1676,1676,1676,1676,1676,1676,1676,1686,1686,1690,1695,1699,1699,1704,1709,1709,1713,1718,1723,1728,1733,1742,1747,1752,1752,1757,1757,1757,1757,1757,1757,1757,1757,1767,1772,1777,1788,1788,1793,1793,1798,1798,1798,1798,1798,1798,1798,1793,1793,1793,1793,1793,1793,1793,1782,1782,1777,1777,1772,1772,1772,1772,1772,1777,1782,1782,1788,1788,1788,1788,1782,1777,1777,1772,1767,1767,0,0,0,0,0,0,1221,1223,1228,1228,1236,1238,0,0,0,0,0,1857,1857,1857,1857,1857,1852,1857,1852,1846,1846,1846,1835,1830,1819,1819,1814,1814,1814,1814,1819,1830,1835,1835,1841,1852,1852,1852,1857,1857,1852,1846,1846,1846,1846,1846,0,0,0,0,0,0,0,0,0,0,0,0,0,0,0,0,775,777,777,778,780,780,0,1803,1808,1814,1814,1808,1803,1798,1788,0,0,0,0,0,0,0,0,0,1253,1258,1261,1258,1261,1271,1276,1282,1290,1309,1343,0,1446,1484,1524,1524,1520,1520,1513,1509,1513,1513,1513,1517,1520,1520,1520,1524,1524,1524,1524,1524,1524,1524,1524,1524,1524,1524,1528,1528,1532,1535,1539,1539,1539,1543,1543,1539,1539,1535,1532,1528,1524,1524,1524,1520,1520,1520,1524,1524,1524,1528,1532,1535,1539,1543,1547,1547,1551,1551,1551,1547,1543,1539,1539,1539,1535,1535,1535,1535,1539,1543,1547,1551,1551,1558,1558,1562
1432,1432,1436,1439,1439,1442,1446,1449,1449,1453,1456,1459,1463,1466,1470,1473,1484,1487,1487,1491,1498,1502,1502,1513,1517,1524,1532,1547,1555,1558,1566,1570,1566,1566,1562,1562,1562,1566,1570,1574,1578,1586,1595,1599,1603,1611,1615,1619,1619,1624,1628,1628,1632,1637,1641,1645,1654,1658,1663,1672,1672,1676,1672,1672,1667,1667,1663,1658,1654,1650,1650,1658,1663,1663,1672,1686,1695,1704,1709,1713,1713,1718,1723,1728,1733,1742,1747,1752,1752,1757,1757,1752,1747,1747,1747,1747,1752,1757,1762,1767,1777,1788,1788,1793,1798,1798,1798,1798,1798,1798,1798,1798,1798,1798,1798,1798,1798,1798,1793,1788,1782,1782,1777,1777,1777,1777,1777,1777,1782,1782,1788,1788,1788,1788,1782,1782,1777,1772,1767,1767,0,0,0,0,0,0,1219,1221,1228,1228,1233,1236,0,0,0,0,1863,1863,1868,1868,1863,1863,1857,1863,1857,1852,1846,1841,1830,1824,1819,1814,1808,1808,1808,1808,1814,1824,1830,1835,1830,1830,1830,1835,1835,1841,1841,1841,1841,1846,1846,1841,1841,0,0,0,0,0,0,0,0,0,0,0,0,0,0,0,0,779,779,780,782,0,0,1772,1798,1808,1814,1808,1803,1798,1788,1762,1752,1737,1728,0,0,0,0,1279,1258,1261,1263,1263,1263,1274,1279,1284,1290,1306,1340,0,0,1487,1539,1535,1535,1524,1520,1513,1513,1513,1513,1517,1520,1520,1520,1520,1524,1524,1524,1524,1524,1524,1524,1524,1524,1524,1528,1528,1532,1535,1539,1539,1539,1543,1543,1543,1535,1535,1532,1532,1528,1524,1524,1524,1524,1524,1524,1528,1528,1532,1535,1539,1543,1551,1555,1555,1558,1558,1558,1555,1551,1547,1543,1543,1539,1539,1539,1539,1539,1547,1547,1551,1555,1558,1562,1562
1432,1432,1439,1439,1442,1446,1446,1449,1453,1456,1459,1463,1466,1470,1473,1477,1484,1487,1491,1495,1502,1502,1505,1513,1520,1528,1535,1551,1558,1562,1570,1574,1570,1570,1570,1570,1570,1570,1578,1582,1586,1590,1599,1603,1607,1615,1619,1619,1624,1628,1628,1632,1637,1637,1641,1641,1654,1654,1658,1658,1667,1667,1667,1663,1658,1654,1641,1632,1624,1615,1611,1619,1628,1637,1645,1672,1686,1699,1709,1713,1713,1718,1723,1728,1733,1737,1742,1747,1747,1747,1747,1747,1737,1737,1733,1733,1737,1742,1752,1757,1772,1777,1782,1788,1793,1798,1798,1798,1798,1798,1798,1798,1798,1803,1803,1803,1798,1798,1793,1793,1788,1782,1782,1782,1782,1777,1777,1782,1782,1788,1788,1782,1782,1782,1777,1777,1772,1767,1762,1762,1757,0,0,0,0,0,1219,1221,1226,1226,1228,1231,1238,1241,0,0,1874,1874,1874,1874,1868,1868,1863,1863,1852,1835,1835,1830,1814,1808,1803,1798,1793,1793,1793,1793,1798,1808,1808,1814,1814,1819,1819,1824,1824,1830,1830,1830,1835,1841,1841,1841,0,0,0,0,0,0,0,0,0,0,0,0,0,0,0,0,0,0,0,0,0,0,0,1762,1793,1803,1814,1808,1803,1798,1788,1767,1757,1742,1733,0,0,0,0,1292,1263,1266,1266,1263,1266,1274,1279,1284,1292,1303,1340,0,0,1487,1543,1539,1539,1528,1524,1517,1517,1513,1517,1517,1520,1520,1520,1520,1520,1520,1524,1524,1524,1524,1524,1524,1524,1528,1528,1532,1532,1539,1539,1539,1543,1543,1539,1539,1535,1535,1535,1532,1528,1528,1524,1524,1524,1528,1528,1528,1528,1535,1539,1543,1547,1555,1558,1558,1562,1562,1558,1558,1555,1551,1547,1547,1543,1539,1539,1539,1539,1547,1547,1551,1555,1558,1562,1562
1432,1432,1439,1439,1442,1446,1449,1449,1453,1459,1463,1463,1466,1473,1477,1480,1487,1491,1491,1498,1502,1505,1509,1517,1520,1528,1535,1551,1558,1566,1574,1574,1574,1570,1574,1574,1574,1574,1582,1586,1586,1595,1599,1603,1611,1615,1619,1624,1624,1628,1628,1632,1632,1632,1637,1637,1650,1650,1654,1654,1658,1663,1658,1650,1641,1637,1619,1603,1590,1578,1570,1570,1586,1599,1615,1654,1667,1686,1709,1709,1709,1713,1709,1704,1709,1709,1713,1713,1713,1713,1709,1709,1704,1699,1699,1699,1704,1713,1718,1728,1737,1757,1762,1772,1788,1793,1793,1798,1798,1803,1803,1803,1803,1803,1803,1803,1803,1803,1798,1793,1793,1788,1782,1782,1782,1782,1782,1777,1777,1777,1777,1777,1777,1777,1772,1767,1767,1762,1762,1757,1742,0,0,0,0,0,1223,1226,1226,1226,1228,1231,1238,1241,0,1863,1868,1874,1874,1874,1880,1874,1868,1868,1852,1830,1824,1819,1803,1793,1788,1788,1782,1788,1788,1788,1793,1803,1808,1808,1814,1819,1814,1819,1819,1824,1830,1830,1835,1841,1841,1841,0,0,0,0,0,0,0,0,0,0,0,0,0,0,0,0,0,0,0,0,0,0,0,1747,1788,1798,1814,1808,1803,1798,1788,1762,1757,1737,1733,0,0,0,0,0,1263,1266,1266,1266,1268,1274,1279,1284,1290,1300,1337,0,0,1491,1551,1547,1543,1532,1528,1520,1513,1513,1517,1517,1517,1517,1520,1520,1520,1520,1524,1524,1524,1524,1524,1524,1524,1528,1532,1532,1535,1539,1539,1539,1539,1539,1539,1539,1535,1535,1535,1532,1528,1528,1528,1528,1528,1528,1532,1532,1532,1539,1543,1543,1547,1558,1558,1558,1562,1562,1562,1558,1555,1551,1547,1547,1543,1543,1539,1539,1543,1547,1547,1551,1555,1558,1562,1562
1432,1432,1439,1442,1442,1446,1449,1453,1453,1459,1463,1466,1466,1473,1477,1484,1491,1495,1498,1502,1505,1509,1513,1520,1524,1532,1539,1555,1562,1566,1574,1578,1574,1574,1574,1574,1574,1578,1582,1586,1590,1599,1603,1607,1611,1615,1619,1624,1624,1624,1624,1624,1624,1628,1628,1632,1641,1641,1645,1645,1645,1645,1641,1624,1607,1590,1574,1535,1555,1539,1491,1487,1505,1520,1578,1558,1611,1637,1654,1676,1686,1690,1690,1690,1690,1690,1695,1695,1695,1695,1690,1690,1681,1681,1681,1681,1686,1695,1704,1713,1723,1742,1752,1762,1777,1782,1788,1793,1798,1798,1803,1803,1803,1808,1808,1808,1808,1808,1803,1798,1793,1793,1788,1788,1782,1777,1777,1777,1777,1777,1772,1772,1772,1767,1762,1762,1757,1757,1742,1728,1699,0,0,0,0,0,1231,1228,1228,1226,1228,1231,1243,1248,0,1808,1808,1808,1835,1841,1852,1857,1852,1852,1841,1824,1819,1814,1793,1788,1777,1772,1772,1772,1777,1777,1782,1798,1803,1803,1808,1808,1808,1808,1808,1814,1819,1819,1824,1841,0,0,0,0,0,0,0,0,0,0,0,0,0,0,0,0,0,0,0,0,0,0,0,0,0,1728,1777,1793,1808,1808,1803,1793,1782,1762,1742,1733,1723,1704,0,0,0,0,1266,1268,1268,1266,1266,1271,1279,1284,1290,1298,1337,0,0,1491,1555,1551,1547,1535,1528,1520,1517,1513,1513,1513,1513,1513,1513,1513,1513,1517,1517,1517,1520,1520,1524,1524,1524,1528,1532,1532,1535,1539,1539,1539,1543,1539,1539,1535,1535,1535,1532,1532,1532,1532,1532,1532,1532,1535,1539,1539,1539,1543,1547,1547,1555,1558,1558,1558,1562,1558,1558,1558,1555,1551,1547,1547,1543,1543,1543,1543,1543,1547,1551,1555,1555,1558,1562,1562
1432,1436,1439,1442,1446,1446,1449,1453,1456,1459,1463,1466,1470,1477,1480,1484,1495,1498,1502,1505,1509,1513,1517,1524,1532,1535,1543,1555,1562,1570,1574,1578,1578,1578,1578,1582,1582,1582,1586,1590,1595,1599,1603,1607,1607,1615,1615,1615,1619,1619,1619,1619,1619,1619,1619,1624,1632,1637,1637,1637,1637,1637,1632,1603,1586,1566,0,0,1477,1459,1449,1449,1456,1480,1502,1547,1570,1595,1615,1641,1650,1654,1663,1667,1667,1667,1672,1676,1676,1672,1672,1667,1667,1663,1658,1663,1663,1676,1681,1695,1704,1728,1737,1747,1767,1772,1782,1788,1793,1798,1798,1803,1803,1808,1808,1808,1808,1808,1798,1798,1793,1793,1788,1782,1777,1777,1772,1772,1767,1767,1767,1762,1762,1757,1752,1752,1752,1747,1709,1686,1654,0,0,0,0,0,1241,1233,1231,1231,1228,1233,1243,1251,0,1772,1767,1777,1803,1819,1841,1830,1824,1835,1841,1819,1814,1808,1788,1777,1767,1767,1767,1767,1752,1752,1757,1772,1782,1782,1782,1788,1782,1782,1767,1757,1757,1762,1762,0,0,0,0,0,0,0,0,0,0,0,0,1096,1098,1100,0,0,0,0,1477,1480,1487,1517,1547,1586,1654,1681,1713,1762,1788,1788,1777,1772,1762,1742,1733,1718,1709,1695,0,0,0,1320,1263,1266,1266,1266,1266,1271,1279,1284,1290,1298,1340,0,0,1502,1570,1562,1558,1543,1535,1524,1517,1513,1513,1509,1509,1509,1513,1513,1513,1513,1513,1513,1517,1520,1524,1524,1528,1528,1535,1535,1539,1539,1543,1543,1543,1539,1539,1539,1535,1535,1535,1535,1535,1535,1535,1535,1539,1539,1539,1543,1543,1547,1547,1547,1551,1551,1555,1558,1555,1555,1551,1551,1547,1547,1543,1543,1543,1547,1547,1547,1547,1551,1551,1555,1555,1558,1558,1562
1432,1436,1442,1446,1449,1449,1456,1456,1459,1463,1466,1470,1473,1484,1487,1495,1502,1509,1509,1517,1524,1528,1528,1535,1539,1543,1547,1558,1566,1570,1578,1582,1582,1582,1582,1582,1586,1586,1586,1590,1595,1599,1603,1607,1607,1611,1615,1615,1615,1615,1615,1615,1615,1615,1615,1619,1624,1628,1628,1628,1628,1624,1619,1582,1558,1535,0,1487,1439,1423,1416,1413,1419,1442,1459,1484,1532,1551,1574,1603,1611,1619,1628,1637,1641,1645,1650,1654,1654,1654,1650,1650,1645,1645,1641,1641,1645,1650,1663,1672,1681,1709,1718,1733,1757,1767,1772,1782,1793,1793,1798,1798,1803,1808,1808,1808,1808,1803,1798,1798,1793,1793,1788,1782,1777,1772,1767,1762,1762,1757,1752,1747,1747,1737,1723,1713,1704,1686,1663,1624,1590,0,0,0,1298,1256,1248,1238,1233,1231,1231,1236,1251,1261,1290,0,1590,0,0,0,0,0,0,0,1814,1793,1793,1788,1777,1737,1733,1728,1728,1733,0,0,0,0,0,0,0,0,0,0,0,0,0,0,0,0,0,0,0,0,0,0,0,0,0,1096,1094,1096,1098,1100,1102,0,0,1470,1473,1477,1484,1509,1535,1566,1628,1654,1686,1737,1757,1762,1762,1752,1742,1723,1713,1699,1695,1681,0,0,0,0,1261,1263,1263,1263,1261,1268,1279,1287,1292,1300,1343,0,0,1513,1578,1570,1562,1547,1535,1524,1517,1509,1509,1509,1509,1505,1505,1509,1509,1509,1513,1513,1517,1517,1520,1524,1528,1528,1535,1535,1539,1543,1543,1543,1543,1539,1539,1539,1539,1535,1535,1535,1535,1535,1535,1539,1539,1539,1543,1543,1543,1547,1547,1547,1547,1547,1547,1551,1551,1547,1543,1543,1543,1539,1539,1543,1543,1547,1547,1547,1547,1551,1551,1555,1555,1558,1558,1558
1436,1439,1446,1446,1449,1453,1456,1459,1459,1466,1470,1473,1477,1487,1495,1498,1509,1513,1517,1524,1528,1532,1535,1539,1543,1547,1551,1562,1566,1570,1578,1582,1586,1586,1586,1586,1586,1586,1590,1590,1595,1599,1599,1603,1603,1607,1607,1607,1607,1611,1611,1607,1611,1607,1611,1611,1619,1619,1619,1615,1607,1603,1595,1551,1520,0,0,1449,1426,1394,1388,1388,1388,1413,1406,1419,1436,1480,1502,1532,1543,1551,1562,1578,1582,1590,1599,1607,1611,1611,1611,1611,1607,1607,1607,1603,1607,1611,1624,1637,1645,1672,1686,1699,1718,1742,1752,1762,1777,1782,1788,1788,1798,1798,1798,1803,1803,1803,1798,1793,1793,1788,1788,1782,1777,1772,1767,1762,1757,1752,1742,1737,1733,1728,1704,1690,1672,1650,1624,0,0,0,1403,1351,1314,1279,1263,1248,1241,1238,1236,1243,1266,1282,1303,1432,1532,1562,0,1590,1607,0,0,0,0,0,1737,1737,1728,1723,1713,1713,1713,1713,0,0,0,0,0,0,0,0,0,0,0,1690,1686,0,0,0,0,0,0,0,0,0,0,0,1098,1096,1098,1098,1100,1100,1102,1104,1140,1470,1470,1473,1477,1502,1524,1547,1603,1628,1658,1704,1723,1728,1733,1723,1718,1709,1690,1681,1676,1667,0,0,0,0,1258,1261,1261,1263,1258,1268,1276,1287,1295,1298,1345,0,0,1524,1582,1574,1558,1547,1535,1524,1517,1509,1505,1505,1505,1505,1505,1505,1505,1509,1509,1513,1513,1517,1520,1524,1528,1528,1535,1535,1539,1539,1543,1543,1543,1539,1539,1539,1539,1535,1535,1535,1535,1535,1535,1539,1539,1543,1543,1543,1547,1543,1547,1543,1539,1535,1535,1535,1535,1532,1532,1528,1532,1535,1535,1535,1539,1543,1547,1547,1547,1551,1551,1551,1551,1555,1555,1555
1436,1439,1446,1449,1453,1453,1459,1459,1463,1470,1473,1477,1480,1491,1495,1502,1513,1517,1524,1528,1532,1535,1539,1543,1547,1551,1555,1566,1570,1574,1582,1586,1586,1586,1590,1590,1590,1590,1590,1590,1590,1590,1590,1590,1590,1590,1590,1590,1590,1590,1595,1590,1595,1595,1595,1595,1595,1586,1578,1566,1539,1524,1505,1487,1466,1429,1413,1397,1381,1366,1366,1366,1366,1372,1391,1403,1416,1449,1470,1487,1509,1520,1532,1547,1555,1562,1570,1582,1586,1590,1590,1590,1590,1590,1590,1590,1595,1599,1611,1619,1628,1654,1667,1686,1699,1733,1742,1752,1772,1777,1782,1788,1793,1798,1798,1798,1798,1798,1798,1793,1793,1788,1788,1782,1777,1772,1767,1757,1757,1752,1742,1728,1723,1713,1699,1663,1645,0,0,0,1480,1436,1391,1345,1311,1282,1268,1251,1243,1241,1241,1251,1276,1292,1317,0,1446,1502,0,1477,0,1505,0,0,0,0,0,0,0,0,0,0,0,0,0,0,0,0,0,0,0,0,0,0,0,0,0,1641,1624,1599,0,0,0,0,0,0,0,0,1100,1098,1100,1100,1102,1104,1104,1106,1120,1429,1459,1470,1473,1495,1513,1532,1578,1599,1628,1672,1690,1699,1667,1667,1663,1658,1650,1641,1637,1619,0,0,0,0,1256,1258,1258,1258,1253,1266,1276,1287,1292,1300,1345,0,0,1532,1586,1578,1566,1547,1535,1524,1517,1505,1502,1502,1502,1498,1502,1502,1502,1502,1509,1509,1513,1517,1520,1524,1528,1528,1535,1535,1539,1539,1539,1543,1539,1539,1539,1539,1539,1539,1535,1539,1539,1539,1543,1547,1547,1551,1555,1551,1547,1551,1547,1547,1539,1535,1532,1532,1532,1524,1524,1524,1528,1528,1532,1535,1535,1543,1543,1547,1547,1551,1551,1551,1551,1551,1555,1551
1439,1442,1446,1449,1453,1456,1459,1463,1466,1470,1477,1480,1484,1491,1498,1505,1513,1520,1524,1528,1535,1539,1543,1547,1547,1551,1555,1562,1570,1574,1582,1586,1590,1590,1590,1590,1590,1586,1586,1586,1582,1582,1582,1582,1582,1582,1582,1582,1582,1582,1586,1582,1578,1578,1574,1570,1558,1547,1532,1520,1495,1480,1463,1446,1429,1406,1394,1381,1372,1360,1360,1360,1363,1366,1378,1388,1397,1423,1439,1453,1480,1491,1502,1509,1528,1535,1543,1562,1566,1570,1574,1578,1578,1578,1582,1582,1586,1590,1603,1607,1615,1628,1658,1672,1690,1718,1733,1747,1767,1772,1777,1782,1793,1793,1798,1798,1798,1798,1798,1793,1793,1788,1788,1782,1777,1772,1767,1762,1757,1752,1737,1728,1718,1699,1686,1667,0,0,1558,1524,1459,1419,1378,1340,1311,1287,1271,1253,1246,1243,1246,1268,1284,1303,1354,1378,1410,1442,1449,0,0,0,0,1505,0,1599,1628,1681,1663,1672,1681,1686,1690,1690,1695,1695,1695,1699,1704,1699,1695,1681,1667,1650,1628,1599,1574,0,0,0,0,0,0,0,0,0,0,1100,1102,1100,1102,1102,1104,1106,1108,1108,1122,1351,1436,1459,1459,1473,1480,1495,1509,1547,1566,1586,1624,1632,1637,1637,1637,1632,1628,1619,1615,1599,1543,0,0,0,1256,1256,1258,1256,1253,1263,1274,1287,1292,1311,1360,0,0,1566,1615,1603,1574,1555,1543,1528,1513,1505,1502,1498,1498,1498,1498,1502,1502,1505,1509,1509,1513,1517,1524,1524,1528,1532,1535,1535,1539,1539,1539,1539,1539,1539,1539,1539,1539,1535,1535,1535,1539,1543,1547,1551,1551,1555,1558,1558,1555,1551,1551,1551,1543,1539,1535,1535,1535,1528,1528,1524,1528,1532,1535,1535,1539,1543,1547,1551,1551,1551,1555,1555,1551,1551,1551,1555
1442,1446,1453,1453,1456,1459,1463,1466,1470,1477,1480,1484,1487,1498,1502,1505,1517,1524,1528,1532,1535,1539,1539,1543,1547,1551,1555,1562,1566,1574,1582,1586,1586,1590,1590,1586,1586,1582,1578,1578,1578,1574,1574,1574,1574,1574,1574,1574,1574,1574,1574,1570,1562,1555,1547,1539,1517,1502,1487,1473,1463,0,0,1413,1400,1385,1375,1366,1360,1354,1354,1357,1360,1363,1372,1381,1388,1406,1419,1432,1442,1466,1477,1487,1509,1520,1528,1547,1555,1562,1562,1566,1570,1574,1574,1578,1578,1582,1590,1599,1607,1615,1645,1663,1676,1713,1728,1742,1762,1772,1772,1777,1788,1793,1793,1798,1798,1798,1798,1793,1793,1788,1788,1782,1777,1777,1767,1767,1762,1757,1742,1728,1709,1686,1663,1607,1574,1539,1509,1477,1456,1400,1369,1334,1311,1290,1271,1256,1248,1246,1251,1276,1295,1314,1360,1388,1413,1442,1449,1453,1456,1466,1477,1487,1520,1543,1566,1611,1628,1645,1654,1672,1676,1681,1690,1686,1690,1695,1690,1686,1681,1663,1650,1632,1607,1578,0,0,0,0,0,0,0,0,0,0,0,1136,1116,1106,1108,1108,1110,1112,1118,1124,1128,1403,1426,1456,1453,1463,1466,1473,1487,1517,1535,1555,1590,1603,1607,1611,1611,1607,1603,1595,1590,1578,0,0,0,0,1258,1256,1258,1253,1251,1263,1274,1287,1290,1317,1369,0,1582,1637,1628,1615,1582,1562,1547,1532,1517,1505,1502,1498,1502,1502,1502,1502,1505,1505,1513,1513,1517,1520,1524,1528,1532,1532,1535,1535,1535,1535,1535,1539,1539,1535,1535,1535,1535,1535,1532,1535,1539,1543,1551,1555,1555,1562,1562,1562,1558,1555,1555,1555,1551,1543,1539,1539,1539,1532,1532,1528,1532,1535,1539,1539,1539,1551,1551,1555,1555,1558,1558,1555,1555,1555,1551,1555
1446,1446,1453,1453,1456,1459,1466,1466,1470,1477,1480,1484,1487,1495,1502,1505,1517,1520,1524,1528,1532,1535,1535,1539,1543,1547,1547,1558,1562,1570,1574,1582,1582,1582,1578,1578,1578,1574,1570,1570,1566,1566,1566,1562,1562,1562,1562,1562,1558,1558,1558,1555,1539,1528,1517,1505,1491,1463,0,0,0,1403,1394,1385,1375,1366,1345,1345,1343,1345,1348,1351,1351,1354,1366,1372,1378,1394,1403,1410,1419,1436,1442,1453,1477,1487,1498,1509,1532,1539,1543,1555,1558,1562,1566,1570,1570,1574,1582,1586,1590,1599,1628,1645,1663,1699,1718,1733,1757,1762,1767,1772,1782,1788,1793,1793,1798,1798,1798,1798,1798,1793,1793,1788,1788,1782,1777,1777,1772,1767,1747,1728,1704,1681,1654,1590,1555,1524,1495,1466,1449,0,1375,1340,0,1290,1271,1256,1248,1248,1256,1284,1303,1325,1369,1394,1419,1442,1446,1453,1453,1466,1473,1480,1505,1520,1539,1578,1599,1611,1628,1654,1663,1672,1676,1672,1676,1681,1676,1676,1672,1658,1637,1615,1590,1562,0,0,1459,0,0,0,0,0,0,0,0,0,0,1112,1110,1112,1114,1116,1122,1142,1168,0,0,0,1449,1456,1456,1459,1470,1491,1509,1528,1562,1570,1578,1582,1582,1582,1582,1574,1566,1551,0,0,0,0,1266,1261,1258,1256,1253,1263,1274,1287,1290,1325,1375,0,1599,1654,1645,1624,1590,1570,1551,1532,1517,1505,1505,1502,1502,1502,1505,1505,1509,1509,1513,1517,1520,1520,1528,1528,1532,1532,1532,1532,1532,1532,1532,1532,1532,1532,1532,1532,1532,1532,1532,1535,1539,1547,1551,1555,1558,1562,1566,1566,1562,1562,1558,1558,1551,1547,1543,1543,1539,1539,1539,1535,1539,1539,1543,1547,1551,1555,1558,1558,1558,1558,1558,1558,1555,1555,1555,1555
1446,1449,1453,1456,1459,1463,1466,1470,1470,1477,1480,1484,1487,1491,1498,1502,1509,1513,1517,1520,1524,1524,1524,1528,1528,1532,1535,1543,1547,1551,1555,1558,1562,1558,1555,1555,1555,1551,1547,1547,1543,1539,1543,1539,1539,1535,1535,1535,1532,1520,1517,1505,1495,1466,1453,1439,1423,1406,1378,1363,1351,1345,1334,1331,1331,1331,1334,1337,1337,1337,1343,1345,1348,1351,1363,1369,1378,1385,1400,1410,1416,1432,1436,1446,1466,1473,1484,1495,1517,1528,1535,1547,1551,1555,1562,1566,1570,1570,1578,1582,1586,1595,1624,1641,1658,1695,1713,1733,1757,1762,1767,1772,1782,1788,1793,1793,1798,1798,1803,1803,1798,1798,1793,1788,1788,1782,1777,1777,1772,1767,1747,1723,1699,1672,1641,1578,1543,1517,1491,1470,1456,1413,0,0,0,1290,1266,1253,1248,1246,1253,1284,1300,1323,1366,1391,1413,1436,1442,1449,1456,1463,1470,1477,1495,1509,1524,1539,1574,1582,1599,1628,1641,1650,1663,1663,1676,1676,1672,1672,1672,1658,1637,1615,1595,1570,1517,1491,1463,1449,1439,0,0,0,0,0,0,0,0,1116,1116,1118,1118,1120,1126,1140,1159,0,0,1456,1449,1449,1446,1449,1453,1463,1477,1491,1505,1535,1547,1547,1555,1555,1558,1547,1547,1528,0,0,0,1337,1271,1263,1261,1256,1253,1263,1274,1284,1290,1331,1388,0,1555,1676,1658,1641,1619,1574,1551,1532,1520,1505,1505,1505,1505,1505,1509,1509,1509,1513,1520,1520,1524,1528,1532,1535,1535,1532,1532,1532,1532,1528,1528,1532,1528,1532,1532,1532,1532,1535,1539,1543,1547,1555,1562,1566,1566,1574,1574,1574,1570,1566,1566,1566,1558,1555,1555,1555,1555,1555,1555,1555,1555,1558,1562,1562,1562,1566,1566,1566,1566,1566,1566,1562,1562,1558,1558,1555
1449,1453,1456,1459,1463,1463,1470,1470,1473,1477,1480,1480,1484,1491,1491,1495,1502,1505,1509,1513,1513,1517,1517,1520,1524,1524,1528,1535,1539,1543,1543,1547,1547,1547,1543,1543,1539,1535,1535,1532,1532,1524,1528,1524,1520,1517,1513,1513,1509,1498,1487,1477,1466,1436,1423,1406,1391,1375,1348,1340,1328,1323,1314,1317,1317,1314,1320,1328,1331,1334,1337,1345,1348,1351,1363,1369,1378,1385,1400,1410,1416,1429,1436,1439,1456,1466,1473,1484,1505,1517,1524,1535,1543,1551,1555,1566,1566,1570,1578,1582,1586,1590,1619,1637,1654,1695,1713,1728,1757,1762,1767,1772,1782,1782,1793,1798,1798,1803,1803,1803,1798,1793,1788,1782,1782,1777,1772,1767,1762,1762,1737,1713,1690,1658,1628,1599,1543,1513,1491,1473,1463,1419,0,0,0,1290,1263,1251,1243,1243,1248,1258,1295,1314,1360,1385,1406,1432,1439,1446,1449,1459,1459,1466,1470,1480,1491,1498,1517,1528,1543,1603,1590,1603,1619,1637,1654,1654,1650,0,0,1637,1619,1607,1586,1547,1505,1484,1459,1442,1439,0,0,0,1388,1331,0,0,0,1122,1120,1122,1124,1124,1126,1136,1151,0,1463,1466,1453,1449,1439,1436,1439,1456,1466,1480,1495,1524,1535,1539,1547,1547,1551,1543,1539,1520,1495,1453,0,0,1282,1268,1266,1258,1256,1266,1274,1284,1290,1343,1400,0,1582,1709,1686,1663,1637,1582,1555,1532,1520,1509,1509,1509,1509,1509,1513,1517,1517,1520,1524,1528,1528,1532,1535,1535,1535,1532,1532,1528,1528,1528,1528,1528,1528,1528,1528,1528,1532,1535,1543,1547,1551,1562,1566,1570,1574,1578,1578,1582,1574,1574,1570,1570,1566,1562,1562,1562,1562,1562,1562,1562,1562,1570,1570,1570,1570,1570,1570,1570,1570,1566,1566,1566,1562,1562,1558,1558
1453,1456,1459,1463,1463,1466,1470,1473,1473,1477,1477,1480,1480,1484,1487,1491,1495,1498,1502,1502,1509,1509,1509,1513,1517,1517,1520,1524,1528,1532,1532,1535,1535,1535,1528,1528,1528,1524,1524,1520,1517,1513,1513,1509,1509,1502,1498,1495,1487,1473,1463,1453,1439,1423,1394,1375,1363,1348,1328,1320,1311,1311,1306,1309,1311,1311,1314,1323,1325,1331,1337,1345,1348,1351,1363,1372,1378,1388,1400,1410,1416,1429,1432,1439,1453,1459,1466,1477,1495,1505,1513,1524,1532,1543,1547,1562,1566,1570,1574,1578,1586,1586,1615,1637,1650,1690,1713,1728,1757,1762,1767,1772,1782,1788,1793,1798,1803,1803,1808,1803,1798,1793,1782,1777,1767,1762,1752,1742,1733,1723,1713,1672,1654,1628,1603,1578,1532,1509,1491,1473,1459,1419,1385,0,1317,1290,1266,1246,1238,1236,1238,1248,1279,1298,1317,1363,1385,1403,1423,1432,1439,1449,1453,1456,1459,1470,1473,1477,1491,1502,1513,0,0,1574,1590,1615,1628,1632,1632,0,0,1637,0,0,0,1532,1513,1473,1456,1442,1439,1426,0,1419,0,0,1282,0,0,1132,1130,1130,1130,1132,1144,1147,0,0,1480,1484,1463,1453,1439,1432,1436,1446,1459,1473,1484,1520,1528,1535,1543,1543,1547,1543,1535,1517,1491,1456,1410,1357,1309,1274,1271,1263,1258,1263,1274,1284,1290,1357,1413,0,1599,1728,1704,1676,1645,1586,1555,1532,1520,1513,1513,1513,1513,1513,1517,1520,1520,1524,1528,1528,1532,1535,1535,1535,1535,1532,1532,1528,1528,1524,1524,1524,1524,1528,1528,1532,1532,1539,1547,1555,1558,1570,1574,1578,1578,1578,1586,1582,1578,1574,1574,1570,1566,1566,1566,1566,1566,1566,1566,1566,1570,1570,1574,1574,1574,1574,1574,1574,1570,1570,1570,1566,1566,1566,1562,1562
1456,1459,1463,1466,1466,1466,1470,1470,1470,1473,1473,1473,1473,1480,1480,1484,1487,1491,1491,1495,1498,1502,1502,1502,1505,1505,1509,1517,1517,1520,1520,1520,1524,1524,1517,1517,1517,1513,1509,1509,1505,1505,1502,1498,1498,1484,1480,1477,1470,1459,1439,1426,1410,1397,1363,1331,1323,1317,1311,1306,1303,1303,1303,1303,1303,1306,1309,1317,1320,1325,1331,1343,1348,1351,1366,1375,1381,1388,1403,1410,1419,1429,1432,1439,1442,1456,1459,1466,1480,1484,1491,1498,1513,1524,1535,1551,1558,1566,1574,1578,1582,1586,1611,1632,1650,1686,1709,1728,1742,1762,1767,1772,1782,1788,1793,1798,1808,1808,1808,1808,1798,1793,1782,1767,1752,1737,1723,1704,1695,1681,1672,1637,1619,0,1578,1562,1520,1502,1487,1470,1456,1410,0,0,0,1292,1266,1243,1236,1231,1231,1238,1268,1287,1306,1351,1375,1391,1416,1423,1432,1446,1446,1453,1453,1459,1459,1463,1470,1477,1487,1502,1528,1547,1566,0,1603,1607,0,0,0,0,0,0,0,0,0,0,0,0,0,1429,1426,0,0,1366,0,0,0,1136,1134,1134,1134,1134,1147,0,1513,1505,1491,1491,1470,1456,1442,1436,1432,1442,1453,1463,1480,1509,1524,1532,1539,1543,1547,1539,1535,1513,0,1456,0,0,1317,1279,1274,1266,1258,1266,1274,1284,1292,1369,1426,0,1615,1742,1713,1686,1654,1590,1558,1532,1520,1513,1513,1513,1517,1517,1520,1520,1524,1524,1528,1532,1532,1535,1535,1535,1532,1528,1524,1524,1524,1520,1524,1524,1524,1524,1528,1532,1535,1543,1551,1558,1562,1574,1578,1578,1582,1582,1582,1582,1578,1574,1570,1570,1566,1566,1566,1566,1570,1570,1570,1570,1574,1574,1574,1574,1574,1574,1574,1574,1574,1570,1570,1574,1570,1570,1566,1566
1459,1463,1466,1466,1466,1466,1466,1466,1466,1466,1466,1466,1466,1470,1470,1473,1473,1477,1480,1480,1484,1487,1487,1487,1491,1491,1491,1495,1498,1498,1498,1498,1498,1495,1495,1491,1491,1491,1487,1487,1487,1484,1473,1470,1463,1456,1442,1432,1426,1413,1391,1378,1366,1354,1340,1320,1314,1309,1309,1303,1300,1300,1300,1298,1300,1303,1306,1314,1317,1323,1331,1340,1348,1354,1369,1378,1385,1394,1406,1416,1423,1432,1436,1439,1446,1453,1456,1459,1470,1477,1484,1491,1505,1517,1524,1543,1551,1558,1566,1578,1582,1586,1611,1628,1645,1686,1704,1723,1742,1762,1767,1772,1782,1793,1798,1798,1808,1808,1808,1808,1798,1788,1782,1747,1728,1709,1690,1663,1650,1637,1628,1615,1586,1570,1555,1539,1505,1495,1480,1466,1453,1403,1381,0,1325,1295,1268,1241,1231,1226,1226,1231,1261,1276,1295,1340,1363,1381,1406,1416,1423,1436,1439,1446,1446,1446,1446,1446,1446,1456,1463,1473,1498,0,0,0,1578,1578,0,0,0,0,0,0,0,0,0,0,0,0,0,0,1426,0,1423,1366,0,0,0,1138,1138,1136,1136,1138,1151,0,1517,1513,1498,1498,1477,1466,1449,1439,1436,1432,1446,1453,1466,1495,1513,1524,1535,1539,1543,1539,1532,1513,1484,1453,1416,1325,1292,1276,1271,1266,1258,1263,1271,1279,1295,1375,1432,0,1624,1752,1718,1690,1658,1590,1558,1532,1524,1517,1513,1517,1517,1517,1520,1524,1524,1528,1528,1532,1532,1532,1532,1532,1532,1524,1520,1520,1520,1517,1520,1520,1520,1524,1528,1535,1539,1547,1562,1570,1578,1586,1586,1590,1586,1586,1586,1582,1574,1570,1566,1566,1566,1566,1566,1566,1570,1574,1574,1574,1574,1578,1578,1578,1578,1578,1578,1574,1574,1574,1574,1574,1570,1570,1570,1570
1459,1466,1466,1466,1466,1466,1466,1463,1463,1463,1463,1463,1463,1463,1466,1466,1466,1473,1473,1477,1477,1480,1480,1484,1484,1484,1487,1487,1491,1491,1487,1487,1487,1487,1484,1484,1484,1480,1480,1480,1477,1473,1459,1453,1446,1439,1423,1416,1406,1394,1375,1360,1351,1340,1328,1314,1309,1306,1303,1300,1298,1298,1298,1295,1298,1298,1300,1311,1314,1320,1328,1340,1345,1354,1369,1378,1385,1394,1410,1416,1423,1436,1439,1442,1446,1456,1456,1459,1466,1473,1477,1484,1498,1505,1517,1535,1547,1555,1562,1574,1578,1586,1607,1628,1641,1681,1704,1718,1742,1762,1767,1772,1782,1793,1798,1798,1808,1808,1814,1803,1793,1782,1767,1728,1704,1676,1654,1637,1611,1599,1586,1574,1555,1543,1532,1520,1495,1487,1473,1463,1446,1400,1378,1354,1328,1298,1271,1241,1228,1223,1219,1226,1251,1268,1287,1317,1337,1357,1388,1397,1406,1423,1429,1436,1439,1442,1442,1442,1442,1446,1453,1456,1473,1487,1505,1520,1547,1555,1558,0,0,0,0,0,0,0,0,0,0,0,0,1426,0,1429,1426,1360,0,0,0,1142,1140,1140,1140,1140,0,0,1419,1509,1498,1513,1495,1480,1466,1453,1442,1436,1439,1449,1459,1487,1505,1520,1535,1539,1543,1539,1535,1513,1480,0,0,1325,1292,0,1274,1266,1256,1261,1268,1276,1298,1385,1446,1586,1650,1762,1733,1699,0,1595,1562,1532,1528,1517,1517,1520,1520,1524,1524,1528,1528,1528,1528,1528,1532,1532,1532,1528,1524,1520,1517,1513,1517,1517,1513,1517,1520,1524,1532,1535,1543,1551,1566,1574,1578,1590,1590,1590,1586,1586,1586,1578,1570,1566,1562,1562,1562,1562,1562,1566,1570,1574,1574,1574,1574,1578,1578,1578,1578,1578,1578,1574,1574,1574,1574,1574,1574,1574,1574,1574
1463,1466,1466,1466,1466,1463,1463,1459,1459,1459,1459,1459,1459,1459,1459,1463,1463,1466,1470,1470,1470,1473,1473,1477,1477,1480,1480,1480,1480,1480,1480,1480,1480,1477,1477,1477,1477,1477,1473,1473,1466,1459,1446,1439,1432,1423,1403,1397,1388,1378,1369,1348,1340,1328,1320,1309,1306,1303,1300,1298,1298,1295,1295,1292,1295,1295,1298,1306,1311,1317,1323,1337,1343,1351,1366,1375,1385,1394,1410,1416,1426,1436,1442,1446,1449,1453,1456,1459,1463,1466,1470,1477,1487,1498,1509,1532,1539,1551,1558,1570,1574,1578,1603,1619,1637,1676,1699,1718,1737,1767,1767,1772,1788,1793,1798,1803,1808,1808,1814,1803,1788,1777,1747,1686,1676,1645,1586,1562,1535,1524,1517,1509,1505,1498,1495,1487,1480,1473,1466,1456,1442,1400,1378,1360,1331,1300,1274,1236,1223,1216,1214,1219,1241,1256,1274,1309,1328,1348,1375,1388,1397,1416,1426,1432,1439,1439,1442,1442,1446,1449,1453,1459,1473,1484,1498,1513,1535,1543,1547,1562,1566,1570,1578,0,0,1586,1566,1551,0,0,0,1439,1439,1439,1432,0,0,0,0,1142,1142,1142,1142,1142,0,0,1502,1520,1517,1513,1502,1487,1473,1459,1439,1436,1436,1442,1453,1480,1495,1509,1520,1535,1539,1539,1535,1513,1480,0,0,1369,1290,0,1271,1266,1253,1256,1266,1271,1298,1391,1453,1607,1663,1767,1737,1709,0,1599,1566,1539,1532,1520,1517,1520,1520,1524,1524,1528,1528,1528,1528,1528,1528,1528,1524,1524,1520,1517,1513,1509,1509,1509,1509,1513,1517,1520,1528,1535,1539,1551,1566,1574,1582,1590,1595,1595,1586,1582,1582,1578,1566,1566,1562,1562,1558,1558,1562,1562,1566,1570,1574,1574,1574,1578,1578,1578,1578,1578,1578,1578,1574,1578,1578,1578,1574,1574,1574,1574
1463,1463,1463,1463,1463,1459,1456,1456,1456,1453,1453,1453,1453,1456,1456,1456,1456,1463,1463,1466,1466,1466,1470,1470,1473,1473,1473,1477,1477,1477,1477,1477,1477,1477,1473,1473,1473,1473,1470,1466,1459,1453,1436,1426,1416,1400,1391,1375,1363,1354,1348,1331,1323,1314,1309,1300,1300,1298,1295,1292,1290,1290,1290,1287,1290,1290,1292,1300,1303,1309,1317,1328,1334,1343,1360,1366,1375,1385,1403,1413,1423,1436,1442,1446,1449,1456,1456,1459,1463,1466,1466,1470,1477,1484,1491,1509,1520,1532,1543,1562,1566,1574,1599,1619,1637,1676,1695,1718,1742,1767,1772,1782,1793,1798,1803,1808,1808,1814,1814,1803,1788,1772,1742,1704,0,1595,1562,1532,1513,1495,1491,1487,1484,1484,1480,1477,1473,1466,1459,1453,1442,1403,1385,1366,1343,1309,1279,1236,1221,1216,1211,1216,1238,1253,1271,1303,1323,1340,1366,1378,1388,1397,1419,1426,1436,1439,1442,1446,1449,1453,1456,1463,1473,1484,1495,1509,1532,1535,1539,1551,1555,1562,1566,1578,1578,1570,1555,1539,0,0,0,1446,1442,1442,1426,0,0,0,0,1144,1144,1144,1144,1144,0,0,1502,1520,1517,1517,1505,1495,1484,1466,1446,1439,1436,1439,1446,1466,1484,1498,1513,1528,1532,1535,1532,1509,1480,0,0,1331,1292,1279,1271,1263,1251,1253,1261,1266,1292,1397,1459,0,1686,1772,1747,1713,0,1603,1570,1539,1535,1520,1520,1520,1524,1524,1528,1528,1528,1528,1528,1528,1528,1524,1520,1517,1513,1505,1502,1498,1498,1498,1502,1505,1513,1517,1528,1535,1543,1551,1570,1578,1582,1595,1590,1590,1586,1582,1578,1574,1562,1558,1555,1555,1555,1555,1558,1566,1566,1570,1574,1574,1574,1574,1574,1574,1574,1574,1578,1574,1574,1574,1578,1578,1574,1578,1578,1578
1456,1456,1456,1456,1453,1449,1449,1446,1446,1442,1446,1446,1446,1446,1449,1449,1449,1453,1456,1456,1459,1459,1463,1463,1463,1466,1466,1466,1470,1470,1470,1470,1470,1470,1470,1466,1466,1466,1456,1453,1442,1432,1426,1406,1400,1394,1385,1369,1360,1351,1345,1325,1317,1311,1306,1298,1298,1295,1292,1290,1290,1287,1287,1284,1284,1287,1290,1292,1300,1306,1311,1323,1331,1337,1351,1360,1369,1378,1397,1406,1416,1432,1442,1449,1453,1459,1459,1463,1463,1466,1466,1466,1473,1480,1487,1495,1513,1524,1535,1551,1558,1566,1595,1615,1632,1654,1699,1718,1742,1772,1777,1782,1793,1798,1803,1808,1808,1814,1814,1803,1788,1772,1737,1699,1615,1578,1539,1509,1487,1470,1470,1466,1463,1463,1463,1463,1463,1459,1453,1449,1436,1400,1385,1366,1343,1309,1279,1233,1219,1214,1211,1214,1236,1251,1268,1300,1317,1334,1360,1366,1375,1388,1410,1419,1429,1436,1442,1446,1453,1456,1463,1466,1477,1487,1498,1505,1524,1528,1535,1543,1547,1555,1562,1566,1566,1562,1539,1528,0,1491,1477,1449,1449,1446,1423,0,0,0,0,1147,1149,1149,1147,1153,0,0,1502,1520,1520,1517,1509,1498,1487,1473,1449,1439,1429,1429,1429,1432,1453,1466,1484,1505,1517,1524,1524,1505,1480,0,0,1334,1290,1274,1268,1258,1251,1246,1253,1256,1261,1334,1466,1658,1709,1777,1752,1723,1654,1611,1578,1551,1543,1524,1520,1524,1528,1528,1532,1532,1528,1528,1528,1528,1528,1524,1520,1513,1509,1502,1498,1495,1495,1495,1498,1502,1509,1517,1528,1535,1543,1551,1566,1574,1582,1586,1586,1586,1578,1578,1574,1566,1558,1551,1551,1551,1551,1551,1558,1562,1566,1570,1570,1574,1574,1574,1574,1574,1574,1574,1574,1574,1574,1574,1578,1578,1578,1578,1578,1578
1453,1453,1449,1449,1449,1446,1442,1442,1442,1439,1439,1442,1442,1446,1446,1446,1449,1453,1453,1453,1456,1456,1459,1459,1463,1463,1463,1466,1466,1466,1466,1466,1466,1466,1466,1463,1463,1459,1453,1442,1432,1426,1416,1400,1394,1385,1378,1366,1357,1348,1340,1323,1314,1309,1300,1295,1295,1292,1290,1290,1287,1284,1284,1282,1284,1284,1287,1290,1295,1300,1306,1317,1323,1331,1337,1351,1357,1366,1388,1400,1410,1429,1439,1446,1453,1459,1459,1463,1463,1466,1466,1466,1470,1477,1480,1487,1505,1513,1524,1543,1551,1558,1586,1611,1632,1654,1695,1723,1747,1777,1782,1788,1798,1803,1808,1808,1814,1814,1814,1808,1788,1772,1733,1690,1603,1562,1528,1495,1477,1463,1459,1456,1456,1453,1456,1456,1456,1453,1449,1446,1436,1400,1385,1366,1345,1309,1274,1221,1211,1207,1207,1211,1233,1248,1263,1292,1306,1323,1343,1348,1357,1366,1391,1400,1413,1429,1439,1446,1453,1459,1466,1470,1480,1487,1495,1502,1513,1520,1524,1528,1535,1539,1547,1551,1551,1547,1528,1517,1502,1487,1473,1453,1453,1449,1419,0,0,0,1173,1149,1151,1151,1149,1162,0,0,1513,1520,1520,1520,1513,1505,1498,1484,1456,1439,1429,1423,1423,1423,1439,1449,1466,1491,1505,1517,1517,1498,1477,1449,1416,1334,1287,1274,1266,1256,1248,1243,1248,1251,1256,1311,1695,1737,1782,1788,1772,1737,1658,1624,1595,1562,1555,1528,1524,1524,1532,1532,1532,1532,1532,1528,1528,1528,1528,1520,1517,1509,1505,1495,1495,1491,1491,1487,1495,1502,1505,1513,1528,1532,1539,1547,1562,1566,1574,1582,1578,1578,1566,1566,1562,1555,1547,1547,1547,1547,1547,1551,1558,1562,1566,1566,1570,1570,1570,1574,1574,1574,1574,1574,1574,1574,1574,1574,1578,1578,1578,1578,1578,1578
1446,1446,1446,1442,1442,1439,1436,1436,1436,1436,1436,1439,1439,1439,1442,1446,1446,1449,1449,1453,1453,1456,1456,1456,1459,1463,1463,1463,1466,1466,1466,1466,1466,1466,1466,1463,1459,1453,1449,1436,1426,1416,1406,1394,1388,1378,1375,1360,1351,1343,1337,1320,1311,1306,1298,1295,1292,1290,1290,1287,1284,1282,1282,1279,1279,1282,1282,1284,1292,1298,1300,1311,1317,1320,1325,1340,1345,1354,1378,1391,1403,1426,1436,1442,1453,1459,1459,1463,1466,1466,1466,1466,1470,1473,1477,1480,1491,1498,1505,1520,1532,1543,1555,1599,1624,1645,1699,1723,1747,1777,1788,1788,1803,1803,1808,1808,1814,1814,1814,1803,1788,1767,1723,1681,1595,1555,1520,1487,1470,1456,1456,1453,1453,1449,1449,1449,1449,1449,1446,1442,1432,1400,1385,1369,1348,1309,1268,1236,1207,1202,1204,1209,1231,1246,1261,1287,1303,1317,1325,1340,1345,1354,1375,1391,1403,1423,1432,1442,1453,1466,1470,1477,1484,1491,1495,1502,1513,1517,1520,1524,1532,1532,1539,1543,1539,1532,1517,1505,1495,1480,1470,1456,1453,1456,0,0,0,0,1170,1153,1153,1153,1153,0,0,0,1509,1520,1520,1520,1513,1509,1498,1491,1459,1442,1429,1419,1413,1413,1423,1436,1449,1477,1491,1505,1505,1498,1477,1449,1413,1334,1290,1268,1261,1251,1248,1241,1246,1246,1248,1268,1757,1762,1788,1793,1772,1742,1667,1632,1599,1570,1558,1532,1524,1528,1532,1532,1532,1532,1532,1528,1528,1528,1524,1517,1513,1505,1502,1491,1487,1484,1484,1487,1491,1498,1505,1513,1524,1528,1535,1543,1555,1558,1566,1570,1566,1566,1562,1555,1551,1547,1543,1539,1539,1543,1547,1547,1555,1558,1562,1562,1566,1566,1570,1570,1570,1570,1570,1566,1566,1566,1570,1570,1570,1570,1570,1570,1574,1578
1442,1442,1439,1436,1436,1432,1432,1432,1429,1429,1432,1432,1432,1436,1439,1442,1442,1446,1446,1449,1449,1453,1453,1456,1456,1459,1459,1463,1463,1463,1466,1466,1466,1463,1463,1456,1449,1439,1436,1416,1406,1397,1391,1378,1375,1369,1366,1354,1345,1337,1331,1314,1306,1300,1295,1290,1290,1287,1287,1282,1282,1279,1276,1276,1276,1276,1276,1279,1284,1290,1292,1298,1300,1306,1309,1320,1325,1331,1354,1366,1381,1410,1423,1436,1446,1456,1459,1459,1463,1466,1466,1466,1470,1470,1473,1477,1484,1491,1498,1513,1524,1532,1547,1590,1619,1645,1699,1728,1752,1782,1793,1798,1808,1808,1814,1814,1819,1819,1819,1814,1788,1767,1723,1681,1637,1558,1524,1495,1473,1459,1459,1456,1453,1453,1453,1449,1449,1446,1446,1439,1432,1403,1385,1366,0,1295,1256,1223,1197,1197,1200,1204,1228,1246,1258,1287,1298,1311,1320,1334,1337,1343,1366,1378,1391,1413,1426,1439,1449,1470,1473,1480,1487,1491,1498,1502,1509,1517,1517,1520,1524,1528,1532,1528,1524,1520,1513,1498,1487,1473,1466,1456,1453,1449,0,0,0,0,1166,1155,1155,1155,1159,0,0,1470,1520,1520,1520,1520,1517,1509,1502,1495,1463,1446,1429,1419,1410,1406,1410,1419,1429,1459,1477,1495,1498,1491,1480,1453,1423,1337,1290,1268,1261,1251,1246,1241,1243,1246,1246,1248,1777,1782,1793,1788,1772,1742,1667,1632,1603,1574,1562,1532,1524,1528,1532,1532,1532,1532,1532,1528,1528,1524,1524,1513,1509,1502,1498,1487,1484,1480,1480,1484,1491,1498,1505,1509,1520,1528,1528,1535,1539,1543,1543,1543,1543,1539,1535,1535,1532,1528,1524,1528,1532,1535,1539,1539,1547,1555,1555,1555,1558,1562,1562,1562,1562,1562,1562,1562,1566,1562,1562,1562,1566,1566,1566,1566,1570,1574
1436,1432,1426,1426,1423,1423,1423,1419,1419,1419,1423,1423,1426,1429,1432,1436,1439,1442,1442,1446,1446,1449,1453,1453,1453,1456,1459,1459,1463,1463,1463,1463,1463,1463,1459,1449,1442,1432,1426,1406,1397,1388,1381,1375,1369,1366,1363,1351,1343,1334,1325,1311,1303,1298,1292,1287,1287,1284,1284,1282,1279,1276,1276,1274,1274,1274,1274,1276,1282,1284,1287,1292,1295,1300,1303,1311,1314,1320,1343,1357,1372,1385,1413,1429,1439,1453,1456,1459,1463,1463,1463,1466,1466,1470,1470,1473,1477,1484,1491,1502,1513,1524,1539,1586,1611,1641,1695,1718,1742,1777,1782,1782,1793,1798,1803,1808,1819,1819,1824,1814,1798,1767,1728,1681,1599,1558,1524,1498,1477,1463,1459,1459,1456,1456,1453,1453,1453,1446,1442,1436,1429,1400,1378,1354,0,1284,0,1214,1193,1191,1195,1202,1209,1243,1256,1268,1295,1309,1314,1325,1328,1331,1351,1366,1381,1397,1419,1436,1449,1470,1477,1484,1491,1498,1502,1505,1509,1513,1517,1517,1520,1520,1524,1520,1513,1505,1502,1487,1477,1470,1463,1456,1456,1439,0,0,0,0,1162,1157,1157,1164,1173,0,0,1480,1517,1520,1520,1520,1517,1509,1505,1498,1470,1453,1432,1419,1406,1391,1388,1391,1397,1406,1439,1453,1456,1453,1442,1423,0,1363,1287,1266,0,0,1246,1241,1243,1246,1246,1246,1777,1782,1798,1788,1772,1747,1672,1641,1607,1578,1566,1532,1528,1524,1532,1532,1532,1532,1532,1528,1528,1524,1520,1513,1505,1502,1495,1487,1484,1484,1484,1487,1498,1505,1509,1517,1524,1524,1532,1532,1535,1535,1535,1535,1532,1532,1532,1528,1528,1524,1524,1524,1528,1532,1535,1535,1547,1551,1555,1555,1555,1558,1558,1558,1562,1562,1562,1562,1562,1558,1558,1562,1562,1562,1562,1562,1566,1566
1432,1429,1423,1419,1416,1416,1416,1416,1416,1416,1419,1423,1423,1426,1429,1432,1436,1439,1442,1442,1446,1449,1449,1453,1453,1456,1456,1459,1459,1463,1463,1459,1459,1459,1456,1442,1436,1426,1416,1397,1388,1378,1375,1369,1366,1360,1357,1345,1340,1331,1323,1309,1300,1295,1290,1284,1284,1282,1282,1279,1276,1276,1274,1274,1271,1271,1274,1274,1279,1282,1282,1284,1292,1292,1295,1303,1306,1311,1323,1345,1360,1375,1406,1419,1432,1449,1453,1456,1459,1463,1463,1463,1466,1466,1470,1470,1473,1477,1484,1487,1502,1513,1532,1578,1603,1628,1681,1704,1728,1757,1762,1767,1777,1782,1793,1798,1808,1819,1824,1814,1798,1772,1728,1681,1595,1555,1520,1498,1480,1466,1463,1459,1459,1456,1456,1453,1453,1446,1436,1429,1423,1397,1372,1348,0,1271,0,0,1181,1181,1186,1193,1202,1233,1246,1261,1287,1298,1303,1311,1314,1314,1320,1345,1360,1375,1406,1423,1439,1470,1477,1484,1495,1502,1505,1509,1513,1517,1517,1517,1517,1517,1513,1505,1498,1491,1484,1473,1470,1463,1456,1453,1453,1423,0,0,0,0,1166,1164,1164,1173,1195,0,0,1498,1517,1517,1520,1520,1517,1513,1509,1502,1484,1466,1446,1426,1406,1385,1378,1378,1381,1388,1413,1426,1429,1423,1413,1394,0,1345,1282,1263,1258,1253,1248,1246,1248,1251,1251,1271,1728,1767,1793,1788,1772,1742,1667,1637,1603,1574,1562,1532,1524,1524,1532,1532,1532,1528,1528,1528,1524,1524,1520,1513,1505,1502,1495,1491,1487,1487,1487,1491,1502,1509,1513,1520,1524,1528,1528,1532,1532,1532,1532,1532,1532,1528,1528,1524,1524,1520,1517,1520,1528,1532,1532,1535,1543,1551,1551,1551,1555,1555,1555,1555,1558,1558,1558,1558,1558,1558,1558,1558,1558,1558,1558,1558,1562,1566
1429,1426,1416,1416,1413,1413,1413,1413,1413,1413,1416,1416,1419,1423,1426,1429,1432,1436,1439,1442,1442,1446,1449,1449,1453,1453,1456,1456,1459,1459,1459,1459,1459,1459,1453,1439,1429,1416,1410,1388,1378,1369,1366,1360,1357,1354,1351,1340,1331,1325,1320,1311,1298,1290,1287,1284,1282,1282,1279,1276,1276,1274,1271,1271,1271,1271,1271,1274,1276,1279,1279,1282,1287,1290,1290,1298,1300,1306,1314,1337,1348,1354,1385,1397,1413,1432,1439,1442,1449,1456,1459,1459,1466,1466,1466,1466,1470,1470,1473,1477,1491,1502,1517,1558,1582,1607,1650,1672,1690,1713,1718,1723,1728,1742,1747,1757,1777,1788,1798,1793,1782,1752,1709,1663,1582,1547,1520,1498,1484,1466,1466,1463,1463,1459,1456,1456,1453,1442,1432,1423,1416,1403,1360,0,1287,0,1221,1193,1179,1177,1181,1188,1200,1228,1243,1256,1282,1292,1300,1306,1309,1309,1314,1337,1351,1369,1400,1419,1436,1466,1477,1484,1502,1505,1513,1517,1520,1524,1524,1520,1517,1517,1513,1502,1495,1491,1484,1470,1463,1459,1459,1453,1449,0,0,0,0,1191,1168,1168,1168,1177,1207,0,1456,1505,1517,1520,1520,1520,1517,1517,1513,1505,1484,1473,1449,1429,1410,1385,1375,1369,1372,1375,1394,1406,1406,1397,1385,1369,0,1328,1274,0,1258,1253,1253,1251,1253,1253,1258,1292,1624,1695,1782,1782,1767,1737,1658,1628,1599,1574,1558,1532,1524,1524,1532,1528,1528,1528,1528,1524,1524,1520,1520,1513,1509,1502,1498,1495,1491,1495,1495,1498,1509,1513,1520,1524,1528,1528,1532,1532,1532,1532,1532,1528,1528,1528,1524,1524,1524,1517,1520,1520,1524,1528,1535,1535,1543,1547,1551,1551,1551,1551,1555,1555,1555,1555,1555,1555,1555,1555,1555,1558,1555,1558,1558,1558,1562,1562
1426,1423,1416,1413,1410,1410,1410,1410,1410,1410,1413,1416,1416,1419,1426,1426,1429,1436,1436,1439,1442,1446,1446,1449,1449,1453,1453,1456,1456,1459,1459,1459,1456,1456,1449,1429,1416,1403,1394,1378,1357,1351,1348,1343,1340,1337,1337,1331,1320,1314,1309,1303,1290,1284,1282,1279,1276,1276,1276,1271,1271,1268,1268,1268,1268,1268,1268,1271,1274,1274,1276,1279,1279,1282,1282,1287,1292,1295,1303,1323,1334,1345,1375,1388,1400,1423,1429,1436,1442,1453,1456,1456,1463,1463,1466,1466,1466,1470,1470,1477,1487,1495,1509,1547,1570,1590,1632,1650,1667,1690,1695,1699,1704,1713,1723,1733,1752,1767,1772,1767,1752,1723,1681,1641,1574,1543,1517,1498,1487,1477,1470,1470,1470,1466,1463,1459,1456,1442,1432,1419,1413,1397,1351,0,1276,0,1214,1191,1175,1175,1177,1186,1195,1226,1238,1253,1276,1290,1298,1303,1303,1303,1306,1328,1343,1360,1394,1413,1432,1466,1477,1487,1502,1509,1517,1520,1524,1528,1524,1524,1520,1517,1513,1502,1495,1487,1480,1466,1463,1456,1453,1449,1439,0,0,0,0,1188,1173,1173,1170,1181,0,1406,1470,1513,1517,1517,1520,1520,1517,1517,1513,1505,1487,1477,1456,1436,1416,1385,1375,1369,1366,1366,1378,1388,1388,1369,1360,0,1331,1311,1268,1261,1261,1256,1256,1253,1256,1258,1263,1303,1509,1615,1681,1747,1733,1713,1632,1607,1582,1566,1555,1532,1524,1524,1528,1528,1528,1528,1524,1524,1520,1520,1517,1513,1509,1505,1502,1495,1495,1495,1498,1502,1513,1517,1524,1524,1528,1532,1532,1532,1532,1532,1532,1532,1532,1532,1528,1524,1524,1520,1520,1520,1528,1532,1535,1535,1543,1547,1547,1551,1551,1551,1555,1555,1555,1558,1558,1558,1558,1558,1558,1558,1562,1562,1566,1566,1570,1570
1423,1416,1410,1406,1403,1403,1403,1403,1403,1406,1406,1410,1410,1413,1416,1419,1423,1426,1432,1436,1439,1442,1446,1449,1449,1453,1453,1456,1456,1456,1456,1456,1456,1453,1446,1423,1410,1394,1385,1369,1345,1343,1337,1334,1331,1328,1325,1323,1311,1306,1303,1298,1287,1282,1279,1276,1274,1274,1271,1271,1268,1268,1268,1266,1266,1266,1268,1268,1271,1274,1274,1276,1276,1279,1279,1284,1287,1292,1298,1317,1328,1340,1363,1375,1388,1410,1419,1429,1436,1446,1449,1453,1459,1463,1463,1466,1466,1466,1470,1473,1484,1495,1505,1539,1558,1578,1615,1632,1645,1654,1672,1676,1681,1690,1699,1709,1713,1733,1742,1733,1718,1695,1654,1624,0,1535,1513,1498,1487,1477,1473,1470,1470,1466,1463,1459,1456,1439,1426,1416,1406,1388,1340,0,1263,0,1209,1188,1175,1175,1175,1184,1193,1223,1236,1251,1274,1287,1295,1298,1300,1300,1300,1323,1337,1354,1388,1406,1429,1466,1477,1487,1505,1513,1517,1520,1528,1528,1528,1524,1520,1517,1513,1498,1495,1487,1477,1466,1463,1456,1449,1432,1413,0,0,0,0,1188,1177,1177,1177,1188,0,1423,1477,1513,1517,1517,1520,1520,1520,1520,1517,1509,1495,1480,1463,1442,1419,1388,1372,1363,1357,1348,1345,1345,1343,1334,1317,1306,1295,1284,1266,1261,1258,1256,1258,1258,1261,1263,1274,1343,0,1502,1528,1607,1690,0,0,1595,1578,1562,1551,1532,1524,1528,1532,1528,1532,1528,1528,1524,1524,1520,1520,1517,1513,1509,1509,1505,1505,1509,1509,1513,1524,1528,1532,1535,1535,1535,1539,1539,1547,1547,1547,1551,1555,1555,1555,1547,1551,1547,1543,1539,1539,1543,1543,1543,1547,1547,1551,1551,1551,1555,1555,1555,1555,1558,1558,1558,1562,1562,1566,1566,1570,1566,1570,1570,1570,1570
1423,1416,1406,1403,1400,1400,1403,1403,1403,1403,1406,1406,1406,1410,1416,1419,1419,1423,1429,1432,1436,1442,1446,1446,1449,1453,1453,1453,1456,1456,1456,1456,1456,1453,1442,1413,1400,1388,1372,1360,1337,1331,1328,1325,1323,1320,1317,1314,1306,1300,1295,1292,1282,1276,1276,1274,1271,1271,1268,1266,1266,1266,1263,1263,1263,1266,1266,1268,1271,1271,1274,1274,1274,1276,1276,1282,1284,1290,1295,1311,1320,1331,1354,1366,1378,1397,1406,1416,1426,1439,1446,1449,1456,1459,1463,1463,1466,1466,1470,1473,1480,1491,1502,1532,1547,1562,1599,1611,1624,1632,1645,1650,1654,1667,1672,1681,1690,1699,1709,1704,1686,1658,1628,1603,1574,1528,1509,1498,1487,1480,1477,1473,1473,1470,1466,1463,1456,1439,1423,1410,1400,1375,1323,0,1253,1228,1207,1188,1175,1175,1177,1181,1193,1219,1231,1243,1268,1279,1284,1290,1292,1290,1292,1309,1323,1343,1381,1400,1423,1466,1473,1484,1502,1509,1517,1517,1524,1524,1524,1520,1517,1513,1509,1498,1491,1484,1477,1466,1459,1453,1453,1426,1400,0,0,0,0,1195,1191,1191,1191,1248,0,0,1487,1509,1517,1520,1524,1520,1520,1524,1520,1517,1502,1487,1466,1446,1423,1375,1363,1351,1340,1328,1325,1323,1317,1309,1295,1287,1279,1271,1266,1258,1258,1258,1258,1258,1263,1266,1276,1325,1343,0,1466,0,0,0,0,1582,1570,1555,1551,1532,1528,1528,1532,1532,1532,1532,1528,1524,1524,1524,1524,1517,1517,1513,1513,1513,1513,1513,1517,1520,1528,1532,1535,1539,1539,1539,1543,1543,1551,1551,1555,1555,1562,1562,1562,1562,1558,1555,1551,1547,1547,1547,1547,1547,1547,1551,1551,1551,1555,1555,1555,1555,1558,1558,1558,1562,1566,1566,1570,1570,1570,1574,1574,1574,1578,1578
1423,1416,1406,1403,1400,1400,1400,1403,1403,1403,1403,1406,1406,1410,1413,1416,1419,1423,1429,1429,1432,1439,1442,1446,1446,1449,1453,1453,1453,1453,1453,1453,1453,1449,1439,1410,1397,1381,1366,1351,1328,1323,1320,1317,1314,1311,1311,1306,1298,1295,1290,1287,1279,1274,1271,1271,1268,1266,1266,1263,1263,1261,1261,1261,1263,1263,1263,1266,1268,1271,1268,1271,1271,1271,1274,1274,1279,1282,1287,1300,1309,1317,1334,1345,1354,1366,1385,1394,1403,1423,1432,1439,1453,1456,1459,1459,1466,1466,1470,1473,1480,1487,1495,1513,1528,1539,1547,1570,1578,1582,1595,1599,1607,1611,1624,1632,1637,1650,1650,1650,1632,1611,1586,1566,1547,1517,1505,1498,1491,1484,1484,1480,1477,1477,1470,1466,1463,1439,1419,1406,1397,1372,1320,1284,1256,1231,1214,1200,1184,1181,1181,1184,1193,1216,1228,1241,1266,1274,1282,1287,1290,1290,1287,1300,1320,1340,1378,1400,1419,1466,1477,1484,1502,1505,1513,1517,1520,1520,1520,1520,1517,1513,1509,1495,1487,1484,1477,1463,1459,1453,1449,1439,1416,0,0,1251,1216,1200,1195,1197,1197,0,1295,0,1449,1470,1487,1505,1513,1517,1524,1524,1520,1513,1495,1477,1456,1432,1406,1385,1348,1334,1325,1311,1303,1298,1292,1287,1276,1271,1268,1263,1258,1258,1258,1258,1258,1258,1263,1266,1271,1306,1323,1348,0,1463,0,0,0,1562,1555,1551,1547,1535,1532,1528,1532,1532,1532,1532,1532,1528,1528,1524,1524,1520,1520,1517,1517,1517,1517,1520,1520,1524,1532,1535,1535,1539,1539,1539,1543,1547,1551,1551,1558,1566,1570,1570,1570,1570,1570,1566,1562,1555,1555,1551,1551,1551,1551,1551,1555,1555,1555,1555,1558,1558,1558,1562,1562,1562,1570,1574,1574,1574,1578,1582,1582,1582,1582,1582
1423,1416,1406,1403,1400,1400,1400,1400,1400,1403,1403,1403,1406,1406,1410,1413,1413,1416,1423,1426,1429,1436,1439,1439,1442,1446,1449,1449,1449,1449,1449,1449,1446,1442,1432,1406,1388,1369,1357,1340,1314,1309,1306,1303,1300,1298,1298,1295,1290,1284,1282,1279,1271,1266,1266,1263,1261,1258,1258,1256,1256,1256,1256,1256,1256,1261,1261,1263,1266,1266,1268,1268,1268,1271,1271,1271,1276,1279,1284,1295,1303,1309,1317,1337,1345,1354,1372,1385,1394,1413,1423,1432,1439,1453,1456,1459,1463,1466,1470,1473,1480,1484,1491,1509,1517,1528,1535,1555,1562,1570,1582,1586,1590,1595,1607,1615,1619,1628,1628,1624,1607,1595,1570,1551,1535,1509,1505,1495,1491,1487,1484,1484,1480,1480,1477,1470,1463,1439,1423,1406,1394,1369,1348,1284,1258,1236,1221,1207,1188,1186,1184,1186,1195,1216,1226,1238,1261,1271,1279,1284,1284,1284,1284,1298,1314,1337,1378,1400,1423,1470,1477,1484,1498,1505,1509,1513,1517,1517,1517,1517,1513,1509,1505,1495,1487,1480,1477,1463,1459,1456,1449,1436,1406,0,0,1246,1216,1204,1202,1202,1202,0,1238,0,1400,1429,1453,1470,1495,1505,1517,1524,1520,1509,1487,1470,1442,1416,1391,1366,1334,1320,1309,1298,1287,1279,1276,1271,1266,1261,1258,1256,1256,1256,1256,1256,1256,1258,1261,1266,1268,1292,1284,1323,1366,1348,1385,1463,1491,1524,1532,1535,1539,1532,1532,1532,1532,1532,1532,1532,1532,1528,1528,1528,1528,1524,1524,1520,1520,1520,1524,1524,1528,1532,1535,1539,1539,1539,1539,1539,1543,1547,1555,1555,1558,1570,1574,1582,1582,1578,1578,1574,1570,1562,1558,1558,1555,1551,1555,1555,1555,1558,1562,1562,1562,1566,1574,1574,1578,1582,1586,1590,1590,1595,1595,1595,1595,1595,1595,1590
1423,1419,1406,1403,1400,1400,1400,1400,1400,1403,1403,1403,1406,1406,1410,1413,1413,1416,1423,1423,1426,1432,1436,1436,1439,1442,1442,1446,1442,1442,1439,1439,1436,1432,1419,1406,1378,1363,1348,1334,1309,1303,1303,1300,1295,1295,1292,1290,1284,1282,1276,1274,1268,1263,1261,1258,1256,1256,1256,1253,1253,1251,1251,1253,1253,1256,1258,1261,1263,1263,1266,1266,1268,1268,1268,1271,1274,1276,1282,1290,1298,1303,1311,1325,1334,1343,1360,1372,1385,1403,1416,1426,1436,1449,1453,1459,1463,1463,1466,1470,1480,1484,1491,1502,1509,1517,1524,1543,1551,1558,1574,1578,1582,1586,1595,1599,1603,1607,1607,1603,1599,1574,1558,1543,1528,1509,1502,1498,1491,1491,1491,1487,1484,1484,1477,1473,1466,1442,1423,1410,1394,1369,1345,1314,1258,1238,1226,1211,1193,1191,1188,1188,1195,1216,1226,1238,1261,1271,1279,1279,1282,1282,1279,1292,1311,1334,1378,1400,1423,1473,1477,1484,1495,1502,1505,1505,1513,1513,1513,1509,1509,1498,1495,1484,1480,1477,1470,1456,1449,1439,1423,1397,1360,1292,1274,1236,1216,1209,1204,1207,1207,1207,1228,0,1354,1337,1354,1372,1391,1416,1436,1449,1509,1498,1470,1446,1423,1375,1372,1334,1306,1295,1287,1276,1271,1263,1263,1261,1258,1256,1253,1253,1251,1251,1251,1251,1251,1253,1256,1261,1263,1263,1274,0,1300,1334,1366,1406,1480,1520,1532,1532,1535,1535,1532,1535,1535,1535,1535,1535,1535,1532,1532,1528,1528,1528,1528,1528,1528,1532,1535,1535,1539,1539,1543,1543,1543,1543,1543,1543,1547,1555,1562,1566,1574,1582,1586,1590,1590,1590,1595,1590,1586,1578,1578,1574,1570,1562,1558,1562,1562,1562,1562,1562,1566,1566,1578,1582,1582,1586,1590,1595,1595,1595,1595,1599,1595,1599,1595,1595
1426,1419,1410,1403,1400,1400,1400,1400,1403,1403,1403,1403,1403,1406,1410,1410,1413,1416,1419,1423,1423,1429,1429,1432,1432,1436,1436,1436,1436,1432,1432,1429,1423,1419,1406,1394,1369,1354,1340,1328,1306,1300,1298,1295,1292,1292,1290,1287,1282,1279,1274,1271,1263,1261,1258,1256,1253,1251,1251,1248,1248,1248,1248,1251,1251,1253,1256,1258,1261,1263,1263,1263,1266,1266,1266,1268,1271,1274,1279,1287,1292,1298,1306,1317,1325,1331,1348,1360,1372,1394,1406,1416,1429,1446,1449,1456,1463,1463,1466,1470,1477,1480,1487,1498,1505,1513,1517,1535,1543,1551,1562,1570,1574,1578,1582,1586,1595,1595,1595,1595,1586,1566,1555,1539,1528,1509,1502,1498,1495,1495,1491,1491,1487,1487,1484,1477,1470,1446,1426,1413,1397,1369,1343,1284,1258,1238,1228,1214,1197,1193,1191,1193,1197,1216,1226,1238,1258,1266,1274,1271,1274,1274,1271,1282,1298,1320,1363,1388,1410,1459,1470,1477,1484,1491,1495,1498,1502,1502,1502,1502,1502,1498,1495,1484,1473,1466,1456,1449,1426,1410,1391,1363,0,0,1251,1231,1216,1214,1211,1211,1211,1211,1223,1253,1271,1287,1314,0,0,0,0,0,0,0,0,0,1378,1357,0,1320,1295,1284,1279,1271,1266,1263,1261,1258,1256,1256,1256,1253,1251,1251,1251,1251,1251,1251,1253,1256,1258,1261,1268,1279,1309,1328,1360,1400,1470,1513,1524,1528,1535,1535,1535,1535,1535,1535,1535,1535,1535,1532,1532,1532,1532,1528,1532,1528,1532,1532,1535,1539,1539,1543,1543,1543,1543,1543,1543,1543,1551,1558,1570,1570,1578,1586,1595,1595,1595,1595,1595,1595,1586,1582,1578,1578,1574,1566,1562,1566,1566,1566,1566,1566,1570,1574,1578,1586,1586,1595,1595,1599,1599,1595,1599,1595,1599,1599,1599,1595
1429,1423,1410,1403,1400,1400,1400,1400,1403,1403,1403,1403,1403,1406,1406,1410,1413,1413,1416,1419,1419,1419,1423,1423,1426,1426,1429,1429,1426,1423,1423,1419,1413,1406,1394,1385,1360,1348,1337,1325,1314,1300,1298,1295,1292,1290,1290,1287,1279,1276,1274,1268,1261,1256,1256,1253,1251,1248,1248,1243,1241,1241,1243,1243,1246,1248,1251,1253,1258,1258,1261,1261,1263,1263,1266,1266,1268,1271,1274,1279,1284,1290,1295,1309,1314,1323,1337,1345,1354,1363,1388,1400,1413,1432,1439,1446,1456,1459,1466,1470,1477,1480,1484,1487,1498,1505,1509,1528,1535,1543,1547,1558,1562,1566,1574,1582,1590,1595,1595,1595,1590,1570,1555,1543,1532,1513,1505,1502,1498,1498,1498,1498,1498,1495,1487,1484,1477,1453,1436,1419,0,1372,1348,1284,1261,1241,1231,1219,1202,1197,1197,1197,1204,1216,1226,1236,1256,1263,1268,1268,1268,1268,1266,1266,1287,1306,1325,1363,1381,1403,1432,1439,1442,1456,1463,1470,1477,1487,1495,1498,1498,1495,1491,1477,1463,1453,1439,1426,1397,1378,1357,1334,0,0,1246,1228,1219,1219,1214,1211,1211,1211,1216,1238,1248,1261,1284,1298,0,0,0,0,0,0,0,0,1369,1345,0,1311,1298,1282,1274,1268,1266,1266,1266,1263,1263,1261,1258,1256,1253,1251,1248,1248,1248,1248,1251,1253,1253,1256,1263,1271,1287,1328,1363,1400,1466,1505,1520,1528,1532,1532,1535,1539,1539,1539,1539,1535,1535,1535,1532,1532,1532,1532,1532,1532,1532,1535,1539,1539,1539,1543,1543,1543,1543,1543,1547,1551,1558,1562,1574,1574,1582,1590,1595,1599,1599,1599,1599,1595,1590,1582,1582,1578,1574,1570,1566,1566,1566,1566,1566,1570,1574,1574,1582,1586,1590,1595,1595,1599,1599,1595,1595,1599,1599,1599,1599,1595
1429,1423,1410,1406,1403,1400,1400,1403,1403,1403,1403,1403,1403,1403,1403,1403,1403,1403,1406,1406,1406,1410,1410,1410,1413,1413,1413,1413,1406,1403,1400,1397,1388,1381,1372,1363,1348,1340,1331,1320,1311,1298,1295,1295,1290,1290,1287,1284,1276,1274,1268,1263,1256,1253,1251,1248,1243,1243,1243,1241,1241,1241,1241,1241,1241,1246,1248,1251,1256,1256,1258,1261,1263,1263,1266,1266,1268,1271,1271,1279,1284,1287,1295,1306,1311,1317,1331,1340,1348,1357,1378,1391,1403,1423,1432,1442,1453,1459,1463,1466,1477,1480,1484,1487,1495,1498,1505,1524,1532,1539,1543,1555,1558,1562,1570,1582,1590,1595,1599,1599,1595,1574,1558,1543,1535,1517,1509,1502,1498,1498,1498,1498,1498,1498,1491,1487,1480,1456,1439,1423,1406,1378,1351,1317,1258,1241,1231,1219,1204,1200,1200,1200,1204,1216,1223,1233,1248,1256,1261,1261,1263,1261,1258,1261,1276,1292,1311,1340,1354,1372,1397,1400,1403,1419,1429,1439,1449,1466,1477,1487,1495,1491,1487,1463,1446,1429,1413,1400,1366,1345,0,0,0,1268,1238,1228,1221,1219,1216,1216,1216,1214,1216,1228,1236,1243,1258,1271,1284,1295,0,0,0,0,1378,0,1360,1343,1328,1314,1295,1287,1282,1276,1271,1274,1271,1271,1271,1266,1263,1261,1256,1253,1251,1248,1248,1246,1246,1246,1246,1248,1256,1261,1279,1325,0,1400,1459,1495,1502,1517,1524,1528,1535,1535,1539,1539,1539,1539,1535,1535,1535,1532,1532,1532,1532,1532,1535,1535,1539,1539,1543,1543,1543,1543,1547,1547,1558,1558,1566,1570,1582,1586,1590,1590,1595,1595,1595,1595,1599,1595,1590,1586,1582,1582,1578,1574,1574,1574,1574,1574,1574,1574,1578,1578,1590,1595,1599,1595,1599,1599,1595,1590,1595,1595,1595,1595,1599,1595
1432,1426,1416,1406,1403,1400,1400,1403,1403,1403,1403,1403,1403,1400,1400,1400,1400,1397,1400,1400,1400,1403,1403,1403,1406,1406,1403,1403,1397,1394,1391,1385,1375,1369,1363,1354,1340,1334,1325,1317,1311,1300,1298,1295,1290,1287,1284,1282,1274,1271,1266,1263,1253,1251,1248,1246,1243,1241,1238,1238,1238,1236,1238,1238,1241,1243,1246,1248,1251,1253,1256,1258,1261,1263,1263,1266,1268,1268,1271,1274,1282,1287,1292,1306,1311,1317,1328,1334,1343,1351,1369,1381,1394,1416,1426,1436,1449,1456,1463,1466,1473,1477,1480,1484,1491,1495,1502,1520,1528,1535,1539,1551,1558,1562,1570,1578,1586,1590,1595,1599,1595,1574,1562,1547,1539,1517,1509,1505,1502,1502,1502,1498,1498,1498,1491,1484,1480,1459,1439,1423,1406,1375,0,1284,1256,1238,1228,1216,1204,1200,1197,1200,1204,1214,1221,1231,1246,1251,1256,1256,1256,1253,1251,1251,1266,1276,1292,1317,1328,1343,1366,1372,1378,1385,1406,1419,1432,1459,1473,1487,1491,1487,1484,1473,1436,1419,1403,1388,1354,1309,1290,1274,1258,1246,1228,1221,1219,1219,1216,1216,1219,1221,1223,1233,1241,1248,1258,1261,1266,1268,1287,1306,1323,0,1357,1366,1354,1343,1331,1323,1306,1298,1290,1287,1284,1282,1282,1279,1279,1274,1271,1266,1261,1253,1253,1251,1248,1248,1246,1246,1246,1246,1253,1256,1274,1323,0,1400,1456,1491,1498,1513,1520,1528,1532,1539,1539,1543,1543,1547,1543,1543,1539,1539,1539,1539,1543,1543,1543,1543,1551,1547,1543,1547,1555,1562,1566,1574,1582,1590,1595,1595,1603,1599,1599,1599,1599,1599,1595,1599,1599,1599,1595,1590,1586,1590,1586,1578,1574,1574,1578,1578,1578,1578,1578,1582,1595,1595,1595,1599,1595,1595,1595,1590,1590,1590,1590,1590,1595,1595
1432,1426,1416,1410,1403,1400,1400,1400,1400,1400,1400,1397,1397,1394,1394,1394,1394,1391,1394,1394,1394,1397,1397,1400,1400,1397,1397,1394,1388,1385,1378,1375,1363,1357,1351,1345,1334,1328,1323,1317,1311,1300,1298,1295,1292,1287,1284,1282,1271,1268,1266,1261,1256,1248,1246,1243,1241,1238,1238,1236,1236,1236,1236,1236,1238,1241,1243,1246,1248,1253,1253,1256,1258,1261,1263,1263,1266,1268,1271,1274,1284,1287,1292,1303,1309,1314,1320,1331,1337,1345,1360,1372,1385,1406,1419,1429,1436,1453,1459,1463,1473,1477,1480,1480,1487,1495,1498,1517,1524,1532,1535,1551,1555,1562,1566,1574,1578,1582,1586,1590,1586,1570,1558,1547,1535,1517,1509,1505,1502,1502,1502,1498,1498,1491,1484,1477,1477,1453,1436,1419,1400,1372,0,1311,1251,1228,1221,1209,1200,1197,1197,1200,1202,1209,1216,1223,1233,1238,1241,1238,1238,1238,1236,1236,1241,1248,1256,1263,1276,1284,1295,1309,1314,1317,1337,1348,0,0,0,0,0,0,0,0,0,0,0,1348,1331,1287,1274,1258,1248,1241,1238,1238,1243,1251,1256,1268,1276,1282,1290,1295,1295,1292,0,1295,0,0,0,0,1369,0,0,1391,1388,1378,1372,1363,1357,1343,1334,1331,1323,1317,1314,1309,1298,1295,1287,1279,1274,1263,1258,1256,1253,1248,1246,1246,1246,1246,1251,1253,0,1323,0,1397,1453,1487,1495,1509,1517,1520,1532,1535,1543,1543,1547,1547,1547,1547,1543,1543,1547,1547,1547,1547,1551,1551,1555,1558,1555,1558,1562,1570,1574,1582,1595,1599,1603,1607,1607,1607,1607,1603,1603,1603,1599,1599,1595,1599,1595,1590,1590,1586,1586,1578,1578,1578,1578,1578,1578,1578,1586,1586,1599,1599,1603,1599,1595,1590,1590,1590,1586,1586,1586,1586,1595,1595
1432,1429,1416,1410,1403,1400,1397,1397,1397,1397,1394,1394,1391,1391,1388,1388,1388,1385,1388,1388,1391,1391,1394,1394,1394,1391,1388,1385,1381,1375,1369,1363,1357,1348,1343,1337,1334,1323,1320,1314,1309,1300,1298,1292,1290,1284,1279,1274,1268,1263,1258,1256,1253,1246,1243,1241,1238,1236,1236,1233,1233,1233,1233,1233,1233,1238,1238,1243,1243,1248,1251,1253,1256,1258,1261,1261,1266,1268,1274,1276,1284,1290,1295,1306,1311,1317,1320,1328,1331,1334,1348,1354,1366,1388,1400,1413,1423,1442,1449,1459,1466,1473,1477,1480,1484,1487,1495,1509,1520,1528,1535,1551,1558,1562,1570,1574,1578,1582,1582,1582,1578,1562,1555,1543,1535,1517,1509,1505,1502,1498,1498,1495,1495,1487,1480,1477,1470,1449,1436,1416,1397,1372,0,1309,1248,1223,1216,1207,1200,1197,1197,1200,1202,1207,1211,1219,1221,1228,1231,1231,1231,1228,1228,1228,1228,1233,1238,1243,1253,1258,1266,1279,1284,1287,1298,1320,1331,0,0,0,0,0,0,0,0,0,1331,1314,1292,1274,1248,1246,1243,1248,1253,1266,1274,1287,1303,1309,1314,1320,1328,1334,0,0,0,0,0,0,0,1351,1366,1397,1400,1406,1400,1394,1391,1385,1372,1366,1360,0,1345,1337,1331,1325,1311,1306,1295,1287,1282,1268,1263,1258,1256,1251,1248,1246,1246,1246,1248,0,0,1314,0,1391,1453,1487,1491,1509,1517,1520,1532,1535,1539,1547,1547,1547,1551,1551,1547,1547,1547,1551,1555,1555,1555,1558,1562,1566,1562,1566,1574,1578,1578,1586,1599,1607,1611,1611,1615,1611,1607,1607,1607,1603,1599,1599,1599,1595,1590,1582,1578,1582,1582,1578,1578,1578,1582,1582,1586,1586,1586,1590,1595,1595,1595,1590,1586,1578,1578,1578,1574,1574,1574,1578,1586,1595
1432,1429,1416,1410,1400,1397,1391,1391,1388,1385,1381,1378,1375,1372,1369,1369,1369,1369,1369,1372,1375,1378,1381,1381,1381,1378,1375,1372,1369,1357,1354,1348,1343,1334,1331,1325,1325,1320,1314,1311,1309,1300,1295,1290,1287,1279,1274,1268,1266,1258,1256,1253,1248,1243,1241,1238,1238,1236,1233,1233,1231,1231,1231,1233,1233,1236,1238,1238,1243,1246,1248,1251,1256,1258,1261,1261,1266,1271,1274,1279,1290,1292,1298,1311,1314,1320,1323,1328,1328,1334,1343,1351,1357,1369,1391,1403,1413,1436,1446,1456,1466,1470,1473,1477,1484,1487,1491,1509,1517,1524,1532,1551,1562,1566,1574,1578,1582,1578,1574,1574,1570,1558,1547,1539,1532,1517,1509,1505,1502,1498,1495,1495,1491,1484,1477,1473,1466,1446,1432,1416,1397,1372,0,1279,1246,1223,1214,1204,1197,1197,1197,1197,1200,1204,1209,1211,1216,1221,1223,1226,1226,1223,1223,1223,1221,1223,1228,1236,1246,1251,1258,1271,1276,1279,0,0,0,0,0,0,0,0,0,0,1337,0,0,0,0,0,0,0,1261,1274,0,0,0,0,0,0,0,0,0,1378,1375,1378,1375,1372,1369,1369,1372,1378,1391,1406,1416,1419,1419,1416,1410,1403,1397,1394,1388,1381,1369,1363,1351,1343,1325,1314,1306,1295,1284,1274,1268,1263,1258,1253,1251,1248,1246,1246,1248,1248,0,1306,0,1391,1456,1487,1495,1509,1517,1520,1532,1535,1543,1547,1551,1551,1551,1551,1551,1551,1551,1555,1558,1562,1562,1566,1570,1570,1566,1566,1578,1582,1582,1590,1603,1611,1615,1615,1615,1615,1615,1611,1607,1607,1599,1595,1595,1590,1586,1578,1574,1574,1578,1578,1578,1582,1582,1582,1590,1590,1590,1590,1590,1590,1590,1586,1582,1574,1574,1570,1570,1570,1574,1574,1586,1590
1436,1429,1416,1410,1400,1394,1385,1385,1381,1378,1372,1369,1366,1363,1357,1357,1357,1357,1360,1366,1369,1372,1375,1375,1378,1375,1372,1366,1360,1351,1348,1343,1340,1331,1328,1325,1323,1317,1314,1311,1309,1298,1292,1287,1284,1274,1271,1266,1261,1256,1253,1251,1246,1241,1238,1236,1236,1233,1231,1231,1231,1228,1231,1231,1231,1233,1236,1238,1241,1246,1248,1251,1256,1258,1261,1261,1266,1271,1274,1279,1290,1295,1300,1311,1317,1320,1323,1328,1331,1331,1340,1343,1351,1360,1381,1394,1406,1429,1439,1449,1463,1470,1473,1477,1484,1484,1491,1505,1513,1524,1532,1555,1562,1570,1578,1582,1582,1578,1570,1566,1562,1551,1539,1532,1524,1513,1505,1505,1498,1495,1495,1491,1487,1477,1473,1466,1463,1446,1429,1413,1391,1372,1340,1276,1246,1219,1207,1200,1195,1193,1193,1195,1197,1202,1204,1207,1211,1219,1221,1221,1221,1221,1219,1221,1226,1226,1231,1238,1248,1253,1256,1266,1268,1268,1271,1276,1282,1295,1295,1303,1309,1306,0,0,1295,1284,0,0,0,0,0,0,0,0,0,0,1410,1436,1439,1442,1400,1410,1413,1419,1423,1426,1423,1423,1423,1426,1423,1429,1436,1436,1439,1439,1439,1436,1429,1426,1423,1419,1416,1403,1394,1385,1372,1360,1337,1334,1317,1303,1287,1279,1274,1268,1263,1258,1253,1253,1248,1248,1251,1251,1263,1306,0,1388,1453,1491,1491,1505,1513,1517,1532,1532,1539,1543,1551,1551,1551,1555,1555,1555,1558,1558,1562,1566,1566,1570,1570,1570,1570,1570,1578,1582,1590,1595,1607,1611,1615,1619,1619,1619,1615,1611,1611,1607,1603,1595,1595,1590,1582,1578,1574,1574,1574,1578,1578,1582,1582,1582,1590,1590,1590,1590,1590,1590,1586,1582,1578,1574,1570,1566,1566,1566,1570,1570,1582,1586
1436,1429,1416,1406,1397,1391,1381,1378,1375,1372,1363,1360,1357,1351,1348,1345,1345,1348,1351,1357,1360,1366,1369,1372,1372,1369,1366,1360,1357,1348,1343,1340,1337,1331,1328,1323,1320,1317,1314,1309,1306,1298,1292,1284,1282,1271,1266,1261,1258,1251,1248,1246,1243,1238,1236,1233,1233,1231,1231,1228,1228,1228,1228,1228,1231,1233,1233,1236,1238,1243,1246,1248,1253,1256,1258,1261,1266,1268,1274,1279,1290,1295,1300,1311,1317,1320,1323,1328,1328,1331,1337,1343,1345,1354,1372,1385,1397,1419,1432,1436,1456,1463,1466,1473,1480,1484,1487,1502,1509,1520,1532,1555,1562,1574,1582,1590,1586,1578,1570,1558,1547,1532,1524,1517,1509,1502,1498,1498,1495,1487,1484,1484,1480,1466,1463,1459,1456,1453,1429,1413,1391,1372,1340,1276,1243,1214,1202,1195,1188,1188,1188,1191,1191,1193,1195,1200,1200,1204,1209,1209,1211,1216,1219,1223,1233,1258,1268,1290,1295,1300,1303,1309,1311,1309,1306,1306,1306,1303,1300,1303,1309,1309,1309,1306,1303,1292,0,0,0,0,0,0,0,0,1439,1453,1477,1487,1491,1491,1495,1498,1502,1502,1505,1502,1502,1495,1491,1487,1480,1470,1466,1466,1463,1459,1459,1459,1456,1456,1456,1456,1456,1453,1442,1429,1416,1378,1360,1340,1320,1306,1298,1282,1276,1271,1266,1258,1256,1253,1251,1248,1253,1253,1261,1300,0,1372,1446,1480,1487,1502,1505,1513,1520,1528,1535,1539,1547,1551,1551,1555,1555,1555,1558,1558,1562,1566,1566,1566,1570,1570,1570,1570,1578,1582,1590,1595,1603,1611,1615,1619,1619,1619,1615,1611,1611,1611,1607,1599,1595,1586,1586,1578,1574,1574,1574,1574,1578,1578,1582,1582,1586,1590,1590,1590,1590,1586,1586,1578,1574,1570,1566,1566,1562,1566,1562,1566,1582,1586
1439,1429,1413,1403,1394,1385,1375,1372,1369,1366,1354,1351,1348,1343,1337,1337,1337,1337,1340,1351,1354,1360,1363,1366,1366,1360,1357,1354,1351,1343,1340,1337,1328,1323,1320,1317,1314,1311,1306,1303,1300,1292,1284,1279,1274,1263,1258,1256,1251,1246,1243,1241,1238,1233,1231,1231,1228,1228,1226,1226,1226,1226,1226,1226,1228,1231,1231,1233,1236,1241,1243,1248,1251,1253,1256,1258,1263,1268,1274,1279,1287,1292,1298,1309,1314,1320,1323,1328,1328,1331,1334,1337,1340,1345,1360,1366,1378,1403,1416,1426,1449,1459,1463,1470,1480,1484,1487,1491,1505,1517,1528,1551,1562,1574,1586,1590,1595,1578,1562,1555,1543,1524,1517,1509,1502,1498,1495,1495,1491,1484,1484,1480,1477,1466,1459,1456,1456,1453,1432,1419,1397,1375,1340,1276,1243,1211,1200,1191,1186,1186,1186,1186,1188,1191,1195,1197,1200,1204,1204,1209,1209,1223,1233,1246,1271,1282,1298,0,0,1328,1331,1334,1334,1328,1323,1320,1314,1311,1309,1309,1309,1309,1309,1311,1309,1306,0,0,0,0,0,1470,1484,1495,1502,1505,1532,1539,1535,1528,1524,1520,1517,1509,1505,1502,1498,1491,1487,1484,1480,1470,1470,1466,1466,1463,1463,1459,1459,1459,1463,1466,1466,1466,1459,1449,1436,1394,1369,1348,1325,1306,1290,1282,1276,1271,1266,1261,1258,1256,1253,1253,1256,1256,1263,1295,0,1351,1426,1466,1477,1495,1502,1509,1517,1524,1532,1535,1543,1547,1547,1551,1555,1555,1558,1558,1562,1566,1566,1566,1566,1566,1566,1566,1578,1582,1586,1595,1603,1607,1611,1611,1611,1615,1611,1611,1611,1611,1603,1595,1590,1586,1582,1574,1570,1570,1570,1570,1574,1574,1578,1578,1586,1586,1586,1586,1582,1582,1578,1570,1570,1562,1562,1558,1558,1558,1558,1562,1574,1582
1439,1432,1413,1400,1388,1375,1369,1357,1354,1351,1345,1334,1328,1325,1320,1317,1320,1320,1325,1331,1337,1340,1343,1348,1348,1345,1345,1343,1340,1334,1328,1328,1325,1320,1317,1314,1311,1309,1303,1300,1298,1287,1282,1276,1271,1261,1256,1253,1248,1243,1241,1236,1236,1231,1228,1226,1226,1226,1226,1223,1223,1223,1226,1226,1226,1231,1231,1233,1236,1241,1243,1246,1248,1253,1256,1258,1263,1268,1271,1276,1287,1292,1298,1306,1311,1314,1320,1325,1328,1331,1334,1337,1340,1343,1351,1360,1369,1394,1406,1419,1432,1453,1459,1466,1477,1484,1487,1491,1505,1513,1524,1551,1562,1574,1590,1595,1595,1578,1562,1551,1539,1528,1505,1502,1498,1495,1491,1487,1487,1484,1480,1477,1473,1470,1459,1456,1453,1453,1436,1423,1403,1378,1345,1282,1246,1214,1200,1188,1186,1184,1184,1184,1186,1188,1193,1195,1197,1200,1204,1207,1211,1238,1253,1271,0,0,1328,1345,1354,1357,1357,1357,1351,1340,1334,1328,1320,1314,1309,1309,1314,1311,1311,1311,1314,1317,0,0,0,0,0,1487,1505,1513,1517,1520,1532,1532,1532,1520,1517,1509,1509,1498,1495,1491,1487,1484,1480,1480,1477,1470,1470,1466,1466,1466,1463,1463,1463,1463,1466,1470,1473,1477,1477,1470,1453,1436,1385,1357,1334,1311,1292,1279,1276,1271,1266,1261,1261,1258,1256,1256,1256,1258,1263,1274,0,1363,1403,1449,1466,1484,1491,1498,1502,1513,1520,1528,1535,1539,1543,1547,1551,1551,1555,1555,1558,1558,1558,1562,1566,1566,1566,1566,1566,1570,1574,1578,1586,1590,1590,1595,1599,1603,1603,1603,1607,1607,1603,1599,1590,1590,1586,1570,1566,1566,1566,1570,1570,1574,1574,1574,1582,1582,1582,1582,1582,1578,1574,1570,1562,1562,1562,1558,1555,1555,1558,1558,1570,1578
1442,1436,1410,1400,1388,1372,1363,1354,1348,1343,1340,1328,1323,1317,1314,1311,1311,1314,1317,1325,1328,1331,1334,1340,1340,1340,1337,1334,1331,1328,1325,1323,1320,1317,1314,1311,1306,1303,1300,1298,1292,1284,1279,1274,1268,1258,1256,1251,1246,1241,1238,1236,1233,1228,1226,1226,1223,1223,1223,1223,1223,1223,1223,1226,1226,1231,1231,1233,1236,1241,1243,1246,1248,1253,1256,1258,1263,1266,1271,1274,1282,1287,1292,1303,1309,1314,1317,1325,1328,1331,1334,1337,1337,1340,1348,1354,1363,1385,1397,1410,1423,1446,1456,1463,1477,1480,1487,1491,1502,1513,1520,1547,1558,1570,1586,1595,1595,1574,1562,1547,1532,1520,1502,1495,1491,1487,1484,1484,1484,1484,1477,1473,1470,1466,1456,1453,1453,1453,1439,1426,1410,1388,1348,1287,1248,1216,1197,1188,1186,1181,1181,1181,1184,1188,1191,1193,1195,1200,1207,1214,1246,0,0,0,1388,1354,1375,1381,1385,1388,1385,1381,1375,1357,1348,1340,1331,1323,1317,1314,1314,1314,1311,1320,1323,1325,0,0,0,0,1470,1480,1502,1505,1509,1509,1520,1520,1517,1502,1495,1491,1487,1477,1473,1473,1470,1470,1470,1473,1470,1470,1470,1466,1470,1466,1466,1466,1466,1466,1473,1477,1487,1502,1505,1498,1473,0,1419,0,1357,1328,1298,1284,1279,1271,1266,1261,1261,1258,1258,1258,1258,1263,1266,1274,0,0,1351,1429,1453,1480,1487,1491,1498,1505,1513,1520,1528,1532,1535,1543,1551,1547,1551,1551,1555,1558,1558,1558,1558,1562,1562,1558,1562,1558,1562,1566,1570,1574,1578,1582,1590,1595,1599,1599,1607,1611,1607,1599,1595,1595,1586,1570,1566,1566,1566,1566,1570,1570,1574,1574,1578,1582,1582,1578,1578,1578,1578,1570,1566,1566,1558,1555,1555,1555,1558,1558,1574,1578
1446,1436,1410,1397,1385,1369,1360,1348,1345,1337,1334,1323,1317,1311,1309,1306,1306,1306,1309,1314,1320,1323,1325,1331,1331,1331,1328,1328,1328,1323,1320,1317,1314,1311,1309,1306,1303,1298,1295,1292,1290,1282,1276,1271,1266,1258,1253,1251,1246,1238,1236,1233,1231,1226,1223,1223,1223,1221,1221,1221,1223,1223,1223,1223,1226,1228,1231,1233,1233,1241,1243,1246,1248,1253,1256,1258,1263,1266,1268,1271,1282,1287,1290,1300,1306,1311,1317,1325,1328,1331,1334,1337,1337,1340,1343,1348,1351,1360,1381,1394,1406,1432,1442,1453,1470,1477,1480,1487,1498,1509,1517,1535,1547,1558,1566,1586,1586,1566,1551,1535,1520,1505,1484,1477,1477,1473,1477,1477,1477,1477,1473,1470,1466,1459,1453,1446,1446,1446,1439,1432,1419,1397,0,1328,1256,1221,1200,1186,1186,1179,1179,1179,1181,1186,1188,1191,1197,1216,1233,1256,0,0,0,1423,1436,1446,1459,1459,1456,1456,1449,1436,1419,1388,1372,1357,1345,1325,1323,1320,1320,1323,1325,1334,1340,1348,0,0,1439,1459,1470,1480,1495,1502,1502,1505,1513,1513,1509,1491,1484,1477,1473,1463,1459,1459,1463,1463,1466,1466,1470,1473,1473,1473,1477,1477,1477,1477,1477,1477,1487,1491,1498,1509,1517,1513,1491,1466,0,1406,0,1343,1306,1292,1282,1274,1268,1261,1261,1261,1261,1258,1261,1263,1268,1274,1295,1311,0,0,1436,1466,1477,1484,1484,1495,1505,1513,1520,1528,1532,1543,1551,1551,1555,1555,1555,1558,1555,1555,1558,1558,1558,1555,1555,1558,1558,1558,1562,1570,1574,1574,1586,1586,1595,1595,1603,1603,1599,1599,1595,1590,1582,1570,1566,1566,1566,1566,1566,1570,1570,1570,1574,1574,1574,1570,1570,1570,1570,1566,1562,1562,1558,1555,1551,1551,1555,1558,1574,1578
1446,1436,1410,1397,1381,1369,1357,1345,1340,1334,1328,1317,1311,1306,1303,1298,1298,1300,1298,1300,1303,1306,1311,1314,1317,1317,1317,1317,1317,1317,1311,1309,1309,1303,1300,1298,1292,1290,1287,1284,1282,1276,1271,1268,1263,1256,1253,1248,1246,1238,1236,1233,1231,1223,1223,1221,1221,1221,1221,1221,1221,1221,1223,1223,1226,1228,1231,1233,1236,1241,1243,1243,1248,1253,1256,1256,1261,1263,1266,1268,1276,1279,1284,1295,1300,1309,1314,1325,1328,1331,1337,1337,1340,1340,1343,1345,1348,1354,1372,1385,1397,1423,1436,1446,1463,1473,1477,1484,1495,1505,1513,1532,1539,1547,1555,1570,1570,1558,1547,1524,1509,1498,1473,1473,1470,1470,1470,1473,1473,1473,1473,1466,1463,1456,1449,1446,1442,1446,1442,1436,1429,1406,0,1343,1266,1226,1204,1184,1186,1177,1177,1179,1181,1186,1188,1191,1197,1226,1251,0,0,0,1449,1459,1466,1470,1470,1470,1463,1459,1453,1439,1426,1391,1375,1360,1348,1328,1325,1325,1323,1328,1334,1345,1351,1363,1391,1410,1429,1463,1470,1477,1495,1495,1498,1502,1505,1505,1498,1480,1473,1466,1459,1453,1449,1449,1453,1453,1459,1463,1466,1473,1473,1480,1484,1484,1484,1484,1484,1487,1491,1495,1502,1513,1524,1524,1505,1480,1453,1423,0,1357,1314,1300,1284,1276,1268,1261,1261,1261,1261,1261,1263,1266,1266,1274,1290,0,0,0,1410,1432,1459,1466,1477,1484,1495,1505,1513,1528,1532,1543,1555,1555,1555,1558,1555,1555,1558,1555,1555,1555,1555,1555,1555,1555,1558,1558,1562,1566,1566,1574,1578,1586,1595,1595,1603,1603,1603,1603,1599,1590,1590,1574,1570,1570,1570,1566,1566,1570,1570,1570,1570,1566,1562,1562,1562,1562,1562,1562,1562,1558,1558,1558,1555,1551,1558,1562,1574,1582
1439,1429,1406,1394,1381,1366,1357,1343,1337,1331,1325,1311,1306,1303,1298,1292,1292,1292,1295,1295,1298,1300,1303,1309,1309,1311,1311,1314,1314,1311,1309,1306,1303,1298,1295,1292,1290,1287,1284,1282,1279,1274,1268,1266,1263,1256,1251,1248,1243,1238,1236,1233,1228,1223,1223,1221,1221,1221,1221,1221,1221,1221,1223,1223,1226,1228,1231,1233,1236,1238,1243,1243,1246,1251,1253,1256,1261,1263,1263,1266,1274,1276,1282,1292,1300,1306,1314,1323,1328,1331,1340,1340,1340,1340,1340,1345,1345,1351,1366,1375,1388,1413,1426,1439,1459,1466,1473,1480,1495,1502,1509,1524,1532,1539,1547,1555,1558,1551,1532,1513,1502,1487,1466,1466,1463,1466,1470,1470,1473,1473,1470,1466,1459,1456,1446,1442,1442,1442,1442,1436,1432,1413,1381,1351,1274,1231,1204,1184,1186,1177,1177,1177,1181,1186,1188,1191,1197,1236,0,0,0,1442,1470,1473,1477,1477,1477,1477,1470,1466,1459,1446,1429,1394,1378,1363,1351,1334,1328,1328,1331,1334,1345,1354,1363,1375,1403,1419,1436,1466,1473,1477,1491,1495,1495,1498,1502,1498,1491,1470,1463,1456,1449,1442,1439,1439,1442,1446,1459,1463,1470,1473,1480,1484,1487,1487,1487,1491,1487,1491,1498,1502,1505,1520,1528,1532,1513,1491,1466,1453,1410,1375,1325,1309,1295,1282,1274,1263,1261,1261,1261,1261,1263,1266,1271,1276,1287,1298,1311,0,1366,1388,1419,1429,1439,1459,1473,1487,1502,1517,1528,1539,1555,1555,1558,1558,1558,1558,1558,1555,1555,1555,1555,1555,1555,1555,1558,1558,1558,1566,1562,1570,1582,1590,1595,1603,1611,1611,1611,1607,1607,1603,1599,1582,1578,1582,1578,1570,1570,1570,1570,1566,1566,1562,1558,1551,1555,1555,1558,1558,1562,1558,1558,1562,1562,1562,1566,1570,1586,1590
1436,1426,1416,1394,1378,1366,1357,1343,1337,1328,1323,1311,1306,1300,1298,1292,1292,1292,1292,1292,1295,1298,1298,1303,1303,1306,1309,1311,1311,1309,1306,1303,1300,1298,1292,1287,1284,1282,1282,1279,1274,1268,1266,1263,1261,1253,1251,1248,1243,1238,1236,1233,1231,1226,1223,1223,1223,1221,1221,1221,1221,1221,1223,1223,1226,1228,1231,1233,1236,1238,1243,1243,1246,1251,1253,1256,1258,1261,1263,1266,1271,1276,1282,1290,1298,1303,1311,1323,1328,1331,1340,1340,1340,1340,1343,1343,1345,1348,1360,1369,1378,1400,1413,1426,1449,1459,1466,1473,1491,1498,1505,1517,1524,1528,1532,1535,1535,1528,1513,1498,1487,1480,1463,1459,1459,1463,1466,1466,1470,1470,1470,1463,1459,1453,1442,1439,1439,1439,1439,1432,1432,1416,1357,0,1279,1236,1209,1184,1186,1177,1177,1177,1181,1184,1188,1191,1200,1246,1328,1360,1419,1459,1477,1480,1480,1484,1484,1480,1477,1470,1463,1449,1436,1400,1385,1369,1357,1340,1337,1337,1337,1343,1357,1366,1378,1391,1416,1432,1446,1470,1477,1484,1491,1495,1491,1491,1487,1480,1470,1456,1449,1442,1436,1432,1429,1436,1436,1442,1456,1463,1470,1473,1487,1491,1502,1505,1505,1505,1505,1509,1509,1513,1517,1524,1532,1535,1524,1509,1487,1466,1442,1410,1348,1323,1306,1292,1279,1266,1263,1261,1261,1261,1266,1268,1271,1274,1284,1295,1306,1331,1351,1366,1394,1406,1413,1423,1446,1463,1477,1498,1513,1528,1547,1555,1558,1558,1562,1562,1562,1558,1558,1558,1558,1558,1555,1558,1558,1558,1562,1562,1566,1570,1582,1590,1599,1607,1615,1619,1619,1619,1615,1607,1603,1599,1595,1590,1586,1578,1574,1570,1570,1566,1562,1558,1555,1551,1551,1555,1555,1555,1558,1562,1566,1566,1566,1570,1574,1578,1590,1599
1429,1423,1413,1391,1378,1366,1357,1343,1334,1328,1320,1311,1306,1300,1295,1292,1292,1292,1292,1292,1292,1295,1298,1300,1300,1303,1306,1306,1309,1306,1303,1300,1298,1295,1290,1284,1282,1282,1276,1276,1274,1268,1266,1263,1261,1253,1251,1248,1246,1241,1238,1233,1231,1228,1226,1226,1223,1223,1221,1221,1223,1223,1223,1226,1226,1228,1231,1233,1236,1238,1241,1243,1246,1251,1251,1253,1256,1258,1258,1261,1268,1271,1276,1279,1292,1300,1306,1320,1325,1331,1337,1340,1340,1343,1343,1343,1343,1345,1351,1357,1363,1381,1391,1403,1416,1439,1449,1459,1480,1487,1495,1509,1517,1520,1520,1520,1513,1509,1484,1477,1466,1459,1453,1449,1453,1456,1459,1459,1463,1463,1463,1459,1453,1446,1436,1432,1432,1429,1429,1426,1423,1416,1363,0,0,1248,1219,1193,1188,1181,1179,1177,1179,1181,1186,1191,1204,1266,1345,1394,1446,1470,1484,1484,1484,1491,1491,1491,1487,1484,1473,1470,1439,1416,1403,1385,1375,1357,1354,1357,1363,1372,1391,1400,1413,1436,1446,1456,1466,1480,1491,1495,1498,1498,1498,1491,1484,1477,1466,1453,1446,1439,1432,1432,1429,1436,1442,1449,1466,1477,1484,1491,1505,1509,1513,1517,1517,1517,1517,1517,1517,1520,1520,1528,1532,1535,1524,1513,1495,1477,1456,1388,1357,0,0,1298,1284,1268,1266,1263,1261,1263,1266,1268,1271,1276,1284,1295,1303,1325,1340,1351,1375,1388,1391,1400,1419,1432,1449,1477,1491,1509,1524,1547,1555,1558,1562,1562,1562,1558,1562,1562,1558,1558,1558,1558,1562,1562,1562,1566,1566,1574,1586,1590,1603,1611,1615,1624,1624,1624,1624,1624,1619,1607,1603,1599,1595,1578,1578,1574,1570,1562,1562,1558,1558,1555,1555,1555,1558,1558,1562,1566,1566,1570,1574,1574,1578,1582,1599,1603
1426,1416,1403,1385,1375,1366,1354,1340,1334,1325,1320,1309,1306,1300,1295,1292,1292,1292,1292,1292,1292,1292,1295,1295,1298,1298,1300,1303,1303,1303,1300,1298,1292,1290,1284,1282,1279,1276,1274,1271,1271,1266,1263,1263,1261,1253,1251,1248,1246,1241,1238,1236,1233,1228,1228,1226,1226,1223,1223,1223,1223,1223,1226,1226,1226,1228,1231,1231,1233,1236,1238,1241,1243,1246,1248,1251,1253,1256,1256,1258,1266,1268,1274,1276,1290,1298,1303,1317,1323,1328,1337,1337,1340,1343,1343,1343,1343,1343,1348,1351,1357,1372,1381,1394,1406,1432,1442,1453,1473,1484,1495,1509,1517,1520,1520,1517,1509,1498,1477,1466,1459,1453,1446,1446,1449,1453,1456,1456,1459,1459,1459,1453,1449,1442,1432,1429,1426,1426,1423,1419,1416,1413,1366,0,0,0,1219,1197,1191,1181,1179,1177,1179,1181,1184,1188,1207,1276,1360,1406,1463,1484,1487,1487,1491,1495,1495,1495,1491,1491,1484,1477,1449,1429,0,0,0,1363,1360,1369,1381,1388,1410,1423,1436,1456,1463,1473,1480,1495,1502,1505,1509,1505,1502,1495,1487,1477,1470,1453,1446,1436,1436,1432,1436,1446,1449,1459,1480,1487,1498,1505,1517,1520,1524,1524,1528,1528,1524,1524,1524,1524,1524,1532,1535,1535,1524,1513,1502,1484,1466,1403,1369,1343,1320,1303,1290,1271,1266,1266,1263,1263,1266,1268,1271,1276,1284,1292,1300,1320,1328,1340,1360,1366,1375,1381,1397,1410,1423,1436,1466,1484,1505,1535,1547,1555,1562,1566,1562,1562,1562,1562,1562,1562,1562,1562,1562,1562,1566,1566,1574,1578,1590,1599,1607,1611,1624,1624,1628,1637,1632,1632,1624,1624,1615,1607,1599,1586,1582,1578,1574,1566,1562,1562,1558,1555,1555,1555,1562,1562,1562,1566,1570,1578,1578,1578,1586,1590,1603,1611
1410,1403,1397,1378,1372,1363,1354,1340,1331,1323,1317,1306,1303,1300,1298,1292,1292,1292,1292,1292,1292,1292,1292,1295,1295,1298,1298,1300,1300,1300,1298,1295,1292,1290,1284,1282,1279,1276,1271,1271,1268,1266,1263,1263,1261,1256,1253,1251,1248,1243,1241,1238,1236,1233,1231,1228,1226,1226,1226,1226,1226,1226,1226,1228,1228,1231,1231,1231,1233,1236,1238,1241,1243,1246,1246,1248,1253,1253,1256,1256,1263,1266,1271,1274,1287,1292,1300,1311,1320,1325,1328,1337,1340,1340,1343,1343,1343,1343,1345,1348,1351,1357,1372,1381,1394,1419,1432,1446,1470,1480,1491,1509,1517,1520,1517,1517,1505,1498,1473,1463,1449,1442,1442,1439,1442,1449,1449,1453,1453,1453,1456,1449,1446,1439,1429,1426,1423,1419,1419,1416,1413,1410,1366,1334,0,0,1223,1200,1193,1181,1177,1177,1177,1179,1181,1186,1209,1284,1325,1416,1470,1491,1491,1495,1495,1498,1498,1498,1498,1498,1491,1487,1466,1446,1429,1416,1400,1381,0,1385,1397,1410,1432,1442,1456,1473,1480,1487,1498,1505,1509,1513,1513,1513,1505,1495,1491,1480,1470,1456,1449,1439,1439,1439,1439,1453,1459,1470,1487,1498,1509,1517,1528,1532,1535,1535,1535,1535,1532,1532,1528,1528,1528,1532,1535,1535,1524,1517,1505,1491,1477,1416,1381,1351,1328,1309,1292,1274,1268,1266,1263,1263,1266,1268,1271,1274,1284,1287,1295,1306,1314,1320,1328,1334,1340,1345,1348,1363,1375,1385,1419,1439,1459,1502,1520,1539,1555,1558,1558,1562,1562,1566,1562,1562,1566,1566,1566,1578,1578,1582,1586,1590,1603,1607,1615,1619,1628,1637,1641,1650,1650,1645,1645,1641,1632,1628,1619,1599,1595,1590,1582,1574,1570,1566,1566,1562,1562,1562,1566,1570,1570,1574,1578,1590,1595,1599,1603,1607,1619,1624
1403,1397,1391,1375,1366,1357,1351,1337,1328,1323,1314,1306,1303,1298,1295,1292,1292,1292,1292,1290,1290,1290,1290,1292,1292,1295,1295,1298,1298,1298,1295,1295,1292,1290,1284,1282,1279,1276,1271,1271,1268,1266,1263,1263,1261,1256,1253,1251,1251,1246,1241,1238,1238,1233,1231,1231,1228,1226,1226,1226,1226,1226,1228,1228,1228,1228,1231,1231,1233,1236,1236,1238,1241,1243,1246,1248,1248,1251,1253,1256,1261,1263,1266,1271,1284,1290,1298,1309,1314,1323,1325,1334,1337,1340,1343,1343,1343,1343,1343,1345,1348,1351,1363,1372,1385,1410,1426,1436,1463,1477,1487,1498,1513,1520,1520,1513,1505,1495,1470,1456,1442,1436,1436,1436,1439,1442,1446,1446,1449,1449,1449,1446,1442,1432,1423,1416,1416,1413,1410,1406,1403,1406,1366,1331,0,1258,1226,1202,1191,1184,1177,1177,1175,1175,1177,1181,1211,1287,1328,1423,1477,1491,1491,1487,1487,1491,1491,1491,1491,1495,1498,1495,1480,1466,1453,0,0,0,0,1406,1419,1446,1459,1473,1484,1502,1505,1509,1520,1524,1528,1528,1524,1520,1517,1502,1495,1487,1477,1459,1453,1446,1446,1446,1456,1477,1484,1495,1517,1524,1528,1539,1543,1547,1547,1551,1547,1547,1543,1543,1543,1539,1539,1543,1543,1543,1532,1520,1509,1498,1484,1426,1394,1363,1337,1320,1303,1279,1271,1268,1263,1263,1266,1266,1268,1271,1279,1284,1290,1300,1303,1311,1317,1325,1328,1334,1337,1343,1354,1366,1397,1416,1436,1487,1505,1528,1547,1551,1555,1558,1566,1570,1570,1574,1578,1582,1582,1586,1586,1590,1595,1595,1603,1611,1615,1624,1637,1641,1645,1658,1658,1658,1650,1645,1641,1632,1624,1607,1603,1595,1590,1582,1578,1574,1570,1570,1570,1570,1574,1574,1578,1578,1582,1590,1599,1603,1607,1615,1628,1628
1394,1391,1385,1369,1360,1354,1345,1331,1325,1320,1311,1303,1300,1298,1295,1292,1292,1290,1290,1290,1290,1290,1290,1290,1292,1292,1292,1295,1295,1295,1295,1292,1290,1290,1282,1282,1279,1276,1271,1271,1268,1268,1263,1263,1261,1256,1253,1253,1251,1246,1243,1241,1238,1236,1233,1231,1228,1228,1228,1226,1226,1228,1228,1228,1228,1228,1231,1231,1231,1233,1236,1236,1236,1241,1241,1243,1246,1248,1248,1251,1256,1258,1263,1266,1276,1282,1287,1300,1306,1311,1317,1328,1334,1337,1340,1343,1343,1343,1343,1343,1343,1343,1351,1357,1369,1394,1410,1423,1456,1470,1484,1495,1513,1520,1520,1517,1509,1498,1473,1463,1449,1439,1436,1432,1436,1439,1442,1442,1442,1439,1439,1436,1432,1429,1419,1416,1413,1410,1403,1403,1400,1400,1369,1340,0,1263,1233,1209,1191,1184,1177,1177,1175,1177,1177,1181,1211,0,1378,1429,1480,1491,1487,1484,1477,1480,1480,1484,1480,1487,1491,1498,1498,1487,0,0,0,0,0,0,1517,1535,1543,1562,1574,1578,1578,1578,1570,1562,1555,1547,1539,1539,1532,1517,1509,1502,1498,1480,1477,1473,1473,1473,1484,1495,1502,1509,1528,1532,1539,1547,1551,1551,1555,1555,1555,1555,1551,1551,1551,1547,1547,1547,1551,1551,1535,1524,1513,1498,1484,1429,1394,1363,1340,1323,1306,1279,1274,1268,1263,1263,1266,1266,1268,1271,1276,1279,1284,1287,1298,1303,1309,1314,1317,1323,1325,1331,1337,1348,1375,1394,1416,1439,1498,1520,1535,1551,1558,1562,1574,1578,1582,1586,1590,1599,1599,1595,1595,1599,1599,1603,1607,1615,1615,1619,1632,1637,1645,1654,1654,1654,1650,1645,1645,1637,1628,1611,1603,1595,1595,1582,1582,1578,1574,1574,1574,1574,1578,1578,1578,1582,1586,1595,1603,1603,1611,1615,1628,1632
1381,1378,1372,1357,1351,1343,1334,1323,1317,1311,1306,1298,1295,1295,1292,1290,1290,1287,1287,1284,1284,1284,1284,1284,1287,1290,1290,1292,1295,1292,1292,1290,1290,1287,1282,1279,1279,1276,1271,1271,1271,1268,1266,1263,1261,1256,1256,1253,1251,1246,1243,1241,1238,1236,1233,1231,1231,1228,1228,1228,1228,1228,1228,1228,1228,1228,1228,1231,1231,1231,1233,1236,1236,1238,1241,1241,1243,1246,1248,1251,1253,1258,1261,1263,1271,1276,1282,1295,1300,1306,1314,1323,1328,1334,1340,1343,1343,1343,1343,1343,1343,1343,1345,1354,1363,1388,1403,1416,1449,1466,1480,1491,1509,1520,1524,1528,1520,1517,1502,1491,1484,1477,1463,1459,1456,1453,1446,1442,1439,1436,1436,1432,1429,1426,1416,1413,1410,1406,1400,1397,1394,1394,1369,1340,0,1266,1238,1214,1191,1184,1179,1177,1175,1177,1177,1184,1219,0,1388,1439,1491,1491,1487,1480,1473,1473,1473,1473,1473,1484,1487,1495,1498,1495,0,0,0,0,0,0,1562,1574,1586,1599,1615,1615,1607,1603,1590,1582,1570,1555,1551,1543,1539,1524,1520,1513,1505,1495,1491,1491,1491,1495,1509,1513,1520,1524,1539,1543,1547,1555,1555,1555,1558,1558,1558,1558,1555,1558,1558,1555,1555,1558,1558,1558,1543,1532,1517,1502,1487,1429,1397,1366,1343,1323,1306,1282,1274,1268,1263,1263,1263,1266,1266,1268,1274,1276,1282,1284,1292,1298,1300,1306,1309,1311,1314,1320,1325,1334,1345,1378,1400,1423,1484,1517,1535,1555,1558,1562,1574,1582,1586,1590,1599,1599,1603,1599,1599,1599,1603,1603,1603,1607,1607,1611,1615,1624,1624,1628,1641,1641,1641,1641,1637,1628,1624,1607,1603,1599,1595,1586,1582,1578,1578,1578,1578,1578,1582,1578,1578,1582,1586,1590,1599,1603,1603,1611,1624,1628
