# .PCD v0.7 - Point Cloud Data file format
VERSION 0.7
FIELDS x y z
SIZE 4 4 4
TYPE F F F
COUNT 1 1 1
WIDTH 1606
HEIGHT 1
VIEWPOINT 0 0 0 1 0 0 0
POINTS 1606
DATA ascii
-950.0898669 522.1039571 1292
-943.4081786 522.1039571 1292
-938.9015518 523.3162728 1295
-934.3638956 524.5285885 1298
-927.6511778 524.5285885 1298
-924.4859887 526.5491146 1303
-917.747413 526.5491146 1303
-913.106325 527.7614303 1306
-908.4342075 528.973746 1309
-903.0422411 529.7819565 1311
-896.2622927 529.7819565 1311
-888.1253918 528.973746 1309
-879.3358727 527.7614303 1306
-870.577383 526.5491146 1303
-861.8499229 525.3367989 1300
-853.8112821 524.5285885 1298
-843.1828545 522.1039571 1292
-833.2639326 520.083431 1287
-824.6812768 518.8711153 1284
-816.7667541 518.0629048 1282
-810.1367817 518.0629048 1282
-801.6265281 516.8505891 1279
-791.9041265 514.830063 1274
-1038.373747 543.5196107 1328
-1025.291991 540.2453962 1320
-1011.521415 536.5619049 1311
-1000.909501 534.5155208 1306
-989.588081 532.0598599 1300
-979.08477 530.0134758 1295
-970.1349317 528.7856454 1292
-963.4532434 528.7856454 1292
-956.7715551 528.7856454 1292
-950.0898669 528.7856454 1292
-943.4081786 528.7856454 1292
-936.7264903 528.7856454 1292
-932.2043488 530.0134758 1295
-927.6511778 531.2413063 1298
-922.3574715 532.0598599 1300
-915.6344105 532.0598599 1300
-911.0088373 533.2876903 1303
-906.3522346 534.5155208 1306
-899.5981441 534.5155208 1306
-894.8949971 535.7433512 1309
-886.0899631 534.5155208 1306
-877.3159587 533.2876903 1303
-868.5729838 532.0598599 1300
-860.5239999 531.2413063 1298
-851.8379124 530.0134758 1295
-841.8776179 527.9670917 1290
-831.3215924 525.5114309 1284
-823.3967266 524.6928772 1282
-816.7667541 524.6928772 1282
-806.3451899 522.2372163 1276
-799.746247 522.2372163 1276
-791.9041265 521.4186627 1274
-1036.028023 549.1441309 1325
-1025.291991 547.0718889 1320
-1009.978286 542.5129565 1309
-1000.909501 541.2696113 1306
-989.588081 538.7829209 1300
-979.08477 536.7106789 1295
-970.1349317 535.4673337 1292
-963.4532434 535.4673337 1292
-956.7715551 535.4673337 1292
-950.0898669 535.4673337 1292
-943.4081786 535.4673337 1292
-936.7264903 535.4673337 1292
-930.044802 535.4673337 1292
-925.5071458 536.7106789 1295
-918.8099427 536.7106789 1295
-914.2257422 537.9540241 1298
-907.5130244 537.9540241 1298
-902.1882886 538.7829209 1300
-897.5316859 540.0262661 1303
-890.7931102 540.0262661 1303
-884.0545344 540.0262661 1303
-875.2960448 538.7829209 1300
-867.2367177 537.9540241 1298
-856.546231 535.4673337 1292
-848.548963 534.6384369 1290
-837.961908 532.1517464 1284
-830.026699 531.3228496 1282
-821.4699011 530.0795044 1279
-812.9441328 528.8361592 1276
-805.081326 528.0072624 1274
-796.6124451 526.7639172 1271
-790.0393601 526.7639172 1271
-1047.602851 558.5142014 1331
-1034.464208 555.1572415 1323
-1022.961782 552.6395216 1317
-1007.663592 548.0237017 1306
-998.6103216 546.7648418 1303
-989.588081 545.5059818 1300
-981.3529201 544.6667418 1298
-970.1349317 542.1490219 1292
-963.4532434 542.1490219 1292
-956.7715551 542.1490219 1292
-950.0898669 542.1490219 1292
-943.4081786 542.1490219 1292
-936.7264903 542.1490219 1292
-930.044802 542.1490219 1292
-923.3631138 542.1490219 1292
-918.8099427 543.4078819 1295
-912.1127397 543.4078819 1295
-907.5130244 544.6667418 1298
-900.8003066 544.6667418 1298
-895.4652276 545.5059818 1300
-888.7421667 545.5059818 1300
-882.0191057 545.5059818 1300
-873.9494355 544.6667418 1298
-865.2323185 543.4078819 1295
-856.546231 542.1490219 1292
-848.548963 541.309782 1290
-837.961908 538.792062 1284
-830.026699 537.9528221 1282
-821.4699011 536.6939621 1279
-812.9441328 535.4351022 1276
-803.1855301 533.3370022 1271
-796.6124451 533.3370022 1271
-788.1745937 532.0781423 1268
-780.3841891 531.2389023 1266
-1059.239738 567.9463309 1337
-1045.241613 564.1232068 1328
-1034.464208 561.9992489 1323
-1020.631573 558.1761248 1314
-1007.663592 554.7777922 1306
-998.6103216 553.5034175 1303
-988.0656378 551.3794596 1298
-979.08477 550.1050849 1295
-970.1349317 548.8307102 1292
-963.4532434 548.8307102 1292
-956.7715551 548.8307102 1292
-950.0898669 548.8307102 1292
-941.9477944 547.9811271 1290
-935.2764493 547.9811271 1290
-928.6051042 547.9811271 1290
-921.9337591 547.9811271 1290
-916.6814255 548.8307102 1292
-909.9997372 548.8307102 1292
-905.4155367 550.1050849 1295
-898.7183336 550.1050849 1295
-894.0875888 551.3794596 1298
-887.374871 551.3794596 1298
-880.6621533 551.3794596 1298
-871.9295215 550.1050849 1295
-865.2323185 550.1050849 1295
-856.546231 548.8307102 1292
-848.548963 547.9811271 1290
-837.961908 545.4323776 1284
-830.026699 544.5827945 1282
-821.4699011 543.3084198 1279
-812.9441328 542.0340451 1276
-803.1855301 539.9100872 1271
-796.6124451 539.9100872 1271
-788.1745937 538.6357125 1268
-780.3841891 537.7861293 1266
-1054.486231 572.2809616 1331
-1042.880374 569.7011826 1325
-1032.118484 567.5513669 1320
-1018.301364 563.6816985 1311
-1005.348897 560.2419932 1303
-996.311142 558.9521037 1300
-988.0656378 558.0921774 1298
-979.08477 556.8022879 1295
-970.1349317 555.5123985 1292
-963.4532434 555.5123985 1292
-955.2904846 554.6524722 1290
-948.6191395 554.6524722 1290
-941.9477944 554.6524722 1290
-935.2764493 554.6524722 1290
-928.6051042 554.6524722 1290
-921.9337591 554.6524722 1290
-915.262414 554.6524722 1290
-909.9997372 555.5123985 1292
-903.3180489 555.5123985 1292
-896.6363607 555.5123985 1292
-892.0211306 556.8022879 1295
-885.3239276 556.8022879 1295
-878.6267246 556.8022879 1295
-871.9295215 556.8022879 1295
-863.2279193 555.5123985 1292
-855.2203081 554.6524722 1290
-848.548963 554.6524722 1290
-836.6566714 551.2127669 1282
-830.026699 551.2127669 1282
-821.4699011 549.9228774 1279
-812.9441328 548.632988 1276
-803.1855301 546.4831722 1271
-796.6124451 546.4831722 1271
-788.1745937 545.1932827 1268
-781.6170235 545.1932827 1268
-1063.761879 580.4697459 1334
-1048.148222 575.6832638 1323
-1036.583738 573.0724553 1317
-1025.081312 570.4616469 1311
-1014.417682 568.2859731 1306
-1001.491073 564.8048952 1298
-992.4791761 563.499491 1295
-985.781973 563.499491 1295
-976.81662 562.1940868 1292
-968.6331748 561.3238173 1290
-961.9618297 561.3238173 1290
-953.0688788 560.018413 1287
-946.4130485 560.018413 1287
-937.5666419 558.7130088 1284
-930.9263263 558.7130088 1284
-924.2860107 558.7130088 1284
-917.6456951 558.7130088 1284
-911.0053795 558.7130088 1284
-906.4780664 560.018413 1287
-901.9197238 561.3238173 1290
-895.2483787 561.3238173 1290
-889.9546724 562.1940868 1292
-885.3239276 563.499491 1295
-876.5912959 562.1940868 1292
-869.9096076 562.1940868 1292
-861.8916532 561.3238173 1290
-855.2203081 561.3238173 1290
-846.5755933 560.018413 1287
-836.6566714 557.8427393 1282
-828.0843588 556.5373351 1279
-821.4699011 556.5373351 1279
-812.9441328 555.2319309 1276
-803.1855301 553.0562572 1271
-796.6124451 553.0562572 1271
-790.0393601 553.0562572 1271
-781.6170235 551.7508529 1268
-773.836962 550.8805835 1266
-1073.068557 588.6895598 1337
-1061.369611 586.0477218 1331
-1043.394716 579.8834332 1317
-1031.861261 577.2415952 1311
-1021.171773 575.0400636 1306
-1012.087473 573.7191446 1303
-999.1763791 570.196694 1295
-990.1799965 568.875775 1292
-983.4983082 568.875775 1292
-975.3045199 567.9951624 1290
-966.3805395 566.6742434 1287
-957.4875887 565.3533244 1284
-950.8472731 565.3533244 1284
-944.2069575 565.3533244 1284
-937.5666419 565.3533244 1284
-930.9263263 565.3533244 1284
-924.2860107 565.3533244 1284
-917.6456951 565.3533244 1284
-911.0053795 565.3533244 1284
-906.4780664 566.6742434 1287
-899.8222361 566.6742434 1287
-895.2483787 567.9951624 1290
-889.9546724 568.875775 1292
-883.2729841 568.875775 1292
-876.5912959 568.875775 1292
-869.9096076 568.875775 1292
-863.2279193 568.875775 1292
-855.2203081 567.9951624 1290
-846.5755933 566.6742434 1287
-837.961908 565.3533244 1284
-830.026699 564.4727118 1282
-821.4699011 563.1517928 1279
-812.9441328 561.8308738 1276
-805.081326 560.9502611 1274
-796.6124451 559.6293421 1271
-790.0393601 559.6293421 1271
-781.6170235 558.3084232 1268
-773.836962 557.4278105 1266
-1079.982967 595.6039694 1337
-1068.252991 592.9311019 1331
-1054.99023 589.3672786 1323
-1043.394716 586.6944111 1317
-1030.287102 583.1305878 1309
-1018.826049 580.4577203 1303
-1008.203791 578.2303308 1298
-999.1763791 576.893897 1295
-988.6472101 574.6665075 1290
-979.6922002 573.3300737 1287
-970.7682198 571.99364 1284
-962.6261474 571.1026842 1282
-955.996175 571.1026842 1282
-949.3662026 571.1026842 1282
-942.7362301 571.1026842 1282
-936.1062577 571.1026842 1282
-929.4762853 571.1026842 1282
-922.8463129 571.1026842 1282
-916.2163404 571.1026842 1282
-909.586368 571.1026842 1282
-904.3650639 571.99364 1284
-899.8222361 573.3300737 1287
-893.1664057 573.3300737 1287
-888.5770336 574.6665075 1290
-881.9056885 574.6665075 1290
-875.2343434 574.6665075 1290
-869.9096076 575.5574633 1292
-863.2279193 575.5574633 1292
-855.2203081 574.6665075 1290
-846.5755933 573.3300737 1287
-837.961908 571.99364 1284
-830.026699 571.1026842 1282
-821.4699011 569.7662504 1279
-812.9441328 568.4298167 1276
-805.081326 567.5388609 1274
-796.6124451 566.2024271 1271
-790.0393601 566.2024271 1271
-781.6170235 564.8659934 1268
-773.836962 563.9750376 1266
-1093.400876 606.123575 1345
-1075.136372 599.814482 1331
-1063.437426 597.110585 1325
-1052.597962 594.8573375 1320
-1041.017962 592.1534405 1314
-1025.564624 587.1962961 1303
-1014.916509 584.9430486 1298
-1003.543373 582.2391516 1292
-995.3185552 581.3378526 1290
-984.048851 578.6339556 1284
-977.4085354 578.6339556 1284
-969.2561198 577.7326566 1282
-960.3735121 576.3807081 1279
-953.7590544 576.3807081 1279
-947.1445968 576.3807081 1279
-938.3240481 575.0287596 1276
-931.7251052 575.0287596 1276
-927.3012238 576.3807081 1279
-920.6867661 576.3807081 1279
-916.2163404 577.7326566 1282
-909.586368 577.7326566 1282
-902.9563956 577.7326566 1282
-897.7247483 578.6339556 1284
-893.1664057 579.9859041 1287
-886.5105754 579.9859041 1287
-881.9056885 581.3378526 1290
-875.2343434 581.3378526 1290
-869.9096076 582.2391516 1292
-861.8916532 581.3378526 1290
-853.2314236 579.9859041 1287
-846.5755933 579.9859041 1287
-836.6566714 577.7326566 1282
-830.026699 577.7326566 1282
-821.4699011 576.3807081 1279
-812.9441328 575.0287596 1276
-805.081326 574.1274606 1274
-796.6124451 572.7755121 1271
-790.0393601 572.7755121 1271
-781.6170235 571.4235636 1268
-773.836962 570.5222646 1266
-767.289735 570.5222646 1266
-1086.897376 609.4327886 1337
-1070.289776 603.9629356 1325
-1059.424454 601.6838302 1320
-1045.421157 597.5814404 1311
-1034.679953 595.302335 1306
-1019.267988 590.2883031 1295
-1008.661245 588.0091977 1290
-999.6596913 586.6417344 1287
-989.1460371 584.362629 1282
-980.2168851 582.9951658 1279
-971.3187626 581.6277025 1276
-964.7198197 581.6277025 1276
-956.61912 580.7160603 1274
-950.0305202 580.7160603 1274
-943.4419205 580.7160603 1274
-934.6472297 579.3485971 1271
-928.0741447 579.3485971 1271
-925.1261623 581.6277025 1276
-918.5272194 581.6277025 1276
-914.0723084 582.9951658 1279
-907.4578508 582.9951658 1279
-902.9563956 584.362629 1282
-896.3264232 584.362629 1282
-891.0844327 585.2742712 1284
-886.5105754 586.6417344 1287
-881.9056885 588.0091977 1290
-875.2343434 588.0091977 1290
-868.5629983 588.0091977 1290
-861.8916532 588.0091977 1290
-855.2203081 588.0091977 1290
-846.5755933 586.6417344 1287
-836.6566714 584.362629 1282
-830.026699 584.362629 1282
-821.4699011 582.9951658 1279
-812.9441328 581.6277025 1276
-803.1855301 579.3485971 1271
-796.6124451 579.3485971 1271
-790.0393601 579.3485971 1271
-781.6170235 577.9811338 1268
-773.836962 577.0694917 1266
-765.4715128 575.7020284 1263
-1084.458564 614.9642202 1334
-1068.674245 609.8933009 1323
-1054.608889 605.7443668 1314
-1043.826312 603.4394035 1309
-1032.3032 600.6734475 1303
-1016.90675 595.6025281 1292
-1006.315522 593.2975648 1287
-997.3294822 591.9145868 1284
-989.1460371 590.9926014 1282
-977.9177055 588.2266454 1276
-969.7963194 587.3046601 1274
-960.9395696 585.9216821 1271
-954.3664847 585.9216821 1271
-947.7933997 585.9216821 1271
-941.2203147 585.9216821 1271
-934.6472297 585.9216821 1271
-928.0741447 585.9216821 1271
-923.6761213 587.3046601 1274
-917.0875215 587.3046601 1274
-914.0723084 589.6096234 1279
-907.4578508 589.6096234 1279
-902.9563956 590.9926014 1282
-897.7247483 591.9145868 1284
-891.0844327 591.9145868 1284
-886.5105754 593.2975648 1287
-881.9056885 594.6805428 1290
-876.5912959 595.6025281 1292
-869.9096076 595.6025281 1292
-865.2323185 596.9855061 1295
-856.546231 595.6025281 1292
-849.8645428 595.6025281 1292
-841.8776179 594.6805428 1290
-831.3215924 591.9145868 1284
-823.3967266 590.9926014 1282
-814.8554435 589.6096234 1279
-805.081326 587.3046601 1274
-796.6124451 585.9216821 1271
-788.1745937 584.5387041 1268
-781.6170235 584.5387041 1268
-773.836962 583.6167187 1266
-765.4715128 582.2337407 1263
-758.9398005 582.2337407 1263
-1079.580939 619.0661295 1328
-1063.827649 613.9383228 1317
-1052.201106 611.1413372 1311
-1041.434044 608.810516 1306
-1029.926447 606.0135304 1300
-1015.332591 601.3518879 1290
-1003.969798 598.5549024 1284
-995.7760095 597.6225739 1282
-984.5166484 594.8255883 1276
-976.3849192 593.8932598 1274
-967.5126546 592.4947671 1271
-960.9395696 592.4947671 1271
-954.3664847 592.4947671 1271
-945.5562791 591.0962743 1268
-938.9987089 591.0962743 1268
-932.4411387 591.0962743 1268
-925.8835685 591.0962743 1268
-921.5010598 592.4947671 1271
-917.0875215 593.8932598 1274
-911.9282764 594.8255883 1276
-907.4578508 596.2240811 1279
-902.9563956 597.6225739 1282
-897.7247483 598.5549024 1284
-893.1664057 599.9533951 1287
-886.5105754 599.9533951 1287
-883.2729841 602.2842164 1292
-876.5912959 602.2842164 1292
-871.9295215 603.6827092 1295
-867.2367177 605.0812019 1298
-860.5239999 605.0812019 1298
-851.8379124 603.6827092 1295
-841.8776179 601.3518879 1290
-833.2639326 599.9533951 1287
-824.6812768 598.5549024 1284
-816.7667541 597.6225739 1282
-805.081326 593.8932598 1274
-796.6124451 592.4947671 1271
-788.1745937 591.0962743 1268
-781.6170235 591.0962743 1268
-773.836962 590.1639458 1266
-765.4715128 588.765453 1263
-758.9398005 588.765453 1263
-751.2166265 587.8331245 1261
-1075.516252 623.5773157 1323
-1061.404352 619.3352931 1314
-1050.595917 616.9786139 1309
-1039.041776 614.1505989 1303
-1028.341945 611.7939197 1298
-1012.971352 606.6092255 1287
-1002.405982 604.2525463 1282
-993.4458004 602.8385388 1279
-984.5166484 601.4245312 1276
-974.0857396 599.067852 1271
-967.5126546 599.067852 1271
-958.6714196 597.6538445 1268
-952.1138494 597.6538445 1268
-945.5562791 597.6538445 1268
-938.9987089 597.6538445 1268
-930.9704113 596.7111728 1266
-924.4231843 596.7111728 1266
-921.5010598 599.067852 1271
-914.9279748 599.067852 1271
-911.9282764 601.4245312 1276
-905.3293335 601.4245312 1276
-902.9563956 604.2525463 1282
-897.7247483 605.195218 1284
-893.1664057 606.6092255 1287
-888.5770336 608.023233 1290
-883.2729841 608.9659047 1292
-876.5912959 608.9659047 1292
-871.9295215 610.3799122 1295
-867.2367177 611.7939197 1298
-860.5239999 611.7939197 1298
-853.8112821 611.7939197 1298
-841.8776179 608.023233 1290
-833.2639326 606.6092255 1287
-824.6812768 605.195218 1284
-816.7667541 604.2525463 1282
-805.081326 600.4818596 1274
-796.6124451 599.067852 1271
-788.1745937 597.6538445 1268
-781.6170235 597.6538445 1268
-772.0032251 595.2971653 1263
-765.4715128 595.2971653 1263
-758.9398005 595.2971653 1263
-751.2166265 594.3544936 1261
-1068.199815 626.1307563 1314
-1054.942225 622.3186969 1306
-1043.372569 619.4596523 1300
-1035.054662 618.5066375 1298
-1023.588438 615.6475929 1292
-1009.035954 610.8825187 1282
-1000.060258 609.4529964 1279
-991.1155914 608.0234741 1276
-980.6588246 605.640937 1271
-971.78656 604.2114148 1268
-963.7065466 603.2583999 1266
-957.1593196 603.2583999 1266
-950.6120925 603.2583999 1266
-941.8277449 601.8288776 1263
-935.2960326 601.8288776 1263
-928.7643203 601.8288776 1263
-922.232608 601.8288776 1263
-919.3259982 604.2114148 1268
-914.9279748 605.640937 1271
-910.4989218 607.0704593 1274
-903.910322 607.0704593 1274
-900.8433931 609.4529964 1279
-896.3264232 610.8825187 1282
-893.1664057 613.2650558 1287
-886.5105754 613.2650558 1287
-881.9056885 614.6945781 1290
-876.5912959 615.6475929 1292
-871.9295215 617.0771152 1295
-867.2367177 618.5066375 1298
-858.5351155 617.0771152 1295
-851.8379124 617.0771152 1295
-841.8776179 614.6945781 1290
-833.2639326 613.2650558 1287
-823.3967266 610.8825187 1282
-816.7667541 610.8825187 1282
-805.081326 607.0704593 1274
-796.6124451 605.640937 1271
-788.1745937 604.2114148 1268
-780.3841891 603.2583999 1266
-773.836962 603.2583999 1266
-767.289735 603.2583999 1266
-758.9398005 601.8288776 1263
-752.4080882 601.8288776 1263
-742.9235795 599.4463405 1258
-1064.135128 630.5178244 1309
-1050.09563 626.1827133 1300
-1041.76738 625.2193553 1298
-1030.270126 622.3292812 1292
-1022.003936 621.3659232 1290
-1009.035954 617.5124911 1282
-997.7145343 614.6224171 1276
-989.5621186 613.659059 1274
-980.6588246 612.214022 1271
-971.78656 610.768985 1268
-963.7065466 609.805627 1266
-957.1593196 609.805627 1266
-948.3594572 608.3605899 1263
-941.8277449 608.3605899 1263
-935.2960326 608.3605899 1263
-928.7643203 608.3605899 1263
-922.232608 608.3605899 1263
-915.7008957 608.3605899 1263
-912.768428 610.768985 1268
-908.3548898 612.214022 1271
-903.910322 613.659059 1274
-900.8433931 616.0674541 1279
-896.3264232 617.5124911 1282
-893.1664057 619.9208862 1287
-886.5105754 619.9208862 1287
-881.9056885 621.3659232 1290
-876.5912959 622.3292812 1292
-869.9096076 622.3292812 1292
-865.2323185 623.7743183 1295
-858.5351155 623.7743183 1295
-851.8379124 623.7743183 1295
-841.8776179 621.3659232 1290
-833.2639326 619.9208862 1287
-823.3967266 617.5124911 1282
-816.7667541 617.5124911 1282
-805.081326 613.659059 1274
-796.6124451 612.214022 1271
-788.1745937 610.768985 1268
-781.6170235 610.768985 1268
-773.836962 609.805627 1266
-767.289735 609.805627 1266
-760.7425079 609.805627 1266
-752.4080882 608.3605899 1263
-744.6952574 607.3972319 1261
-1056.818691 632.9057743 1300
-1046.0568 630.4715213 1295
-1036.951814 629.0109695 1292
-1028.675281 628.0372683 1290
-1019.627182 626.5767165 1287
-1006.674716 622.6819118 1279
-997.7145343 621.22136 1276
-987.2319096 618.787107 1271
-980.6588246 618.787107 1271
-970.2537737 616.352854 1266
-963.7065466 616.352854 1266
-957.1593196 616.352854 1266
-948.3594572 614.8923022 1263
-941.8277449 614.8923022 1263
-933.8149621 613.918601 1261
-927.293593 613.918601 1261
-920.7722238 613.918601 1261
-915.7008957 614.8923022 1263
-912.768428 617.3265552 1268
-908.3548898 618.787107 1271
-903.910322 620.2476588 1274
-900.8433931 622.6819118 1279
-896.3264232 624.1424635 1282
-893.1664057 626.5767165 1287
-886.5105754 626.5767165 1287
-881.9056885 628.0372683 1290
-875.2343434 628.0372683 1290
-869.9096076 629.0109695 1292
-865.2323185 630.4715213 1295
-858.5351155 630.4715213 1295
-849.8645428 629.0109695 1292
-841.8776179 628.0372683 1290
-833.2639326 626.5767165 1287
-823.3967266 624.1424635 1282
-816.7667541 624.1424635 1282
-805.081326 620.2476588 1274
-796.6124451 618.787107 1271
-788.1745937 617.3265552 1268
-781.6170235 617.3265552 1268
-775.0594533 617.3265552 1268
-768.501883 617.3265552 1268
-760.7425079 616.352854 1266
-754.1952808 616.352854 1266
-745.8763759 614.8923022 1263
-738.1738882 613.918601 1261
-1052.754003 637.1687243 1295
-1043.633503 635.6926578 1292
-1035.346626 634.7086134 1290
-1026.283013 633.2325469 1287
-1017.250429 631.7564803 1284
-1004.313477 627.8203029 1276
-993.8049946 625.360192 1271
-984.9017005 623.8841254 1268
-978.3441303 623.8841254 1268
-967.9545941 621.4240145 1263
-961.4228818 621.4240145 1263
-953.3790695 620.4399702 1261
-946.8577004 620.4399702 1261
-940.3363312 620.4399702 1261
-933.8149621 620.4399702 1261
-927.293593 620.4399702 1261
-920.7722238 620.4399702 1261
-914.2508547 620.4399702 1261
-912.768428 623.8841254 1268
-906.2108578 623.8841254 1268
-903.910322 626.8362585 1274
-900.8433931 629.2963694 1279
-896.3264232 630.772436 1282
-891.0844327 631.7564803 1284
-886.5105754 633.2325469 1287
-879.854745 633.2325469 1287
-873.1989147 633.2325469 1287
-868.5629983 634.7086134 1290
-861.8916532 634.7086134 1290
-855.2203081 634.7086134 1290
-848.548963 634.7086134 1290
-837.961908 631.7564803 1284
-830.026699 630.772436 1282
-821.4699011 629.2963694 1279
-814.8554435 629.2963694 1279
-803.1855301 625.360192 1271
-794.7321639 623.8841254 1268
-788.1745937 623.8841254 1268
-781.6170235 623.8841254 1268
-775.0594533 623.8841254 1268
-768.501883 623.8841254 1268
-761.9443128 623.8841254 1268
-755.3867426 623.8841254 1268
-747.6480538 622.9000811 1266
-739.3446636 621.4240145 1263
-1046.250504 639.8883772 1287
-1037.171376 638.3967959 1284
-1028.925872 637.4024084 1282
-1019.903631 635.9108271 1279
-1010.91242 634.4192458 1276
-1000.37808 631.933277 1271
-993.8049946 631.933277 1271
-984.9017005 630.4416957 1268
-976.8010007 629.4473081 1266
-967.9545941 627.9557268 1263
-959.9004386 626.9613393 1261
-953.3790695 626.9613393 1261
-946.8577004 626.9613393 1261
-940.3363312 626.9613393 1261
-933.8149621 626.9613393 1261
-927.293593 626.9613393 1261
-920.7722238 626.9613393 1261
-915.7008957 627.9557268 1263
-912.768428 630.4416957 1268
-906.2108578 630.4416957 1268
-901.7818048 631.933277 1271
-900.8433931 635.9108271 1279
-896.3264232 637.4024084 1282
-891.0844327 638.3967959 1284
-886.5105754 639.8883772 1287
-879.854745 639.8883772 1287
-871.163486 638.3967959 1284
-866.5430843 639.8883772 1287
-857.8828548 638.3967959 1284
-851.2425392 638.3967959 1284
-844.6022236 638.3967959 1284
-836.6566714 637.4024084 1282
-828.0843588 635.9108271 1279
-821.4699011 635.9108271 1279
-811.6699257 633.4248583 1274
-803.1855301 631.933277 1271
-796.6124451 631.933277 1271
-788.1745937 630.4416957 1268
-781.6170235 630.4416957 1268
-776.8931901 631.933277 1271
-770.3201052 631.933277 1271
-763.7470202 631.933277 1271
-757.1739352 631.933277 1271
-748.8291724 630.4416957 1268
-742.2716021 630.4416957 1268
-734.5535997 629.4473081 1266
-1042.185816 644.0323808 1282
-1035.555844 644.0323808 1282
-1026.518089 642.5252847 1279
-1017.511363 641.0181887 1276
-1009.327918 640.013458 1274
-998.016841 636.9992659 1268
-991.4592707 636.9992659 1268
-983.3482278 635.9945352 1266
-974.4863064 634.4874391 1263
-966.4218077 633.4827084 1261
-959.9004386 633.4827084 1261
-953.3790695 633.4827084 1261
-944.6050651 631.9756124 1258
-938.0992107 631.9756124 1258
-933.8149621 633.4827084 1261
-927.293593 633.4827084 1261
-920.7722238 633.4827084 1261
-915.7008957 634.4874391 1263
-911.3287302 635.9945352 1266
-906.2108578 636.9992659 1268
-901.7818048 638.5063619 1271
-898.7303906 641.0181887 1276
-894.2289355 642.5252847 1279
-889.6964508 644.0323808 1282
-883.0664783 644.0323808 1282
-877.8038016 645.0371115 1284
-869.8065335 644.0323808 1282
-864.5231704 645.0371115 1284
-856.5465887 644.0323808 1282
-849.9166162 644.0323808 1282
-841.3132741 642.5252847 1279
-832.7409615 641.0181887 1276
-826.1420186 641.0181887 1276
-818.2585254 640.013458 1274
-811.6699257 640.013458 1274
-803.1855301 638.5063619 1271
-794.7321639 636.9992659 1268
-788.1745937 636.9992659 1268
-783.4662751 638.5063619 1271
-776.8931901 638.5063619 1271
-770.3201052 638.5063619 1271
-765.5497275 640.013458 1274
-757.1739352 638.5063619 1271
-750.6008502 638.5063619 1271
-742.2716021 636.9992659 1268
-735.7140319 636.9992659 1268
-1042.185816 650.6623532 1282
-1033.132546 649.1397424 1279
-1024.110306 647.6171316 1276
-1015.916518 646.6020577 1274
-1006.951165 645.0794469 1271
-998.016841 643.5568361 1268
-989.8954548 642.5417622 1266
-981.0180187 641.0191514 1263
-972.9431769 640.0040775 1261
-966.4218077 640.0040775 1261
-957.6167738 638.4814667 1258
-951.1109194 638.4814667 1258
-944.6050651 638.4814667 1258
-938.0992107 638.4814667 1258
-933.8149621 640.0040775 1261
-927.293593 640.0040775 1261
-922.232608 641.0191514 1263
-917.8759572 642.5417622 1266
-912.768428 643.5568361 1268
-908.3548898 645.0794469 1271
-901.7818048 645.0794469 1271
-898.7303906 647.6171316 1276
-894.2289355 649.1397424 1279
-889.6964508 650.6623532 1282
-883.0664783 650.6623532 1282
-876.4365059 650.6623532 1282
-869.8065335 650.6623532 1282
-861.1566471 649.1397424 1279
-854.5421895 649.1397424 1279
-847.9277318 649.1397424 1279
-841.3132741 649.1397424 1279
-832.7409615 647.6171316 1276
-824.8471252 646.6020577 1274
-818.2585254 646.6020577 1274
-811.6699257 646.6020577 1274
-803.1855301 645.0794469 1271
-796.6124451 645.0794469 1271
-790.0393601 645.0794469 1271
-783.4662751 645.0794469 1271
-776.8931901 645.0794469 1271
-772.1383273 646.6020577 1274
-765.5497275 646.6020577 1274
-758.9611278 646.6020577 1274
-750.6008502 645.0794469 1271
-744.0277652 645.0794469 1271
-735.7140319 643.5568361 1268
-1039.747004 655.7542001 1279
-1030.709249 654.2160745 1276
-1020.097334 651.6525319 1271
-1013.52425 651.6525319 1271
-1004.574411 650.1144063 1268
-996.4426819 649.0889893 1266
-985.9859151 646.5254467 1261
-979.464546 646.5254467 1261
-970.6284826 644.9873211 1258
-962.5898418 643.9619041 1256
-957.6167738 644.9873211 1258
-951.1109194 644.9873211 1258
-946.8577004 646.5254467 1261
-940.3363312 646.5254467 1261
-935.2960326 647.5508637 1263
-930.9704113 649.0889893 1266
-925.8835685 650.1144063 1268
-919.3259982 650.1144063 1268
-914.9279748 651.6525319 1271
-910.4989218 653.1906575 1274
-903.910322 653.1906575 1274
-900.8433931 655.7542001 1279
-894.2289355 655.7542001 1279
-889.6964508 657.2923256 1282
-883.0664783 657.2923256 1282
-876.4365059 657.2923256 1282
-869.8065335 657.2923256 1282
-863.1765611 657.2923256 1282
-854.5421895 655.7542001 1279
-847.9277318 655.7542001 1279
-841.3132741 655.7542001 1279
-834.6988165 655.7542001 1279
-826.1420186 654.2160745 1276
-819.5430757 654.2160745 1276
-811.6699257 653.1906575 1274
-803.1855301 651.6525319 1271
-796.6124451 651.6525319 1271
-790.0393601 651.6525319 1271
-783.4662751 651.6525319 1271
-776.8931901 651.6525319 1271
-772.1383273 653.1906575 1274
-765.5497275 653.1906575 1274
-758.9611278 653.1906575 1274
-750.6008502 651.6525319 1271
-744.0277652 651.6525319 1271
-735.7140319 650.1144063 1268
-728.0063726 649.0889893 1266
-1039.747004 662.3686577 1279
-1030.709249 660.8150174 1276
-1020.097334 658.2256169 1271
-1011.131981 656.6719766 1268
-1002.989909 655.6362163 1266
-996.4426819 655.6362163 1266
-985.9859151 653.0468158 1261
-977.1343369 651.4931755 1258
-969.085353 650.4574153 1256
-962.5898418 650.4574153 1256
-957.6167738 651.4931755 1258
-953.3790695 653.0468158 1261
-948.3594572 654.082576 1263
-944.0648655 655.6362163 1266
-943.4419205 659.7792572 1274
-938.3240481 660.8150174 1276
-933.9156814 662.3686577 1279
-929.4762853 663.9222981 1282
-922.8463129 663.9222981 1282
-916.2163404 663.9222981 1282
-909.586368 663.9222981 1282
-904.3650639 664.9580583 1284
-897.7247483 664.9580583 1284
-891.0844327 664.9580583 1284
-884.4441172 664.9580583 1284
-877.8038016 664.9580583 1284
-869.8065335 663.9222981 1282
-863.1765611 663.9222981 1282
-856.5465887 663.9222981 1282
-851.2425392 664.9580583 1284
-843.2866438 663.9222981 1282
-836.6566714 663.9222981 1282
-830.026699 663.9222981 1282
-823.3967266 663.9222981 1282
-816.7667541 663.9222981 1282
-806.3451899 660.8150174 1276
-799.746247 660.8150174 1276
-791.9041265 659.7792572 1274
-785.3155268 659.7792572 1274
-778.726927 659.7792572 1274
-772.1383273 659.7792572 1274
-765.5497275 659.7792572 1274
-758.9611278 659.7792572 1274
-750.6008502 658.2256169 1271
-744.0277652 658.2256169 1271
-735.7140319 656.6719766 1268
-728.0063726 655.6362163 1266
-1039.747004 668.9831154 1279
-1030.709249 667.4139603 1276
-1020.097334 664.7987019 1271
-1011.131981 663.2295468 1268
-1002.989909 662.1834434 1266
-994.0814433 660.6142883 1263
-983.6401913 657.9990299 1258
-975.5808642 656.9529265 1256
-969.085353 656.9529265 1256
-962.5898418 656.9529265 1256
-957.6167738 657.9990299 1258
-953.3790695 659.5681849 1261
-950.6120925 662.1834434 1266
-945.5562791 663.2295468 1268
-944.922991 667.4139603 1276
-942.7362301 670.5522705 1282
-937.5666419 671.5983739 1284
-933.1013878 673.167529 1287
-926.4455575 673.167529 1287
-919.7897271 673.167529 1287
-913.1338968 673.167529 1287
-906.4780664 673.167529 1287
-899.8222361 673.167529 1287
-893.1664057 673.167529 1287
-886.5105754 673.167529 1287
-879.854745 673.167529 1287
-871.163486 671.5983739 1284
-864.5231704 671.5983739 1284
-857.8828548 671.5983739 1284
-853.2314236 673.167529 1287
-846.5755933 673.167529 1287
-837.961908 671.5983739 1284
-831.3215924 671.5983739 1284
-824.6812768 671.5983739 1284
-818.0409612 671.5983739 1284
-808.2409858 668.9831154 1279
-801.6265281 668.9831154 1279
-793.1473041 667.4139603 1276
-786.5483612 667.4139603 1276
-779.9494183 667.4139603 1276
-772.1383273 666.3678569 1274
-765.5497275 666.3678569 1274
-758.9611278 666.3678569 1274
-750.6008502 664.7987019 1271
-742.2716021 663.2295468 1268
-735.7140319 663.2295468 1268
-728.0063726 662.1834434 1266
-1042.185816 677.1822429 1282
-1030.709249 674.0129032 1276
-1020.097334 671.3717868 1271
-1011.131981 669.787117 1268
-1002.989909 668.7306705 1266
-994.0814433 667.1460006 1263
-983.6401913 664.5048842 1258
-975.5808642 663.4484377 1256
-966.7706587 661.8637678 1253
-960.2906623 661.8637678 1253
-957.6167738 664.5048842 1258
-954.8911695 667.1460006 1263
-950.6120925 668.7306705 1266
-947.7933997 671.3717868 1271
-949.3662026 677.1822429 1282
-944.2069575 678.2386895 1284
-941.9477944 681.4080291 1290
-936.7264903 682.4644757 1292
-930.044802 682.4644757 1292
-921.9337591 681.4080291 1290
-915.262414 681.4080291 1290
-908.5910689 681.4080291 1290
-901.9197238 681.4080291 1290
-895.2483787 681.4080291 1290
-886.5105754 679.8233593 1287
-879.854745 679.8233593 1287
-873.1989147 679.8233593 1287
-866.5430843 679.8233593 1287
-859.887254 679.8233593 1287
-855.2203081 681.4080291 1290
-848.548963 681.4080291 1290
-841.8776179 681.4080291 1290
-835.2062728 681.4080291 1290
-828.5349277 681.4080291 1290
-821.8635825 681.4080291 1290
-811.4006456 678.2386895 1284
-804.7603301 678.2386895 1284
-796.8768369 677.1822429 1282
-788.3976128 675.5975731 1279
-779.9494183 674.0129032 1276
-773.3504754 674.0129032 1276
-765.5497275 672.9564567 1274
-758.9611278 672.9564567 1274
-748.8291724 669.787117 1268
-742.2716021 669.787117 1268
-734.5535997 668.7306705 1266
-728.0063726 668.7306705 1266
-1042.185816 683.8122153 1282
-1033.132546 682.2120307 1279
-1022.505117 679.5450564 1274
-1013.52425 677.9448718 1271
-1002.989909 675.2778975 1266
-994.0814433 673.6777129 1263
-982.0763754 669.9439489 1256
-975.5808642 669.9439489 1256
-966.7706587 668.3437643 1253
-960.2906623 668.3437643 1253
-953.8106658 668.3437643 1253
-954.8911695 673.6777129 1263
-952.1138494 676.3446872 1268
-950.0305202 679.5450564 1274
-950.8472731 684.8790051 1284
-948.6191395 688.0793742 1290
-943.4081786 689.146164 1292
-938.9015518 690.7463486 1295
-932.2043488 690.7463486 1295
-925.5071458 690.7463486 1295
-918.8099427 690.7463486 1295
-909.9997372 689.146164 1292
-903.3180489 689.146164 1292
-896.6363607 689.146164 1292
-888.5770336 688.0793742 1290
-881.9056885 688.0793742 1290
-875.2343434 688.0793742 1290
-868.5629983 688.0793742 1290
-861.8916532 688.0793742 1290
-856.546231 689.146164 1292
-849.8645428 689.146164 1292
-843.1828545 689.146164 1292
-836.5011662 689.146164 1292
-829.8194779 689.146164 1292
-823.1377897 689.146164 1292
-815.1922374 688.0793742 1290
-806.6406112 686.4791896 1287
-798.1200145 684.8790051 1284
-791.4796989 684.8790051 1284
-781.7831551 682.2120307 1279
-775.1686975 682.2120307 1279
-766.7515325 680.6118461 1276
-758.9611278 679.5450564 1274
-750.6008502 677.9448718 1271
-742.2716021 676.3446872 1268
-735.7140319 676.3446872 1268
-728.0063726 675.2778975 1266
-1046.250504 693.13502 1287
-1037.171376 691.5193206 1284
-1024.110306 687.2107891 1276
-1015.916518 686.1336562 1274
-1004.574411 682.9022575 1268
-994.0814433 680.2094252 1263
-983.6401913 677.516593 1258
-973.2506551 674.8237607 1253
-966.7706587 674.8237607 1253
-960.2906623 674.8237607 1253
-956.0943306 676.4394601 1256
-954.8911695 680.2094252 1263
-954.3664847 684.5179568 1271
-951.5219339 687.2107891 1276
-953.0688788 693.13502 1287
-950.0898669 695.8278522 1292
-947.7893311 699.0592509 1298
-944.7017159 701.7520832 1303
-937.9631401 701.7520832 1303
-931.2245644 701.7520832 1303
-922.3574715 700.1363838 1300
-914.2257422 699.0592509 1298
-905.4155367 697.4435516 1295
-898.7183336 697.4435516 1295
-892.0211306 697.4435516 1295
-885.3239276 697.4435516 1295
-878.6267246 697.4435516 1295
-871.9295215 697.4435516 1295
-865.2323185 697.4435516 1295
-861.8499229 700.1363838 1300
-855.1268619 700.1363838 1300
-848.4038009 700.1363838 1300
-843.6230802 701.7520832 1303
-836.8845044 701.7520832 1303
-830.1459287 701.7520832 1303
-821.5115571 700.1363838 1300
-813.5349754 699.0592509 1298
-804.9574912 697.4435516 1295
-796.4110366 695.8278522 1292
-786.6731202 693.13502 1287
-778.1990677 691.5193206 1284
-770.3569472 690.4421878 1282
-761.9397822 688.8264884 1279
-752.3725281 686.1336562 1274
-744.0277652 684.5179568 1271
-735.7140319 682.9022575 1268
-728.0063726 681.8251246 1266
-1048.689316 701.4220644 1290
-1039.594673 699.7908503 1287
-1028.925872 697.0721602 1282
-1015.916518 692.7222559 1274
-1004.574411 689.4598277 1268
-996.4426819 688.3723516 1266
-983.6401913 684.0224473 1258
-975.5808642 682.9349713 1256
-966.7706587 681.3037572 1253
-960.2906623 681.3037572 1253
-956.0943306 682.9349713 1256
-954.8911695 686.7411375 1263
-954.3664847 691.0910418 1271
-951.5219339 693.809732 1276
-955.2904846 701.4220644 1290
-952.2959579 704.1407546 1295
-949.2497153 706.8594448 1300
-944.7017159 708.4906589 1303
-937.9631401 708.4906589 1303
-931.2245644 708.4906589 1303
-922.3574715 706.8594448 1300
-914.2257422 705.7719687 1298
-907.5130244 705.7719687 1298
-900.8003066 705.7719687 1298
-892.0211306 704.1407546 1295
-885.3239276 704.1407546 1295
-878.6267246 704.1407546 1295
-873.9494355 705.7719687 1298
-867.2367177 705.7719687 1298
-863.8388073 708.4906589 1303
-857.1002316 708.4906589 1303
-852.3195108 710.121873 1306
-845.5654203 710.121873 1306
-838.8113299 710.121873 1306
-832.0572394 710.121873 1306
-825.3031489 710.121873 1306
-816.6687773 708.4906589 1303
-808.0654352 706.8594448 1300
-800.1095398 705.7719687 1298
-789.7293483 702.5095405 1292
-781.8355119 701.4220644 1290
-771.5587521 698.1596362 1284
-764.9184365 698.1596362 1284
-753.5536466 693.809732 1276
-745.7839283 692.7222559 1274
-737.4546803 691.0910418 1271
-729.1564617 689.4598277 1268
-1048.689316 708.0934096 1290
-1042.017971 708.0934096 1290
-1028.925872 703.7021326 1282
-1019.903631 702.0554037 1279
-1009.327918 699.3108556 1274
-996.4426819 694.9195787 1266
-983.6401913 690.5283017 1258
-975.5808642 689.4304825 1256
-966.7706587 687.7837536 1253
-960.2906623 687.7837536 1253
-953.8106658 687.7837536 1253
-954.8911695 693.2728498 1263
-952.1138494 696.0173979 1268
-950.0305202 699.3108556 1274
-950.8472731 704.7999518 1284
-948.6191395 708.0934096 1290
-945.5987549 710.8379576 1295
-942.5266543 713.5825057 1300
-935.8035934 713.5825057 1300
-929.0805324 713.5825057 1300
-922.3574715 713.5825057 1300
-914.2257422 712.4846865 1298
-907.5130244 712.4846865 1298
-900.8003066 712.4846865 1298
-894.0875888 712.4846865 1298
-887.374871 712.4846865 1298
-880.6621533 712.4846865 1298
-875.2960448 713.5825057 1300
-868.5729838 713.5825057 1300
-865.8276917 716.8759635 1306
-859.0736013 716.8759635 1306
-854.2773657 718.5226923 1309
-848.8026539 719.6205116 1311
-842.0227055 719.6205116 1311
-835.2427571 719.6205116 1311
-827.1989448 718.5226923 1309
-820.4293396 718.5226923 1309
-811.794968 716.8759635 1306
-803.1916259 715.2292346 1303
-793.396822 712.4846865 1298
-783.04766 709.1912288 1292
-775.1641668 708.0934096 1290
-766.7056291 706.4466807 1287
-755.3253245 702.0554037 1279
-748.7108668 702.0554037 1279
-740.3557608 700.4086749 1276
-730.8815953 697.6641268 1271
-1050.315191 715.8729171 1292
-1043.633503 715.8729171 1292
-1030.53106 711.4402674 1284
-1019.903631 708.6698614 1279
-1009.327918 705.8994554 1274
-998.016841 702.5749681 1268
-983.6401913 697.0341561 1258
-975.5808642 695.9259937 1256
-966.7706587 694.2637501 1253
-958.7578759 693.1555877 1251
-950.0045578 691.493344 1248
-947.3306694 694.2637501 1253
-944.6050651 697.0341561 1258
-941.8277449 699.8045621 1263
-941.2203147 704.2372118 1271
-936.8533207 705.8994554 1274
-933.9156814 708.6698614 1279
-929.4762853 710.332105 1282
-926.4455575 713.102511 1287
-917.6456951 711.4402674 1284
-911.0053795 711.4402674 1284
-904.3650639 711.4402674 1284
-897.7247483 711.4402674 1284
-891.0844327 711.4402674 1284
-886.5105754 713.102511 1287
-881.9056885 714.7647547 1290
-876.5912959 715.8729171 1292
-873.9494355 719.1974043 1298
-868.5729838 720.3055667 1300
-867.8165762 725.2922976 1309
-861.0469709 725.2922976 1309
-855.5826023 726.40046 1311
-850.7449941 728.0627036 1314
-845.8763564 729.7249472 1317
-839.0653785 729.7249472 1317
-830.3586047 728.0627036 1314
-823.5631415 728.0627036 1314
-818.6324447 729.7249472 1317
-809.9722152 728.0627036 1314
-798.286787 723.6300539 1306
-789.7144744 721.9678103 1303
-781.1731914 720.3055667 1300
-771.4714761 717.5351607 1295
-761.8214766 714.7647547 1290
-751.6378053 711.4402674 1284
-743.8370575 710.332105 1282
-735.4819515 708.6698614 1279
-1055.192816 725.9101221 1298
-1046.0568 724.2323637 1295
-1035.346626 721.4360998 1290
-1023.890745 718.080583 1284
-1013.289173 715.2843191 1279
-1000.37808 710.8102967 1271
-985.9859151 705.2177688 1261
-975.5808642 702.4215049 1256
-965.2275292 699.6252409 1251
-956.4586963 697.9474826 1248
-948.4821146 696.828977 1246
-943.5504193 697.9474826 1248
-940.8506729 700.7437465 1253
-936.607797 702.4215049 1256
-935.2960326 706.3362744 1263
-930.9704113 708.0140328 1266
-928.0741447 710.8102967 1271
-923.6761213 712.4880551 1274
-920.6867661 715.2843191 1279
-911.9282764 713.6065607 1276
-907.4578508 715.2843191 1279
-898.7303906 713.6065607 1276
-894.2289355 715.2843191 1279
-887.6144778 715.2843191 1279
-883.0664783 716.9620774 1282
-879.854745 719.7583414 1287
-875.2343434 721.4360998 1290
-871.9295215 724.2323637 1295
-867.2367177 725.9101221 1298
-865.8276917 730.3841444 1306
-862.3625507 733.1804084 1311
-857.5404573 734.8581667 1314
-854.6296744 738.2136835 1320
-847.8031818 738.2136835 1320
-842.8879998 739.8914418 1323
-836.0459924 739.8914418 1323
-827.3237038 738.2136835 1320
-820.4972111 738.2136835 1320
-811.8214668 736.5359251 1317
-801.3430152 733.1804084 1311
-791.5326966 730.3841444 1306
-781.1731914 727.0286277 1300
-773.2586687 725.9101221 1298
-763.0025952 722.5546053 1292
-755.1501315 721.4360998 1290
-744.9974897 718.080583 1284
-737.2070851 716.9620774 1282
-1055.192816 732.6228399 1298
-1048.480098 732.6228399 1298
-1036.951814 729.2362936 1292
-1026.283013 726.4141717 1287
-1013.289173 721.8987767 1279
-1002.739318 719.0766548 1274
-985.9859151 711.739138 1261
-975.5808642 708.9170161 1256
-965.2275292 706.0948942 1251
-954.92591 703.2727723 1246
-946.1984498 701.5794992 1243
-942.0383193 703.2727723 1246
-937.0962808 704.4016211 1248
-932.8792628 706.0948942 1251
-930.1122858 708.9170161 1256
-927.293593 711.739138 1261
-924.4231843 714.5612598 1266
-917.8759572 714.5612598 1266
-914.9279748 717.3833817 1271
-908.3548898 717.3833817 1271
-901.7818048 717.3833817 1271
-895.2087198 717.3833817 1271
-890.7331226 719.0766548 1274
-884.1445228 719.0766548 1274
-877.5559231 719.0766548 1274
-876.4365059 723.5920499 1282
-871.163486 724.7208986 1284
-868.5629983 728.1074449 1290
-865.2323185 730.9295667 1295
-865.8276917 737.1382349 1306
-862.3625507 739.9603568 1311
-859.4983122 743.346903 1317
-856.5720146 746.7334493 1323
-851.0145575 747.862298 1325
-844.1622069 747.862298 1325
-837.3098563 747.862298 1325
-830.4575057 747.862298 1325
-822.3619775 746.7334493 1323
-813.6707185 745.0401761 1320
-803.176752 741.6536299 1314
-793.3509187 738.831508 1309
-782.9758987 735.4449617 1303
-774.4501304 733.7516886 1300
-764.774273 730.9295667 1295
-756.3209069 729.2362936 1292
-746.7381381 726.4141717 1287
-738.3571741 724.7208986 1284
-1056.818691 740.4747496 1300
-1050.09563 740.4747496 1300
-1039.359597 737.6267698 1295
-1026.283013 733.0700021 1287
-1015.665927 730.2220223 1282
-1002.739318 725.6652546 1274
-983.6401913 716.5517192 1258
-973.2506551 713.7037394 1253
-962.9128348 710.8557596 1248
-952.6267304 708.0077798 1243
-944.6760066 706.8685879 1241
-939.7701692 708.0077798 1243
-933.3418886 708.0077798 1243
-929.1507286 709.7165677 1246
-926.4096095 712.5645475 1251
-919.9399562 712.5645475 1251
-917.1212634 715.4125273 1256
-910.6257522 715.4125273 1256
-907.7294856 718.2605071 1261
-901.2081165 718.2605071 1261
-894.6867473 718.2605071 1261
-888.1653782 718.2605071 1261
-883.0423342 719.399699 1263
-876.5106219 719.399699 1263
-872.0453678 721.1084869 1266
-868.9163799 723.9564667 1271
-865.7356761 726.8044465 1276
-863.1765611 730.2220223 1282
-859.887254 733.0700021 1287
-861.8499229 740.4747496 1300
-861.0469709 745.6011132 1309
-857.5404573 748.449093 1314
-856.5720146 753.5754567 1323
-851.0145575 754.7146486 1325
-846.0735175 756.4234365 1328
-839.2056522 756.4234365 1328
-832.3377868 756.4234365 1328
-823.6051551 754.7146486 1325
-815.5199701 753.5754567 1323
-805.0104889 750.1578809 1317
-794.5630668 746.7403052 1311
-784.7786061 743.8923253 1306
-776.237323 742.1835375 1303
-766.5459509 739.3355577 1298
-758.07707 737.6267698 1295
-748.4787864 734.77879 1290
-740.0823077 733.0700021 1287
-1059.257503 748.9221132 1303
-1050.09563 747.1978105 1300
-1039.359597 744.3239728 1295
-1028.675281 741.4501351 1290
-1015.665927 736.8519947 1282
-1002.739318 732.2538543 1274
-983.6401913 723.0575736 1258
-973.2506551 720.1837358 1253
-961.3697053 716.160363 1246
-951.093944 713.2865253 1241
-940.8698986 710.4126876 1236
-935.9899191 711.5622226 1238
-929.5874965 711.5622226 1238
-923.1850738 711.5622226 1238
-919.0042569 713.2865253 1241
-917.7338652 717.3098981 1248
-913.470303 719.0342008 1251
-908.4506907 720.1837358 1253
-901.9706942 720.1837358 1253
-897.6347298 721.9080385 1256
-891.1392186 721.9080385 1256
-884.6437074 721.9080385 1256
-879.5465213 723.0575736 1258
-873.040667 723.0575736 1258
-868.6012708 724.7818762 1261
-866.8654364 728.805249 1268
-864.3787236 732.2538543 1274
-859.1367332 733.4033894 1276
-857.8828548 738.0015298 1284
-858.5351155 744.3239728 1295
-857.1002316 748.9221132 1303
-854.2773657 752.3707185 1309
-854.6296744 758.6931615 1320
-849.7300072 760.4174641 1323
-844.1622069 761.5669992 1325
-839.2056522 763.2913018 1328
-830.4575057 761.5669992 1325
-823.6051551 761.5669992 1325
-815.5199701 760.4174641 1323
-803.176752 755.2445562 1314
-794.5630668 753.5202535 1311
-786.5813135 752.3707185 1309
-776.237323 748.9221132 1303
-767.7270695 747.1978105 1300
-759.8332331 746.0482754 1298
-751.379867 744.3239728 1295
-744.6826639 744.3239728 1295
-1061.696315 757.4005063 1306
-1052.518927 755.6606889 1303
-1039.359597 751.0211758 1295
-1028.675281 748.1214802 1290
-1015.665927 743.4819671 1282
-1002.739318 738.8424541 1274
-983.6401913 729.563428 1258
-971.6971824 725.503854 1251
-961.3697053 722.6041584 1246
-951.093944 719.7044627 1241
-940.8698986 716.8047671 1236
-932.2096691 715.0649497 1233
-928.0857396 716.8047671 1236
-921.6936601 716.8047671 1236
-916.7826511 717.9646453 1238
-914.0570468 720.864341 1243
-911.2797267 723.7640366 1248
-904.8255882 723.7640366 1248
-900.5309964 725.503854 1251
-894.0613431 725.503854 1251
-887.5916899 725.503854 1251
-882.5307049 726.6637323 1253
-876.0507085 726.6637323 1253
-871.652685 728.4035497 1256
-865.1571738 728.4035497 1256
-860.0289582 729.563428 1258
-858.9509137 734.202941 1266
-855.7702099 737.1026367 1271
-852.5377903 740.0023323 1276
-855.2203081 748.1214802 1290
-853.8112821 752.7609932 1298
-850.3616559 755.6606889 1303
-850.7449941 762.0400193 1314
-847.8031818 765.5196541 1320
-842.8879998 767.2594715 1323
-836.0459924 767.2594715 1323
-829.2039849 767.2594715 1323
-822.3619775 767.2594715 1323
-813.6707185 765.5196541 1320
-803.176752 762.0400193 1314
-793.3509187 759.1403237 1309
-784.7786061 757.4005063 1306
-778.0245156 757.4005063 1306
-767.7270695 753.9208715 1300
-761.0040085 753.9208715 1300
-753.1205153 752.7609932 1298
-746.4077975 752.7609932 1298
-1061.696315 764.1545968 1306
-1052.518927 762.3992646 1303
-1041.76738 759.473711 1298
-1028.675281 754.7928253 1290
-1015.665927 750.1119395 1282
-1002.739318 745.4310538 1274
-983.6401913 736.0692823 1258
-969.3669734 730.2181752 1248
-959.055011 727.2926216 1243
-948.7947645 724.367068 1238
-938.5862338 721.4415144 1233
-932.2096691 721.4415144 1233
-925.8331043 721.4415144 1233
-921.6936601 723.1968465 1236
-915.3015806 723.1968465 1236
-912.5863195 726.1224001 1241
-909.8193425 729.0479537 1246
-903.3755472 729.0479537 1246
-898.3714497 730.2181752 1248
-891.9173111 730.2181752 1248
-887.5916899 731.9735073 1251
-881.1220366 731.9735073 1251
-874.6523833 731.9735073 1251
-869.570712 733.1437287 1253
-863.0907156 733.1437287 1253
-858.6616626 734.8990609 1256
-856.915485 738.9948359 1263
-853.750296 741.9203895 1268
-849.1971249 743.6757216 1271
-851.2425392 751.282161 1284
-848.548963 754.7928253 1290
-847.0985643 759.473711 1298
-847.5077605 765.9099289 1309
-843.949531 768.8354825 1314
-839.0653785 770.5908146 1317
-834.1501965 772.3461468 1320
-827.3237038 772.3461468 1320
-820.4972111 772.3461468 1320
-811.8214668 770.5908146 1317
-801.3430152 767.0801503 1311
-793.3509187 765.9099289 1309
-784.7786061 764.1545968 1306
-778.0245156 764.1545968 1306
-769.4987473 762.3992646 1303
-762.7601716 762.3992646 1303
-756.0215959 762.3992646 1303
-749.2830202 762.3992646 1303
-1064.135128 772.6795341 1309
-1054.942225 770.9086872 1306
-1041.76738 766.1864288 1298
-1028.675281 761.4641704 1290
-1015.665927 756.741912 1282
-1000.37808 750.2488066 1271
-982.0763754 741.3945721 1256
-969.3669734 736.6723137 1248
-957.5118814 732.5403376 1241
-947.2619781 729.588926 1236
-938.5862338 727.8180791 1233
-932.2096691 727.8180791 1233
-925.8331043 727.8180791 1233
-921.6936601 729.588926 1236
-916.7826511 730.7694906 1238
-914.0570468 733.7209022 1243
-909.8193425 735.4917491 1246
-904.8255882 736.6723137 1248
-900.5309964 738.4431606 1251
-894.0613431 738.4431606 1251
-887.5916899 738.4431606 1251
-881.1220366 738.4431606 1251
-874.6523833 738.4431606 1251
-868.18273 738.4431606 1251
-863.0907156 739.6237252 1253
-856.6107191 739.6237252 1253
-853.5231039 742.5751367 1258
-850.3837727 745.5265482 1263
-845.8564596 747.2973951 1266
-845.9388474 753.2002181 1276
-843.2866438 756.741912 1282
-839.9197629 759.6933235 1287
-836.5011662 762.644735 1292
-834.957679 767.3669934 1300
-830.1459287 769.1378403 1303
-825.3031489 770.9086872 1306
-820.4293396 772.6795341 1309
-813.6597344 772.6795341 1309
-806.8901291 772.6795341 1309
-796.4530502 769.1378403 1303
-789.7144744 769.1378403 1303
-782.9758987 769.1378403 1303
-776.237323 769.1378403 1303
-771.2704252 770.9086872 1306
-764.5163347 770.9086872 1306
-757.7622442 770.9086872 1306
-751.0081538 770.9086872 1306
-1068.199815 782.4264088 1314
-1057.365522 779.4491394 1309
-1041.76738 772.8991466 1298
-1028.675281 768.1355155 1290
-1013.289173 761.5855227 1279
-1000.37808 756.8218916 1271
-979.7306516 746.1037216 1253
-967.8135007 741.9355444 1246
-957.5118814 738.958275 1241
-947.2619781 735.9810055 1236
-938.5862338 734.1946439 1233
-932.2096691 734.1946439 1233
-928.0857396 735.9810055 1236
-921.6936601 735.9810055 1236
-916.7826511 737.1719133 1238
-914.0570468 740.1491828 1243
-909.8193425 741.9355444 1246
-904.8255882 743.1264522 1248
-900.5309964 744.9128139 1251
-894.0613431 744.9128139 1251
-887.5916899 744.9128139 1251
-882.5307049 746.1037216 1253
-876.0507085 746.1037216 1253
