# .PCD v0.7 - Point Cloud Data file format
VERSION 0.7
FIELDS x y z
SIZE 4 4 4
TYPE F F F
COUNT 1 1 1
WIDTH 1663
HEIGHT 1
VIEWPOINT 0 0 0 1 0 0 0
POINTS 1663
DATA ascii
198.00575 -288.6471439 874
202.7574384 -288.9774037 875
207.2825756 -288.9774037 875
212.0497787 -289.3076636 876
216.827325 -289.6379235 877
221.3628054 -289.6379235 877
226.4134472 -290.2984433 879
231.222023 -290.6287032 880
235.7730181 -290.6287032 880
240.5971087 -290.9589631 881
245.9880765 -291.9497428 884
251.1266353 -292.6102625 886
255.7086599 -292.6102625 886
260.2906845 -292.6102625 886
265.1716625 -292.9405224 887
269.7588587 -292.9405224 887
115.7185539 -293.2296508 902
119.5825479 -291.279121 896
124.0776541 -290.9540327 895
128.5624172 -290.6289444 894
132.7388822 -289.6536794 891
136.2677217 -287.3780613 884
140.3614414 -286.4027964 881
144.7531159 -286.0777081 880
149.1344473 -285.7526198 879
153.1557647 -284.7773549 876
157.5060666 -284.4522666 875
161.8460252 -284.1271783 874
165.9852906 -283.4770017 872
170.494913 -283.4770017 872
175.0045355 -283.4770017 872
179.5141579 -283.4770017 872
184.0237803 -283.4770017 872
188.5334028 -283.4770017 872
193.4857844 -284.1271783 874
198.2323012 -284.4522666 875
202.9891612 -284.7773549 876
207.51947 -284.7773549 876
212.2918447 -285.1024432 877
217.3218001 -285.7526198 879
221.8676236 -285.7526198 879
226.4134472 -285.7526198 879
231.222023 -286.0777081 880
236.040942 -286.4027964 881
240.8702041 -286.7278847 882
246.2663436 -287.7031496 885
251.1266353 -288.0282379 886
255.9972701 -288.3533262 887
260.5844663 -288.3533262 887
265.1716625 -288.3533262 887
115.846845 -288.8847975 903
119.8494732 -287.2852139 898
124.2162884 -286.6453805 896
128.706223 -286.3254638 895
132.8878596 -285.3657136 892
136.4218707 -283.1262966 885
140.520762 -282.1665464 882
144.9176081 -281.8466297 881
149.304111 -281.526713 880
153.3306001 -280.5669628 877
157.8660804 -280.5669628 877
162.2163823 -280.2470461 876
166.5563409 -279.9271294 875
171.0814781 -279.9271294 875
175.405922 -279.6072127 874
179.9258876 -279.6072127 874
184.4458532 -279.6072127 874
188.9658188 -279.6072127 874
193.9285436 -280.2470461 876
198.4588524 -280.2470461 876
203.220884 -280.5669628 877
208.2301531 -281.2067963 879
212.7759766 -281.2067963 879
217.3218001 -281.2067963 879
222.1200328 -281.526713 880
226.6710279 -281.526713 880
231.4847753 -281.8466297 881
236.8447136 -282.8063799 884
241.6894906 -283.1262966 885
246.5446106 -283.4462133 886
251.9769512 -284.4059635 889
255.9972701 -283.76613 887
261.1720299 -284.4059635 889
265.7695693 -284.4059635 889
116.3600093 -285.4738365 907
120.5167865 -284.214856 903
124.7708254 -283.2706205 900
129.2814463 -282.9558754 899
133.4837693 -282.01164 896
137.1926158 -280.1231692 890
141.3173649 -279.1789338 887
145.740069 -278.8641887 886
149.9827661 -278.2346984 884
154.2047768 -277.6052081 882
158.5861082 -277.290463 881
162.9570963 -276.9757179 880
167.5080915 -276.9757179 880
171.8635649 -276.6609727 879
176.4093884 -276.6609727 879
180.5434822 -276.0314825 877
185.0789626 -276.0314825 877
189.6144429 -276.0314825 877
194.1499233 -276.0314825 877
198.6854036 -276.0314825 877
203.6843295 -276.6609727 879
208.2301531 -276.6609727 879
212.7759766 -276.6609727 879
217.3218001 -276.6609727 879
222.1200328 -276.9757179 880
226.9286086 -277.290463 881
231.7475276 -277.6052081 882
237.1126375 -278.5494435 885
241.962586 -278.8641887 886
246.8228777 -279.1789338 887
251.9769512 -279.8084241 889
256.5744906 -279.8084241 889
261.1720299 -279.8084241 889
265.7695693 -279.8084241 889
116.4883004 -281.0927821 908
120.5167865 -279.5449144 903
125.0480939 -279.2353408 902
129.4252522 -278.6161937 900
133.7817242 -277.9970466 898
137.3467648 -275.8300318 891
141.7953267 -275.5204582 890
146.2335455 -275.2108847 889
150.4917574 -274.5917376 887
154.7292829 -273.9725905 885
159.3061359 -273.9725905 885
163.6978104 -273.663017 884
167.8887917 -273.0438699 882
172.2546083 -272.7342963 881
176.6100817 -272.4247228 880
181.1610768 -272.4247228 880
185.7120719 -272.4247228 880
190.046859 -272.1151492 879
194.5926825 -272.1151492 879
199.138506 -272.1151492 879
203.9160523 -272.4247228 880
208.4670474 -272.4247228 880
213.0180425 -272.4247228 880
217.5690377 -272.4247228 880
222.3724419 -272.7342963 881
226.9286086 -272.7342963 881
232.2730322 -273.663017 884
237.1126375 -273.9725905 885
241.962586 -274.2821641 886
247.3794118 -275.2108847 889
252.2603898 -275.5204582 890
256.8631008 -275.5204582 890
261.4658118 -275.5204582 890
265.7695693 -275.2108847 889
116.6165914 -276.7013846 909
120.7837119 -275.4837767 905
125.1867281 -274.8749728 903
129.7128639 -274.5705708 902
133.9307016 -273.657365 899
137.8092118 -272.1353551 894
142.1139679 -271.5265512 892
146.3980377 -270.9177473 890
150.8310849 -270.6133453 889
155.0789536 -270.0045414 887
159.4861428 -269.7001394 886
163.8829889 -269.3957375 885
168.459842 -269.3957375 885
172.8411733 -269.0913355 884
177.0114682 -268.4825316 882
181.5728065 -268.4825316 882
186.1341448 -268.4825316 882
190.479275 -268.1781296 881
195.0354417 -268.1781296 881
199.5916084 -268.1781296 881
203.9160523 -267.8737277 880
208.4670474 -267.8737277 880
213.0180425 -267.8737277 880
217.5690377 -267.8737277 880
222.3724419 -268.1781296 881
227.1861893 -268.4825316 882
232.5357845 -269.3957375 885
237.3805614 -269.7001394 886
242.7818724 -270.6133453 889
247.6576789 -270.9177473 890
252.2603898 -270.9177473 890
256.8631008 -270.9177473 890
261.4658118 -270.9177473 890
116.8731736 -272.5988743 911
121.0506372 -271.4019527 907
125.3253624 -270.5042616 904
129.8566697 -270.2050312 903
134.079679 -269.3073401 900
138.1175098 -268.1104186 896
142.4326091 -267.5119578 894
146.727022 -266.9134971 892
151.1704124 -266.6142667 891
155.6034596 -266.3150363 890
160.2061706 -266.3150363 890
164.623703 -266.0158059 889
168.8405422 -265.4173452 887
173.2322167 -265.1181148 886
177.613548 -264.8188844 885
182.1904011 -264.8188844 885
186.7672541 -264.8188844 885
191.1278991 -264.5196541 884
195.6995806 -264.5196541 884
199.8181596 -263.9211933 882
204.3794979 -263.9211933 882
208.7039418 -263.6219629 881
213.5021745 -263.9211933 882
218.0635127 -263.9211933 882
222.624851 -263.9211933 882
227.7013507 -264.5196541 884
232.7985368 -265.1181148 886
238.1843331 -266.0158059 889
243.3280634 -266.6142667 891
248.214213 -266.9134971 892
253.3941444 -267.5119578 894
258.0175417 -267.5119578 894
262.640939 -267.5119578 894
117.0014647 -268.1816188 912
121.1840999 -267.0053836 908
125.7412651 -266.7113248 907
130.1442814 -266.1232072 905
134.5266113 -265.5350897 903
138.4258078 -264.0647957 898
142.7512503 -263.4766781 896
147.2204986 -263.1826193 895
151.8490675 -263.1826193 895
156.302801 -262.8885605 894
160.5661844 -262.3004429 892
164.99406 -262.0063841 891
169.6019426 -262.0063841 891
173.8187818 -261.4182666 889
178.4163211 -261.4182666 889
182.3962659 -260.5360902 886
186.9782906 -260.5360902 886
191.1278991 -259.9479726 884
195.6995806 -259.9479726 884
200.271262 -259.9479726 884
204.8429435 -259.9479726 884
208.9408362 -259.359855 882
213.5021745 -259.359855 882
218.0635127 -259.359855 882
223.1296693 -259.9479726 884
227.9589314 -260.2420314 885
233.0612891 -260.830149 887
238.4522569 -261.7123254 890
243.6011588 -262.3004429 892
248.7707471 -262.8885605 894
253.677583 -263.1826193 895
258.3061519 -263.1826193 895
262.9347208 -263.1826193 895
117.0014647 -263.465133 912
121.1840999 -262.3095841 908
125.7412651 -262.0206969 907
130.1442814 -261.4429225 905
134.5266113 -260.8651481 903
138.5799568 -259.7095993 899
143.0698914 -259.4207121 898
147.3849907 -258.8429376 896
151.8490675 -258.5540504 895
156.4776363 -258.5540504 895
160.9261983 -258.2651632 894
165.1792386 -257.6873888 892
169.6019426 -257.3985016 891
174.0143035 -257.1096144 890
178.4163211 -256.8207272 889
182.6021308 -256.2429528 887
187.189327 -256.2429528 887
191.3441072 -255.6651784 885
195.9209602 -255.6651784 885
200.4978132 -255.6651784 885
205.0746663 -255.6651784 885
208.9408362 -254.7985167 882
213.5021745 -254.7985167 882
218.0635127 -254.7985167 882
223.3820784 -255.6651784 885
227.9589314 -255.6651784 885
233.5867937 -256.8207272 889
238.7201808 -257.3985016 891
243.6011588 -257.6873888 892
249.0490141 -258.5540504 895
253.9610217 -258.8429376 896
258.5947621 -258.8429376 896
263.8160662 -259.4207121 898
117.0014647 -258.7486471 912
121.1840999 -257.6137846 908
125.7412651 -257.330069 907
130.1442814 -256.7626378 905
134.5266113 -256.1952065 903
138.5799568 -255.060344 899
143.0698914 -254.7766284 898
147.3849907 -254.2091972 896
151.8490675 -253.9254815 895
156.4776363 -253.9254815 895
160.9261983 -253.6417659 894
165.1792386 -253.0743347 892
169.6019426 -252.7906191 891
174.0143035 -252.5069034 890
178.4163211 -252.2231878 889
182.6021308 -251.6557566 887
187.189327 -251.6557566 887
191.5603152 -251.3720409 886
195.9209602 -251.0883253 885
200.4978132 -251.0883253 885
205.0746663 -251.0883253 885
209.4146249 -250.8046097 884
213.9863064 -250.8046097 884
218.5579878 -250.8046097 884
223.3820784 -251.0883253 885
228.2165122 -251.3720409 886
233.849546 -252.5069034 890
238.9881047 -253.0743347 892
244.1473498 -253.6417659 894
249.3272812 -254.2091972 896
253.9610217 -254.2091972 896
259.1719826 -254.7766284 898
264.1098481 -255.060344 899
116.8731736 -253.7536172 911
121.0506372 -252.6394411 907
125.4639966 -252.082353 905
130.0004755 -251.803809 904
134.5266113 -251.5252649 903
138.5799568 -250.4110888 899
143.0698914 -250.1325448 898
147.3849907 -249.5754567 896
152.0187312 -249.5754567 896
156.302801 -249.0183686 894
160.5661844 -248.4612805 892
164.99406 -248.1827365 891
169.4115925 -247.9041925 890
173.8187818 -247.6256484 889
178.4163211 -247.6256484 889
182.6021308 -247.0685604 887
187.189327 -247.0685604 887
191.5603152 -246.7900163 886
196.1423398 -246.7900163 886
200.7243644 -246.7900163 886
205.306389 -246.7900163 886
209.6515193 -246.5114723 885
214.2283723 -246.5114723 885
219.0524629 -246.7900163 886
223.6344875 -246.7900163 886
228.9892543 -247.6256484 889
234.3750506 -248.4612805 892
239.5239525 -249.0183686 894
244.6935407 -249.5754567 896
249.8838153 -250.1325448 898
255.0947762 -250.6896328 900
260.3264235 -251.2467209 902
116.6165914 -248.4955581 909
121.0506372 -247.9488132 907
125.4639966 -247.4020683 905
130.0004755 -247.1286958 904
134.5266113 -246.8553234 903
138.5799568 -245.7618336 899
143.0698914 -245.4884611 898
147.3849907 -244.9417162 896
151.8490675 -244.6683438 895
156.302801 -244.3949713 894
160.5661844 -243.8482264 892
164.99406 -243.574854 891
169.4115925 -243.3014815 890
173.4277384 -242.4813642 887
178.0149346 -242.4813642 887
182.3962659 -242.2079917 886
186.9782906 -242.2079917 886
191.5603152 -242.2079917 886
196.1423398 -242.2079917 886
200.7243644 -242.2079917 886
205.306389 -242.2079917 886
209.8884137 -242.2079917 886
214.4704383 -242.2079917 886
219.0524629 -242.2079917 886
223.8868967 -242.4813642 887
228.9892543 -243.0281091 889
234.3750506 -243.8482264 892
239.7918764 -244.6683438 895
244.6935407 -244.9417162 896
249.8838153 -245.4884611 898
255.6616535 -246.5819509 902
260.6150337 -246.8553234 903
121.1840999 -243.5263861 908
125.4639966 -242.7217835 905
130.1442814 -242.7217835 905
134.6755887 -242.4535827 904
138.5799568 -241.1125783 899
143.0698914 -240.8443775 898
147.3849907 -240.3079757 896
152.0187312 -240.3079757 896
156.302801 -239.771574 894
160.5661844 -239.2351723 892
164.99406 -238.9669714 891
169.4115925 -238.6987705 890
173.4277384 -237.8941679 887
178.0149346 -237.8941679 887
182.3962659 -237.6259671 886
186.9782906 -237.6259671 886
191.5603152 -237.6259671 886
196.1423398 -237.6259671 886
200.7243644 -237.6259671 886
205.306389 -237.6259671 886
209.8884137 -237.6259671 886
214.4704383 -237.6259671 886
219.2997005 -237.8941679 887
224.3917149 -238.4305697 889
229.246835 -238.6987705 890
234.9005552 -239.771574 894
240.0598002 -240.3079757 896
245.2397317 -240.8443775 898
250.1620824 -241.1125783 899
255.9450922 -242.1853818 903
261.1922542 -242.7217835 905
121.1840999 -238.8305866 908
125.7412651 -238.5675573 907
130.1442814 -238.0414988 905
134.6755887 -237.7784695 904
138.5799568 -236.4633231 899
143.0698914 -236.2002938 898
147.3849907 -235.6742353 896
151.8490675 -235.411206 895
155.9531303 -234.6221181 892
160.3861775 -234.3590889 891
164.8088815 -234.0960596 890
169.4115925 -234.0960596 890
173.4277384 -233.3069717 887
178.0149346 -233.3069717 887
182.3962659 -233.0439425 886
186.9782906 -233.0439425 886
191.5603152 -233.0439425 886
196.1423398 -233.0439425 886
200.7243644 -233.0439425 886
205.306389 -233.0439425 886
209.8884137 -233.0439425 886
214.7125043 -233.3069717 887
219.2997005 -233.3069717 887
224.3917149 -233.8330303 889
229.246835 -234.0960596 890
235.1633075 -235.411206 895
240.595648 -236.2002938 898
245.5128271 -236.4633231 899
250.1620824 -236.4633231 899
256.2285308 -237.7784695 904
261.1922542 -238.0414988 905
121.3175625 -234.3926448 909
125.7412651 -233.8769294 907
130.431893 -233.8769294 907
134.8245661 -233.361214 905
138.5799568 -231.8140679 899
143.0698914 -231.5562102 898
147.3849907 -231.0404948 896
151.8490675 -230.7826371 895
155.9531303 -230.009064 892
160.3861775 -229.7512063 891
164.8088815 -229.4933486 890
169.4115925 -229.4933486 890
173.4277384 -228.7197755 887
178.0149346 -228.7197755 887
182.6021308 -228.7197755 887
187.189327 -228.7197755 887
191.7765232 -228.7197755 887
196.3637194 -228.7197755 887
200.7243644 -228.4619178 886
205.5381118 -228.7197755 887
210.5990968 -229.2354909 889
215.1966362 -229.2354909 889
219.7941755 -229.2354909 889
224.8965332 -229.7512063 891
229.7619964 -230.009064 892
236.2143167 -231.8140679 899
241.1314958 -232.0719256 900
246.3321135 -232.587641 902
251.2751506 -232.8454987 903
257.3622854 -234.1347871 908
121.8514132 -230.7024182 913
126.2958021 -230.197046 911
130.7195047 -229.6916737 909
135.2714984 -229.4389876 908
139.0424038 -227.922871 902
143.229212 -227.1648126 899
147.7139751 -226.9121265 898
152.0187312 -226.4067543 896
156.302801 -225.9013821 894
160.5661844 -225.3960099 892
164.99406 -225.1433238 891
169.6019426 -225.1433238 891
173.8187818 -224.6379515 889
178.4163211 -224.6379515 889
183.0138605 -224.6379515 889
187.189327 -224.1325793 887
191.7765232 -224.1325793 887
196.3637194 -224.1325793 887
201.404018 -224.6379515 889
206.0015574 -224.6379515 889
210.5990968 -224.6379515 889
215.4387021 -224.8906377 890
220.2886506 -225.1433238 891
225.1489423 -225.3960099 892
230.2771579 -225.9013821 894
236.477069 -227.4174987 900
241.9352674 -228.1755571 903
246.605209 -228.1755571 903
251.8316847 -228.6809293 905
257.645724 -229.6916737 909
121.8514132 -225.9807607 913
126.4344364 -225.7332462 912
131.0071164 -225.4857317 911
135.4204758 -224.9907027 909
139.0424038 -223.258101 902
143.3885326 -222.7630719 900
147.7139751 -222.2680429 898
152.0187312 -221.7730138 896
156.4776363 -221.5254993 895
160.9261983 -221.2779848 894
165.1792386 -220.7829557 892
169.7922927 -220.7829557 892
174.0143035 -220.2879267 890
178.6170144 -220.2879267 890
183.2197254 -220.2879267 890
187.6113999 -220.0404122 889
192.2089393 -220.0404122 889
196.8064787 -220.0404122 889
201.6305692 -220.2879267 890
206.2332802 -220.2879267 890
210.8359912 -220.2879267 890
215.6807681 -220.5354412 891
220.5358882 -220.7829557 892
225.6537606 -221.2779848 894
230.5347386 -221.5254993 895
237.2653259 -223.5056155 903
241.9352674 -223.5056155 903
247.1513999 -224.0006446 905
252.6664859 -224.7431881 908
258.4960399 -225.7332462 912
122.1183385 -221.7437892 915
126.5730706 -221.2591033 913
131.1509222 -221.0167604 912
135.7184306 -220.7744174 911
139.1965528 -218.8356739 903
143.7071738 -218.593331 902
147.8784673 -217.8663022 899
152.3580587 -217.6239592 898
156.6524717 -217.1392734 896
161.1062052 -216.8969304 895
165.5495956 -216.6545875 894
169.7922927 -216.1699016 892
174.2098251 -215.9275587 891
178.6170144 -215.6852157 890
183.2197254 -215.6852157 890
187.8224363 -215.6852157 890
192.4251473 -215.6852157 890
197.0278583 -215.6852157 890
201.8571204 -215.9275587 891
206.465003 -215.9275587 891
211.3097799 -216.1699016 892
216.406966 -216.6545875 894
221.2776008 -216.8969304 895
226.1585788 -217.1392734 896
231.3074807 -217.6239592 898
237.5280782 -219.0780169 904
243.006963 -219.8050457 907
247.6975909 -219.8050457 907
253.501287 -220.7744174 911
258.7794786 -221.2591033 913
122.2518012 -217.24896 916
126.8503391 -217.0117886 915
131.294728 -216.5374459 913
135.8674081 -216.3002745 912
139.3507018 -214.4029037 904
143.7071738 -213.928561 902
148.3719438 -213.928561 902
152.6973863 -213.4542183 900
157.0021424 -212.9798756 898
161.646226 -212.9798756 898
165.9199526 -212.5055329 896
170.1729929 -212.0311902 894
174.4053468 -211.5568475 892
179.018401 -211.5568475 892
183.4255902 -211.3196761 891
188.0334728 -211.3196761 891
192.6413553 -211.3196761 891
197.4706175 -211.5568475 892
202.0836716 -211.5568475 892
207.3918941 -212.2683615 895
212.020463 -212.2683615 895
217.3752298 -212.9798756 898
222.0193134 -212.9798756 898
226.9158062 -213.2170469 899
231.8226421 -213.4542183 900
238.5790874 -215.3515891 908
244.0786585 -216.0631032 911
248.7899728 -216.0631032 911
254.6143552 -217.0117886 915
122.7856518 -213.4397868 920
127.2662419 -212.9757873 918
131.7261456 -212.5117878 916
136.3143403 -212.279788 915
139.8131489 -210.4237899 907
144.1851356 -209.9597903 905
148.536436 -209.4957908 903
153.0367138 -209.263791 902
157.1769777 -208.5677917 899
161.826233 -208.5677917 899
165.9199526 -207.8717924 896
170.363343 -207.6397926 895
174.4053468 -206.9437933 892
178.8177077 -206.7117936 891
183.6314551 -206.9437933 892
188.2445092 -206.9437933 892
192.8575634 -206.9437933 892
197.4706175 -206.9437933 892
202.536774 -207.4077929 894
207.6236169 -207.8717924 896
212.2573574 -207.8717924 896
217.6172957 -208.5677917 899
222.266551 -208.5677917 899
227.1682153 -208.7997915 900
232.5953843 -209.4957908 903
238.8418397 -210.8877894 909
244.0786585 -211.3517889 911
249.0630682 -211.5837887 912
254.8926223 -212.5117878 916
122.7856518 -208.6819283 920
127.4048761 -208.4551001 919
132.0137572 -208.228272 918
136.4633177 -207.7746156 916
140.1214469 -206.1868183 909
144.5037768 -205.7331619 907
148.8654203 -205.2795056 905
153.2063776 -204.8258492 903
157.7014838 -204.599021 902
162.0062399 -204.1453647 900
166.2903097 -203.6917083 898
170.363343 -203.0112238 895
174.7963902 -202.7843956 894
179.018401 -202.3307392 892
183.6314551 -202.3307392 892
188.6665821 -202.7843956 894
193.2899794 -202.7843956 894
197.9133767 -202.7843956 894
202.9898764 -203.2380519 896
208.0870625 -203.6917083 898
212.7311461 -203.6917083 898
217.8593617 -204.1453647 900
223.0082636 -204.599021 902
227.9254427 -204.8258492 903
233.1105457 -205.2795056 905
239.8928488 -207.094131 913
244.6145063 -207.094131 913
250.1554501 -207.7746156 916
255.7274235 -208.4551001 919
122.7856518 -203.9240698 920
127.4048761 -203.7024132 919
132.0137572 -203.4807566 918
136.7612726 -203.4807566 918
140.4297449 -201.9291604 911
144.6630974 -201.2641906 908
149.1944047 -201.042534 907
153.5457051 -200.5992208 905
157.8763191 -200.1559076 903
162.3662538 -199.934251 902
166.4754882 -199.2692813 899
170.5536931 -198.6043115 896
174.7963902 -198.1609983 894
179.4197875 -198.1609983 894
184.0431848 -198.1609983 894
188.8776186 -198.3826549 895
193.5061875 -198.3826549 895
198.1347564 -198.3826549 895
203.4429788 -199.0476247 898
208.3187853 -199.2692813 899
213.2049349 -199.4909378 900
218.3434936 -199.934251 902
223.2555011 -200.1559076 903
228.430261 -200.5992208 905
233.8832879 -201.2641906 908
240.4183534 -202.8157868 915
245.4182779 -203.0374434 916
250.701641 -203.4807566 918
256.0056905 -203.9240698 920
118.7975398 -200.4651214 926
123.0525772 -199.5991813 922
127.4048761 -198.9497263 919
132.1575631 -198.9497263 919
137.0592274 -199.1662113 920
140.7380429 -197.6508162 913
145.1410591 -197.2178462 911
149.523389 -196.7848761 909
154.0546964 -196.5683911 908
158.5756605 -196.3519061 907
162.7262676 -195.7024511 904
167.2162023 -195.4859661 903
171.3150935 -194.836511 900
175.578477 -194.403541 898
179.8211741 -193.970571 896
184.4549145 -193.970571 896
189.5107279 -194.403541 898
194.1548116 -194.403541 898
199.0202748 -194.620026 899
203.8960812 -194.836511 900
209.0139536 -195.2694811 902
213.6787236 -195.2694811 902
218.5855596 -195.4859661 903
223.5027387 -195.7024511 904
228.430261 -195.9189361 905
234.1408686 -196.7848761 909
241.2066103 -198.7332413 918
246.2220496 -198.9497263 919
251.247832 -199.1662113 920
257.1187587 -200.0321513 924
123.3195025 -195.2536065 924
127.9594131 -195.042293 923
132.5889806 -194.8309796 922
137.3571823 -194.8309796 922
141.2004899 -193.563099 916
145.4597003 -192.9291588 913
150.0168656 -192.7178453 912
154.5636877 -192.5065319 911
158.9253312 -192.0839051 909
163.2662884 -191.6612782 907
167.5865593 -191.2386514 905
171.6957937 -190.6047111 902
175.9695203 -190.1820842 900
180.4232539 -189.9707708 899
185.0725091 -189.9707708 899
189.9328008 -190.1820842 900
194.3710196 -189.9707708 899
199.2416544 -190.1820842 900
204.3491837 -190.6047111 902
209.2456764 -190.8160245 903
213.6787236 -190.6047111 902
218.5855596 -190.8160245 903
223.5027387 -191.0273379 904
228.9350792 -191.6612782 907
234.1408686 -192.0839051 909
241.2066103 -193.9857259 918
246.4899735 -194.4083528 920
251.7940229 -194.8309796 922
257.9535599 -195.8875467 927
123.5864278 -190.8873453 926
128.0980474 -190.4750616 924
132.8765922 -190.4750616 924
137.5061597 -190.2689198 923
141.5087879 -189.2382105 918
145.7783415 -188.619785 915
150.1813578 -188.2075013 913
154.7333514 -188.0013595 912
159.2750019 -187.7952177 911
163.6263023 -187.382934 909
167.9569163 -186.9706503 907
172.0764939 -186.3522248 904
176.5560854 -186.1460829 903
181.226027 -186.1460829 903
185.8959686 -186.1460829 903
190.5659101 -186.1460829 903
195.0196437 -185.9399411 902
199.9057933 -186.1460829 903
204.5757349 -186.1460829 903
209.2456764 -186.1460829 903
213.915618 -186.1460829 903
218.8276255 -186.3522248 904
223.5027387 -186.3522248 904
228.9350792 -186.9706503 907
234.1408686 -187.382934 909
241.2066103 -189.2382105 918
246.4899735 -189.6504942 920
252.0671184 -190.2689198 923
257.9535599 -191.0934871 927
123.9868158 -186.701368 929
128.5139501 -186.2994275 927
133.1642039 -186.0984572 926
137.6551371 -185.6965167 924
141.6629369 -184.6916655 919
146.2563033 -184.4906952 918
150.5103421 -183.8877844 915
154.9030152 -183.4858439 913
159.6246726 -183.4858439 913
164.1663231 -183.2848737 912
168.3272734 -182.6819629 909
172.6475443 -182.2800224 907
176.7516071 -181.6771116 904
181.4267203 -181.6771116 904
186.1018334 -181.6771116 904
190.7769466 -181.6771116 904
195.4520597 -181.6771116 904
200.1271729 -181.6771116 904
204.8022861 -181.6771116 904
209.4773992 -181.6771116 904
214.1525124 -181.6771116 904
218.8276255 -181.6771116 904
223.5027387 -181.6771116 904
228.9350792 -182.2800224 907
234.1408686 -182.6819629 909
241.2066103 -184.4906952 918
246.4899735 -184.8926357 920
252.0671184 -185.4955465 923
258.510094 -186.701368 929
124.5206665 -182.6801599 933
129.0684871 -182.2885626 931
133.5956214 -181.8969652 929
138.4000242 -181.8969652 929
142.279533 -180.7221732 923
146.5749445 -180.1347772 920
151.1683108 -179.9389785 919
155.751334 -179.7431798 918
160.1491786 -179.3515825 916
164.7063439 -179.1557838 915
169.0679875 -178.7641865 913
173.4089447 -178.3725891 911
177.7292156 -177.9809918 909
182.4301866 -177.9809918 909
187.1311577 -177.9809918 909
191.8321288 -177.9809918 909
196.3168919 -177.7851931 908
201.0126914 -177.7851931 908
205.7084909 -177.7851931 908
210.1725676 -177.5893945 907
214.3894067 -177.1977971 905
219.0696915 -177.1977971 905
223.7499762 -177.1977971 905
228.9350792 -177.5893945 907
234.65603 -178.3725891 911
241.2066103 -179.7431798 918
247.0258212 -180.5263745 922
252.8864048 -181.3095692 926
259.0666281 -182.2885626 931
124.6541292 -178.0456979 934
129.3457556 -177.8550708 933
133.7394273 -177.2831895 930
138.5490016 -177.2831895 930
142.433682 -176.139427 924
146.8935857 -175.7581728 922
151.332803 -175.3769187 920
155.9209978 -175.1862916 919
160.4988493 -174.9956645 918
164.8863508 -174.6144103 916
169.4383445 -174.4237832 915
173.7896449 -174.0425291 913
178.3157806 -173.851902 912
183.0322665 -173.851902 912
187.5428874 -173.6612749 911
192.2542017 -173.6612749 911
196.5330999 -173.2800207 909
201.234071 -173.2800207 909
205.9350421 -173.2800207 909
210.4042904 -173.0893936 908
214.8631955 -172.8987665 907
219.0696915 -172.5175124 905
224.2444513 -172.8987665 907
228.9350792 -172.8987665 907
234.1408686 -173.2800207 909
241.2066103 -174.9956645 918
246.4899735 -175.3769187 920
252.8864048 -176.5206812 926
258.7883611 -177.2831895 930
124.6541292 -173.2154371 934
129.3457556 -173.0299816 933
133.8832331 -172.6590706 931
138.5490016 -172.4736151 930
142.433682 -171.3608821 924
147.0529062 -171.1754266 923
151.332803 -170.6190601 920
155.9209978 -170.4336046 919
160.4988493 -170.2481491 918
165.2463647 -170.2481491 918
169.623523 -169.8772381 916
174.1703451 -169.6917826 915
178.5113023 -169.3208716 913
183.2329597 -169.3208716 913
187.9546172 -169.3208716 913
192.6762746 -169.3208716 913
197.181724 -169.1354161 912
201.8982098 -169.1354161 912
206.3881445 -168.9499606 911
210.6360131 -168.5790496 909
215.1000899 -168.3935941 908
219.7958894 -168.3935941 908
224.2444513 -168.2081386 907
229.4398975 -168.5790496 909
234.65603 -168.9499606 911
241.2066103 -170.2481491 918
246.4899735 -170.6190601 920
252.3402139 -171.3608821 924
258.7883611 -172.4736151 930
120.2087417 -168.9260282 937
124.9210545 -168.7457442 936
129.3457556 -168.2048925 933
133.8832331 -167.8443247 931
138.5490016 -167.6640408 930
142.433682 -166.5823373 924
147.0529062 -166.4020534 923
151.6617873 -166.2217694 922
156.0906615 -165.8612016 920
160.4988493 -165.5006338 918
164.8863508 -165.140066 916
169.623523 -165.140066 916
174.1703451 -164.959782 915
178.9023457 -164.959782 915
183.6343463 -164.959782 915
188.3663469 -164.959782 915
193.0983475 -164.959782 915
197.397932 -164.5992142 913
202.1195894 -164.5992142 913
206.6146957 -164.4189303 912
211.0994587 -164.2386464 911
215.3369842 -163.8780785 909
220.0379553 -163.8780785 909
224.7389264 -163.8780785 909
229.4398975 -163.8780785 909
234.9136107 -164.4189303 912
241.2066103 -165.5006338 918
246.4899735 -165.8612016 920
252.3402139 -166.5823373 924
258.510094 -167.4837568 929
124.9210545 -163.9051404 936
129.4843899 -163.5549157 934
134.1708448 -163.3798034 933
138.6979791 -163.0295787 931
142.74198 -162.1540171 926
147.2122268 -161.8037924 924
151.6617873 -161.4535677 922
156.0906615 -161.1033431 920
160.4988493 -160.7531184 918
164.8863508 -160.4028938 916
169.623523 -160.4028938 916
174.1703451 -160.2277814 915
178.9023457 -160.2277814 915
183.6343463 -160.2277814 915
188.5722117 -160.4028938 916
193.3093839 -160.4028938 916
198.0465561 -160.4028938 916
202.7837283 -160.4028938 916
207.2943493 -160.2277814 915
211.5629043 -159.8775568 913
216.0476673 -159.7024445 912
220.7641532 -159.7024445 912
225.480639 -159.7024445 912
230.449534 -159.8775568 913
235.6863528 -160.2277814 915
241.4693626 -160.9282308 919
247.2937451 -161.6286801 923
252.8864048 -162.1540171 926
120.2087417 -159.2344772 937
124.9210545 -159.0645365 936
129.4843899 -158.724655 934
134.1708448 -158.5547142 933
138.6979791 -158.2148328 931
142.74198 -157.365129 926
147.2122268 -157.0252475 924
151.8262795 -156.8553068 923
156.429989 -156.6853661 922
160.6736847 -156.1755438 919
165.2463647 -156.0056031 918
169.623523 -155.6657216 916
174.3606952 -155.6657216 916
179.0978674 -155.6657216 916
183.8350396 -155.6657216 916
188.5722117 -155.6657216 916
193.3093839 -155.6657216 916
198.0465561 -155.6657216 916
203.2264875 -156.0056031 918
207.5209005 -155.6657216 916
212.0263499 -155.4957808 915
216.2845617 -155.1558994 913
221.4903511 -155.4957808 915
226.2223517 -155.4957808 915
231.2067614 -155.6657216 916
236.459095 -156.0056031 918
242.2576195 -156.6853661 922
247.561669 -157.0252475 924
253.1595003 -157.5350698 927
120.0804506 -154.2239326 936
124.6541292 -153.8943943 934
129.4843899 -153.8943943 934
134.1708448 -153.7296251 933
138.6979791 -153.4000868 931
142.896129 -152.7410102 927
147.530868 -152.576241 926
151.9907717 -152.2467027 924
156.5996528 -152.0819335 923
160.84852 -151.587626 920
165.4263716 -151.4228569 919
169.99388 -151.2580877 918
174.3606952 -150.9285494 916
179.0978674 -150.9285494 916
183.8350396 -150.9285494 916
188.5722117 -150.9285494 916
193.7314568 -151.2580877 918
198.4789722 -151.2580877 918
203.2264875 -151.2580877 918
207.9740029 -151.2580877 918
212.2580727 -150.9285494 916
216.9952448 -150.9285494 916
222.2165489 -151.2580877 918
226.9640643 -151.2580877 918
231.9639888 -151.4228569 919
236.9742564 -151.587626 920
242.7831241 -152.2467027 924
248.0975168 -152.576241 926
253.7056912 -153.0705485 929
124.6541292 -149.0641335 934
129.3457556 -148.904536 933
134.1708448 -148.904536 933
138.6979791 -148.5853408 931
143.204427 -148.2661457 929
147.6901886 -147.9469505 927
152.3197561 -147.787353 926
156.7693166 -147.4681578 924
161.1981907 -147.1489627 922
165.6063786 -146.8297675 920
170.1790586 -146.6701699 919
174.7413954 -146.5105724 918
179.4889108 -146.5105724 918
184.2364261 -146.5105724 918
188.9839415 -146.5105724 918
193.7314568 -146.5105724 918
198.4789722 -146.5105724 918
203.4478671 -146.6701699 919
208.4271053 -146.8297675 920
212.7215182 -146.5105724 918
217.705928 -146.6701699 919
222.7006808 -146.8297675 920
227.4585394 -146.8297675 920
232.7212161 -147.1489627 922
237.7469986 -147.3085602 923
243.3086287 -147.787353 926
248.9012884 -148.2661457 929
254.2518822 -148.5853408 931
124.6541292 -144.2338728 934
129.4843899 -144.2338728 934
134.1708448 -144.0794468 933
138.9959339 -144.0794468 933
143.512725 -143.7705949 931
148.1681504 -143.6161689 930
152.9777248 -143.6161689 930
157.6176354 -143.4617429 929
161.8975321 -142.9984649 926
166.3264063 -142.6896129 924
170.9197726 -142.535187 923
175.6931459 -142.535187 923
180.2709975 -142.380761 922
185.0391992 -142.380761 922
189.8074009 -142.380761 922
194.1535297 -142.071909 920
198.9113882 -142.071909 920
204.112006 -142.380761 922
209.1067589 -142.535187 923
213.8801322 -142.535187 923
218.6535054 -142.535187 923
223.6689447 -142.6896129 924
228.9419646 -142.9984649 926
233.9832618 -143.1528909 927
239.5500636 -143.6161689 930
244.3596379 -143.6161689 930
249.4371362 -143.7705949 931
254.7980731 -144.0794468 933
124.6541292 -139.4036121 934
129.4843899 -139.4036121 934
134.1708448 -139.2543577 933
138.9959339 -139.2543577 933
143.821023 -139.2543577 933
148.327471 -138.9558489 931
153.1422169 -138.9558489 931
157.7872991 -138.8065945 930
162.4220382 -138.6573401 929
166.8664271 -138.3588313 927
171.4753082 -138.2095769 926
176.2641962 -138.2095769 926
180.6620409 -137.9110681 924
185.2398925 -137.7618137 923
190.0132658 -137.7618137 923
194.786639 -137.7618137 923
199.3438043 -137.6125593 922
204.5547652 -137.9110681 924
209.7864125 -138.2095769 926
214.1118549 -137.9110681 924
219.3641886 -138.2095769 926
224.3951425 -138.3588313 927
229.1892022 -138.3588313 927
234.48808 -138.6573401 929
239.8076443 -138.9558489 931
245.1478948 -139.2543577 933
249.972984 -139.2543577 933
255.0711686 -139.4036121 934
124.6541292 -134.5733514 934
129.4843899 -134.5733514 934
134.1708448 -134.4292686 933
138.9959339 -134.4292686 933
143.821023 -134.4292686 933
148.6461122 -134.4292686 933
153.1422169 -134.1411029 931
157.9569629 -134.1411029 931
162.5968735 -133.9970201 930
167.4064479 -133.9970201 930
172.0308438 -133.8529373 929
176.4545463 -133.5647717 927
181.248606 -133.5647717 927
185.8419723 -133.4206889 926
190.6308603 -133.4206889 926
194.9976755 -133.1325232 924
199.7762204 -133.1325232 924
204.9975244 -133.4206889 926
210.0129637 -133.5647717 927
214.8070233 -133.5647717 927
219.6010829 -133.5647717 927
225.1213404 -133.9970201 930
229.9309148 -133.9970201 930
234.9928983 -134.1411029 931
240.5803864 -134.5733514 934
245.4106471 -134.5733514 934
250.7767556 -134.861517 936
255.890455 -135.0055998 937
124.6541292 -129.7430907 934
129.4843899 -129.7430907 934
134.1708448 -129.6041794 933
139.1449113 -129.7430907 934
143.821023 -129.6041794 933
148.6461122 -129.6041794 933
153.4712013 -129.6041794 933
157.9569629 -129.326357 931
162.7717089 -129.326357 931
167.4064479 -129.1874457 930
172.2160223 -129.1874457 930
177.0255966 -129.1874457 930
181.6396493 -129.0485345 929
186.0426656 -128.770712 927
190.8367252 -128.770712 927
195.6307848 -128.770712 927
200.2086364 -128.6318008 926
205.2189041 -128.770712 927
210.0129637 -128.770712 927
215.2704689 -129.0485345 929
220.311766 -129.1874457 930
225.3634064 -129.326357 931
230.6726274 -129.6041794 933
235.4977166 -129.6041794 933
241.6107093 -130.2987356 938
246.4616563 -130.2987356 938
251.8484511 -130.5765581 940
256.7097414 -130.5765581 940
124.6541292 -124.91283 934
129.3457556 -124.7790903 933
134.3146506 -124.91283 934
138.9959339 -124.7790903 933
143.975172 -124.91283 934
148.8054328 -124.91283 934
153.6356935 -124.91283 934
158.4659542 -124.91283 934
163.1213796 -124.7790903 933
167.9464687 -124.7790903 933
172.7715578 -124.7790903 933
177.596647 -124.7790903 933
182.0306927 -124.511611 931
186.8454387 -124.511611 931
191.4543198 -124.3778714 930
196.2638942 -124.3778714 930
200.8572605 -124.2441317 929
205.8830429 -124.3778714 930
210.6926173 -124.3778714 930
215.7339145 -124.511611 931
221.0224492 -124.7790903 933
226.0896043 -124.91283 934
231.4143401 -125.1803092 936
236.5073531 -125.3140489 937
241.6107093 -125.4477885 938
246.4616563 -125.4477885 938
251.8484511 -125.7152678 940
256.7097414 -125.7152678 940
124.6541292 -120.0825692 934
129.4843899 -120.0825692 934
134.1708448 -119.9540012 933
138.9959339 -119.9540012 933
143.821023 -119.9540012 933
148.8054328 -120.0825692 934
153.6356935 -120.0825692 934
158.2962904 -119.9540012 933
163.1213796 -119.9540012 933
167.9464687 -119.9540012 933
172.7715578 -119.9540012 933
177.596647 -119.9540012 933
182.0306927 -119.696865 931
186.8454387 -119.696865 931
191.6601846 -119.696865 931
196.2638942 -119.568297 930
201.0734685 -119.568297 930
205.8830429 -119.568297 930
210.9191685 -119.696865 931
216.19736 -119.9540012 933
221.2593435 -120.0825692 934
226.5737362 -120.3397054 936
231.4143401 -120.3397054 936
236.5073531 -120.4682734 937
241.6107093 -120.5968415 938
246.9871609 -120.8539776 940
251.8484511 -120.8539776 940
256.9828368 -120.9825457 941
124.6541292 -115.2523085 934
129.3457556 -115.128912 933
134.1708448 -115.128912 933
138.9959339 -115.128912 933
143.821023 -115.128912 933
148.6461122 -115.128912 933
153.4712013 -115.128912 933
158.2962904 -115.128912 933
162.7717089 -114.8821191 931
167.5864548 -114.8821191 931
172.7715578 -115.128912 933
177.2159468 -114.8821191 931
182.0306927 -114.8821191 931
186.6447454 -114.7587226 930
191.4543198 -114.7587226 930
196.2638942 -114.7587226 930
201.0734685 -114.7587226 930
205.8830429 -114.7587226 930
210.9191685 -114.8821191 931
216.19736 -115.128912 933
221.2593435 -115.2523085 934
226.0896043 -115.2523085 934
231.4143401 -115.4991015 936
236.5073531 -115.6224979 937
241.6107093 -115.7458944 938
246.9871609 -115.9926874 940
252.116375 -116.1160838 941
256.9828368 -116.1160838 941
124.2537412 -110.0673731 931
128.9298529 -109.9491482 930
133.7394273 -109.9491482 930
138.4000242 -109.8309233 929
143.358576 -109.9491482 930
148.1681504 -109.9491482 930
152.8132326 -109.8309233 929
157.7872991 -109.9491482 930
162.4220382 -109.8309233 929
167.226441 -109.8309233 929
172.2160223 -109.9491482 930
177.0255966 -109.9491482 930
181.6396493 -109.8309233 929
186.4440521 -109.8309233 929
191.2484549 -109.8309233 929
196.0528577 -109.8309233 929
200.8572605 -109.8309233 929
205.8830429 -109.9491482 930
210.9191685 -110.0673731 931
216.19736 -110.3038229 933
221.0224492 -110.3038229 933
226.5737362 -110.6584976 936
231.4143401 -110.6584976 936
236.5073531 -110.7767225 937
241.6107093 -110.8949474 938
246.9871609 -111.1313971 940
251.8484511 -111.1313971 940
124.1202785 -105.1395739 930
128.7912186 -105.0265206 929
133.5956214 -105.0265206 929
138.4000242 -105.0265206 929
142.896129 -104.8004139 927
148.0088298 -105.0265206 929
152.8132326 -105.0265206 929
157.6176354 -105.0265206 929
162.4220382 -105.0265206 929
167.226441 -105.0265206 929
172.0308438 -105.0265206 929
176.8352465 -105.0265206 929
181.6396493 -105.0265206 929
186.4440521 -105.0265206 929
191.2484549 -105.0265206 929
196.0528577 -105.0265206 929
201.0734685 -105.1395739 930
205.8830429 -105.1395739 930
210.9191685 -105.2526272 931
215.7339145 -105.2526272 931
221.0224492 -105.4787338 933
226.5737362 -105.8178937 936
231.4143401 -105.8178937 936
236.5073531 -105.930947 937
242.1258707 -106.2701069 940
246.9871609 -106.2701069 940
251.8484511 -106.2701069 940
123.9868158 -100.2221178 929
128.7912186 -100.2221178 929
133.3080097 -100.0063543 927
138.1020694 -100.0063543 927
142.896129 -100.0063543 927
147.6901886 -100.0063543 927
152.4842482 -100.0063543 927
157.2783079 -100.0063543 927
162.0723675 -100.0063543 927
167.226441 -100.2221178 929
172.0308438 -100.2221178 929
176.8352465 -100.2221178 929
181.6396493 -100.2221178 929
186.4440521 -100.2221178 929
191.2484549 -100.2221178 929
196.2638942 -100.3299995 930
201.0734685 -100.3299995 930
205.8830429 -100.3299995 930
210.9191685 -100.4378812 931
216.19736 -100.6536446 933
221.2593435 -100.7615264 934
226.5737362 -100.9772898 936
231.4143401 -100.9772898 936
236.5073531 -101.0851715 937
241.6107093 -101.1930532 938
246.9871609 -101.4088167 940
251.8484511 -101.4088167 940
123.9868158 -95.41771497 929
128.5139501 -95.2122947 927
133.1642039 -95.10958456 926
137.9530919 -95.10958456 926
142.74198 -95.10958456 926
147.530868 -95.10958456 926
152.3197561 -95.10958456 926
157.2783079 -95.2122947 927
162.0723675 -95.2122947 927
166.8664271 -95.2122947 927
172.0308438 -95.41771497 929
176.8352465 -95.41771497 929
181.6396493 -95.41771497 929
186.6447454 -95.5204251 930
191.4543198 -95.5204251 930
196.2638942 -95.5204251 930
201.2896766 -95.62313524 931
206.1044225 -95.62313524 931
211.3722709 -95.82855551 933
216.4290828 -95.93126564 934
221.7331323 -96.13668591 936
226.8158021 -96.23939604 937
231.6615776 -96.23939604 937
236.5073531 -96.23939604 937
241.6107093 -96.34210618 938
246.9871609 -96.54752645 940
251.8484511 -96.54752645 940
123.7198905 -90.41823508 927
128.3753159 -90.32069653 926
132.8765922 -90.12561943 924
137.6551371 -90.12561943 924
142.433682 -90.12561943 924
147.530868 -90.32069653 926
152.3197561 -90.32069653 926
157.1086441 -90.32069653 926
162.0723675 -90.41823508 927
166.8664271 -90.41823508 927
172.0308438 -90.61331218 929
176.8352465 -90.61331218 929
181.835171 -90.71085073 930
186.8454387 -90.80838927 931
191.6601846 -90.80838927 931
196.4749306 -90.80838927 931
201.7220926 -91.00346637 933
207.2113206 -91.29608202 936
212.0519245 -91.29608202 936
217.1242512 -91.39362057 937
221.9700266 -91.39362057 937
227.0578681 -91.49115912 938
232.4032902 -91.68623622 940
237.2645805 -91.68623622 940
242.3834514 -91.78377477 941
247.2499132 -91.78377477 941
252.116375 -91.78377477 941
123.7198905 -85.62417546 927
128.3753159 -85.53180849 926
133.1642039 -85.53180849 926
137.6551371 -85.34707457 924
142.433682 -85.34707457 924
147.530868 -85.53180849 926
152.3197561 -85.53180849 926
157.2783079 -85.62417546 927
162.0723675 -85.62417546 927
167.4064479 -85.90127635 930
172.2160223 -85.90127635 930
177.2159468 -85.99364331 931
182.0306927 -85.99364331 931
187.2468252 -86.17837724 933
192.2777792 -86.2707442 934
197.1080399 -86.2707442 934
202.3707167 -86.45547813 936
207.4327002 -86.5478451 937
212.2784757 -86.5478451 937
217.1242512 -86.5478451 937
222.206921 -86.64021206 938
227.542 -86.82494599 940
232.6505278 -86.91731295 941
237.5169896 -86.91731295 941
242.3834514 -86.91731295 941
247.7754178 -87.10204688 943
252.6522228 -87.10204688 943
123.9868158 -81.00450659 929
128.5139501 -80.83011584 927
133.1642039 -80.74292046 926
137.9530919 -80.74292046 926
142.74198 -80.74292046 926
147.6901886 -80.83011584 927
152.8132326 -81.00450659 929
157.6176354 -81.00450659 929
162.4220382 -81.00450659 929
167.5864548 -81.17889735 931
172.4012008 -81.17889735 931
177.596647 -81.35328811 933
182.4217361 -81.35328811 933
187.4475185 -81.44048349 934
192.6895089 -81.61487424 936
197.7411493 -81.70206962 937
202.5869247 -81.70206962 937
207.6540798 -81.789265 938
212.5050269 -81.789265 938
217.8194195 -81.96365576 940
222.6807098 -81.96365576 940
227.784066 -82.05085113 941
232.6505278 -82.05085113 941
238.0218078 -82.22524189 943
242.8986128 -82.22524189 943
247.7754178 -82.22524189 943
252.9201467 -82.31243727 944
123.9868158 -76.2001038 929
128.7912186 -76.2001038 929
133.5956214 -76.2001038 929
138.1020694 -76.03605621 927
142.896129 -76.03605621 927
148.0088298 -76.2001038 929
152.8132326 -76.2001038 929
157.7872991 -76.28212759 930
162.7717089 -76.36415139 931
167.9464687 -76.52819897 933
172.7715578 -76.52819897 933
177.7869971 -76.61022277 934
183.0083012 -76.77427035 936
188.0495983 -76.85629415 937
192.8953738 -76.85629415 937
197.9521857 -76.93831794 938
202.8031328 -76.93831794 938
208.3182187 -77.18438932 941
213.1846805 -77.18438932 941
218.0511423 -77.18438932 941
223.3913929 -77.3484369 943
228.2681979 -77.3484369 943
233.3922404 -77.4304607 944
238.0218078 -77.3484369 943
243.1561935 -77.4304607 944
248.0381701 -77.4304607 944
253.4559945 -77.59450828 946
257.8021233 -77.4304607 944
124.2537412 -71.54940542 931
128.9298529 -71.47255322 930
133.5956214 -71.39570101 929
138.4000242 -71.39570101 929
143.204427 -71.39570101 929
148.1681504 -71.47255322 930
152.9777248 -71.47255322 930
157.9569629 -71.54940542 931
162.7717089 -71.54940542 931
167.9464687 -71.70310984 933
172.9567363 -71.77996205 934
178.1676973 -71.93366646 936
183.2038229 -72.01051867 937
188.2502916 -72.08737088 938
193.5129684 -72.24107529 940
198.3742586 -72.24107529 940
203.8841729 -72.47163192 943
208.9823575 -72.54848413 944
213.8643341 -72.54848413 944
218.7463107 -72.54848413 944
224.3389704 -72.77904075 947
229.2364617 -72.77904075 947
234.133953 -72.77904075 947
239.2838535 -72.85589296 948
244.1865164 -72.85589296 948
249.0891793 -72.85589296 948
254.52769 -73.00959737 950
259.4406961 -73.00959737 950
125.0545172 -67.1647432 937
129.7616584 -67.09306257 936
134.1708448 -66.87802071 933
138.9959339 -66.87802071 933
143.821023 -66.87802071 933
148.8054328 -66.94970133 934
153.9646778 -67.09306257 936
158.8052817 -67.09306257 936
163.6458856 -67.09306257 936
168.4864895 -67.09306257 936
173.5122719 -67.1647432 937
178.5483975 -67.23642382 938
183.3993445 -67.23642382 938
188.6516781 -67.37978506 940
193.7188332 -67.45146569 941
199.0073679 -67.59482693 943
203.8841729 -67.59482693 943
209.4251168 -67.8098688 946
214.5439877 -67.88154942 947
219.441479 -67.88154942 947
224.5758647 -67.95323004 948
229.9626596 -68.09659129 950
235.1229032 -68.16827191 951
240.0410809 -68.16827191 951
245.47442 -68.31163316 953
250.6656931 -68.38331378 954
255.5993855 -68.38331378 954
260.2599825 -68.31163316 953
125.4549052 -62.51849483 940
130.0389269 -62.38547676 938
134.7460681 -62.31896772 937
139.5918436 -62.31896772 937
144.28347 -62.25245868 936
149.2833945 -62.31896772 937
154.12917 -62.31896772 937
159.1446092 -62.38547676 938
163.9955563 -62.38547676 938
168.8465034 -62.38547676 938
173.6974504 -62.38547676 938
178.5483975 -62.38547676 938
183.7903879 -62.51849483 940
188.8523714 -62.58500387 941
194.130563 -62.71802194 943
199.2184044 -62.78453098 944
204.532797 -62.91754906 946
209.867876 -63.05056713 948
214.7705389 -63.05056713 948
220.1366474 -63.1835852 950
225.2865479 -63.25009424 951
230.6888574 -63.38311231 953
235.8646158 -63.44962135 954
240.7983083 -63.44962135 954
246.2471621 -63.58263943 956
251.45395 -63.64914846 957
256.9390049 -63.78216654 959
125.9887558 -57.90255441 944
130.7320981 -57.84121696 943
135.1774856 -57.6572046 940
140.0387758 -57.6572046 940
144.5917681 -57.5345297 938
149.7613563 -57.6572046 940
154.6226465 -57.6572046 940
159.4839368 -57.6572046 940
164.345227 -57.6572046 940
169.2065172 -57.6572046 940
174.0678075 -57.6572046 940
179.1194478 -57.71854205 941
183.9859096 -57.71854205 941
189.253758 -57.84121696 943
194.3364278 -57.90255441 944
199.6404773 -58.02522931 946
204.7490051 -58.08656676 947
210.3106352 -58.27057912 950
215.2236413 -58.27057912 950
220.3683702 -58.33191657 951
225.997231 -58.51592893 954
231.4150553 -58.63860383 956
236.6063285 -58.69994128 957
242.0603539 -58.82261618 959
247.277485 -58.88395364 960
252.7677115 -59.00662854 962
257.7427766 -59.00662854 962
131.2866351 -53.18907544 947
135.752709 -53.02057784 944
140.4857081 -52.96441197 943
145.0542151 -52.85208024 941
150.2393181 -52.96441197 943
155.1161231 -52.96441197 943
159.9929281 -52.96441197 943
164.5200623 -52.85208024 941
169.926545 -53.02057784 944
174.8085215 -53.02057784 944
179.6904981 -53.02057784 944
184.5724747 -53.02057784 944
190.0565311 -53.18907544 947
195.1598873 -53.2452413 948
200.0625502 -53.2452413 948
205.6138372 -53.4137389 951
210.9747741 -53.52607063 953
216.1298461 -53.5822365 954
221.0635385 -53.5822365 954
226.7079141 -53.7507341 957
232.3833191 -53.9192317 960
237.8425162 -54.03156343 962
243.0699904 -54.0877293 963
248.8229692 -54.2562269 966
254.3442253 -54.36855863 968
259.3503199 -54.36855863 968
131.7025379 -48.44456695 950
136.1841265 -48.29158411 947
140.9326404 -48.24058983 946
145.5166621 -48.13860127 944
150.3986387 -48.13860127 944
155.2806152 -48.13860127 944
160.1625918 -48.13860127 944
165.3942391 -48.24058983 946
170.2865588 -48.24058983 946
175.1788786 -48.24058983 946
180.2615484 -48.29158411 947
184.9635181 -48.24058983 946
190.2572243 -48.34257839 948
195.1598873 -48.34257839 948
200.4846231 -48.44456695 950
206.0462532 -48.59754979 953
210.9747741 -48.59754979 953
216.1298461 -48.64854408 954
221.5269841 -48.75053264 956
227.1817028 -48.90351548 959
232.8674511 -49.05649832 962
238.0897537 -49.1074926 963
243.5748087 -49.20948117 965
249.3381307 -49.36246401 968
254.3442253 -49.36246401 968
259.6182438 -49.41345829 969
264.62951 -49.41345829 969
131.7025379 -43.53156087 950
136.3279323 -43.43991548 948
140.9326404 -43.34827008 946
145.5166621 -43.25662469 944
150.7172799 -43.34827008 946
155.6095996 -43.34827008 946
160.5019193 -43.34827008 946
165.3942391 -43.34827008 946
170.4665658 -43.39409278 947
175.3640571 -43.39409278 947
180.4518985 -43.43991548 948
185.3545614 -43.43991548 948
190.6586109 -43.53156087 950
195.7774818 -43.57738356 951
200.6956595 -43.57738356 951
206.0462532 -43.66902895 953
211.1961537 -43.71485165 954
216.1298461 -43.71485165 954
221.5269841 -43.80649704 956
227.4185972 -43.98978782 960
232.8674511 -44.08143321 962
238.0897537 -44.12725591 963
243.5748087 -44.2189013 965
249.5957114 -44.40219208 969
254.6069776 -44.40219208 969
259.6182438 -44.40219208 969
265.1757009 -44.49383748 971
131.7025379 -38.61855478 950
136.3279323 -38.53725256 948
140.9326404 -38.45595034 946
145.8249601 -38.45595034 946
150.7172799 -38.45595034 946
155.6095996 -38.45595034 946
160.6715831 -38.49660145 947
165.5690744 -38.49660145 947
170.6465727 -38.53725256 948
175.9195926 -38.61855478 950
180.8325987 -38.61855478 950
185.7456048 -38.61855478 950
190.8593042 -38.65920589 951
195.7774818 -38.65920589 951
201.1177324 -38.74050811 953
206.2624613 -38.78115922 954
211.6389129 -38.86246144 956
216.8094997 -38.90311255 957
221.7587069 -38.90311255 957
227.4185972 -39.02506589 960
233.109517 -39.14701922 963
238.5842288 -39.22832144 965
243.8272178 -39.26897255 966
249.3381307 -39.35027477 968
254.3442253 -39.35027477 968
259.3503199 -39.35027477 968
131.7025379 -33.7055487 950
136.3279323 -33.63458965 948
141.0816178 -33.59911012 947
145.8249601 -33.5636306 946
150.8766004 -33.59911012 947
155.7740918 -33.59911012 947
160.8412469 -33.63458965 948
