# .PCD v0.7 - Point Cloud Data file format
VERSION 0.7
FIELDS x y z
SIZE 4 4 4
TYPE F F F
COUNT 1 1 1
WIDTH 1675
HEIGHT 1
VIEWPOINT 0 0 0 1 0 0 0
POINTS 1675
DATA ascii
1070.460571 94.98704286 1513
1078.28518 94.98704286 1513
1083.238381 94.73592048 1509
1091.042303 94.73592048 1509
1098.846226 94.73592048 1509
1106.650148 94.73592048 1509
-9.810591949 58.77863751 865
-5.355681038 58.98249405 868
-0.8747333855 59.52611151 876
3.64722932 59.39020715 874
8.241951851 59.9338246 882
12.91941975 60.47744206 890
17.56150628 60.61334642 892
22.47287289 61.42877261 904
27.23807892 61.63262916 907
31.99911192 61.76853352 909
36.86157952 62.04034225 913
41.71987409 62.24419879 916
46.55848087 62.38010316 918
51.30599623 62.38010316 918
56.17563252 62.51600752 920
61.33088337 62.92372062 926
66.33398233 63.12757716 929
71.29153558 63.26348153 931
76.84200284 63.87505116 940
82.05096666 64.14685989 944
87.30130316 64.41866862 948
92.49575078 64.62252517 951
97.72122791 64.82638171 954
102.6549203 64.82638171 954
107.5886128 64.82638171 954
111.5787219 64.28276426 946
120.0804506 63.60324244 936
124.1202785 63.19552934 930
128.0980474 62.78781625 924
132.5889806 62.65191189 922
137.0592274 62.51600752 920
141.8170859 62.51600752 920
146.5749445 62.51600752 920
151.332803 62.51600752 920
156.0906615 62.51600752 920
160.6736847 62.44805534 919
165.4263716 62.44805534 919
169.99388 62.38010316 918
174.7413954 62.38010316 918
179.0978674 62.24419879 916
183.6343463 62.17624661 915
187.7487523 61.97239007 912
192.4652381 61.97239007 912
196.965516 61.90443788 911
201.234071 61.76853352 909
205.4819397 61.63262916 907
210.1725676 61.63262916 907
214.8631955 61.63262916 907
219.0696915 61.49672479 905
223.7499762 61.49672479 905
228.1778518 61.42877261 904
233.1105457 61.49672479 905
237.5280782 61.42877261 904
242.2031913 61.42877261 904
246.605209 61.36082043 903
251.2751506 61.36082043 903
255.9450922 61.36082043 903
260.9036439 61.42877261 904
270.2538703 61.42877261 904
275.8413584 61.63262916 907
280.5319863 61.63262916 907
285.5370823 61.70058134 908
290.2328818 61.70058134 908
295.2534927 61.76853352 909
300.9444125 61.97239007 912
305.9960528 62.04034225 913
311.7386885 62.24419879 916
318.5488466 62.65191189 922
323.6677176 62.71986407 923
328.7969317 62.78781625 924
334.2975014 62.92372062 926
339.4525735 62.9916728 927
343.8752775 62.92372062 926
347.9111112 62.78781625 924
352.689656 62.78781625 924
357.4682009 62.78781625 924
361.4626619 62.65191189 922
365.039223 62.44805534 919
368.5847547 62.24419879 916
372.9143702 62.17624661 915
376.8209142 62.04034225 913
381.5425716 62.04034225 913
385.8411576 61.97239007 912
390.5576435 61.97239007 912
394.8407147 61.90443788 911
399.9906151 61.97239007 912
404.707101 61.97239007 912
409.8725162 62.04034225 913
415.5023755 62.17624661 915
420.2343761 62.17624661 915
424.0374885 62.04034225 913
429.6983773 62.17624661 915
433.4808033 62.04034225 913
438.2024607 62.04034225 913
442.9241182 62.04034225 913
447.6457756 62.04034225 913
451.8719594 61.97239007 912
456.5884452 61.97239007 912
460.7991143 61.90443788 911
466.0214169 61.97239007 912
470.7379028 61.97239007 912
474.933057 61.90443788 911
478.591365 61.76853352 909
484.8873603 61.97239007 912
489.0669998 61.90443788 911
494.320332 61.97239007 912
498.4896283 61.90443788 911
503.7533036 61.97239007 912
509.0273221 62.04034225 913
514.8743881 62.17624661 915
520.1742645 62.24419879 916
526.6305789 62.44805534 919
533.1179229 62.65191189 922
539.0529058 62.78781625 924
545.5971372 62.9916728 927
552.1723981 63.19552934 930
556.3830671 63.12757716 929
561.1874699 63.12757716 929
562.3363816 62.71986407 923
565.2664945 62.51600752 920
567.5459863 62.24419879 916
569.7841054 61.97239007 912
570.0910472 61.49672479 905
574.1362255 61.42877261 904
578.1710607 61.36082043 903
582.1955526 61.29286825 902
585.5590802 61.15696388 900
589.5577142 61.0890117 899
594.2069695 61.0890117 899
598.8562247 61.0890117 899
601.4915573 60.88515515 896
605.4488187 60.81720297 895
609.3957368 60.74925079 894
611.9586672 60.54539424 891
616.2942741 60.06972897 884
618.7589444 59.86587242 881
1073.290606 103.0834602 1517
1078.28518 102.8116515 1513
1086.109788 102.8116515 1513
1093.934397 102.8116515 1513
1101.759006 102.8116515 1513
1106.650148 102.5398428 1509
-9.753883325 62.88644 860
-5.324830341 63.1058113 863
3.605499008 63.17893507 864
8.111127218 63.47143014 868
12.71619292 64.05642028 876
17.32525284 64.34891535 880
22.05026355 64.86078172 887
26.87770743 65.44577186 895
31.68228903 65.8113907 900
36.49821236 66.10388577 904
41.35550838 66.39638084 908
46.10202518 66.4695046 909
50.91477403 66.61575214 911
55.74820923 66.76199967 913
60.86725899 67.20074228 919
65.69134957 67.27386605 920
70.75550899 67.56636112 924
86.5645833 68.7363414 940
91.42587354 68.7363414 940
97.10662899 69.32133153 948
102.2245014 69.46757907 950
107.1375075 69.46757907 950
111.7925009 66.39638084 908
119.9829359 65.73826693 899
124.4935569 65.66514316 898
128.8500288 65.51889563 896
134.079679 65.8113907 900
138.7341058 65.8113907 900
144.025815 66.10388577 904
148.7009282 66.10388577 904
153.5457051 66.17700953 905
158.2259898 66.17700953 905
162.7262676 66.10388577 904
167.4013808 66.10388577 904
172.0764939 66.10388577 904
176.9471288 66.17700953 905
182.0288001 66.32325707 907
186.719428 66.32325707 907
191.4100559 66.32325707 907
195.6682678 66.17700953 905
199.9057933 66.030762 903
204.3491837 65.95763823 902
208.5505081 65.8113907 900
213.2049349 65.8113907 900
217.6172957 65.73826693 899
222.0193134 65.66514316 898
226.6633971 65.66514316 898
231.3074807 65.66514316 898
235.4260598 65.51889563 896
239.7918764 65.44577186 895
244.4204452 65.44577186 895
248.7707471 65.37264809 894
253.3941444 65.37264809 894
258.3061519 65.44577186 895
262.9347208 65.44577186 895
277.129724 65.51889563 896
282.3924008 65.66514316 898
291.6805681 65.66514316 898
421.2508237 66.32325707 907
425.9414516 66.32325707 907
430.6320795 66.32325707 907
435.3227074 66.32325707 907
440.0133354 66.32325707 907
443.7233592 66.17700953 905
447.9081703 66.10388577 904
452.5832834 66.10388577 904
457.2583966 66.10388577 904
461.9335097 66.10388577 904
466.6086229 66.10388577 904
470.2410729 65.95763823 902
473.8528366 65.8113907 900
478.5072634 65.8113907 900
482.6248439 65.73826693 899
487.2740992 65.73826693 899
491.3761649 65.66514316 898
494.9155264 65.51889563 896
499.5492669 65.51889563 896
505.3084158 65.66514316 898
509.9524995 65.66514316 898
515.1696305 65.73826693 899
520.3971048 65.8113907 900
526.2183128 65.95763823 902
532.6487693 66.17700953 905
538.5165216 66.32325707 907
543.2071495 66.32325707 907
547.8977774 66.32325707 907
550.1514112 66.030762 903
552.9780925 65.8113907 900
555.1541526 65.51889563 896
558.5383665 65.37264809 894
560.6420244 65.08015302 890
563.339416 64.86078172 887
567.9266122 64.86078172 887
572.5138084 64.86078172 887
576.4503834 64.78765795 886
581.032408 64.78765795 886
585.6144326 64.78765795 886
590.1964573 64.78765795 886
594.7784819 64.78765795 886
598.0075483 64.64141042 884
602.5792297 64.64141042 884
614.2027777 64.42203912 881
1075.413131 111.1481265 1520
1083.273941 111.1481265 1520
1091.134751 111.1481265 1520
1098.995561 111.1481265 1520
1104.671785 110.9287552 1517
1112.51708 110.9287552 1517
-79.82812149 91.60556277 1170
-73.77736663 91.60556277 1170
-67.90026975 91.84044883 1173
-61.93942894 91.99703953 1175
-55.76773051 91.84044883 1173
-5.300149783 67.25570805 859
-0.8577579659 67.25570805 859
3.588806883 67.3340034 860
8.045714902 67.41229876 861
12.61457951 68.03866158 869
17.16775054 68.27354764 872
21.85138857 68.82161511 879
26.63745976 69.44797793 887
31.50627632 70.07434075 895
36.33671585 70.46581751 900
41.17332552 70.77899893 904
45.89915598 70.85729428 905
50.74710738 71.09218034 908
55.50396735 71.17047569 909
60.66856282 71.71854316 916
65.54854228 71.87513386 918
70.60235854 72.18831528 922
76.10628154 72.89297345 931
81.35561949 73.28445021 936
86.38040334 73.44104092 938
91.03682727 73.28445021 936
99.96480188 72.73638275 929
104.543652 72.57979204 927
110.8075449 70.46581751 900
118.9152346 69.76115934 891
123.3844829 69.68286399 890
128.1309997 69.76115934 891
133.3347919 70.07434075 895
137.9633608 70.07434075 895
142.5919297 70.07434075 895
147.8784673 70.38752216 899
153.0367138 70.62240822 902
157.7014838 70.62240822 902
162.3662538 70.62240822 902
166.6606667 70.46581751 900
171.3150935 70.46581751 900
176.3605637 70.62240822 902
181.0253337 70.62240822 902
185.8959686 70.70070357 903
190.7769466 70.77899893 904
195.0196437 70.62240822 902
199.2416544 70.46581751 900
203.4429788 70.30922681 898
208.0870625 70.30922681 898
212.7311461 70.30922681 898
216.406966 69.9960454 894
220.0414131 69.68286399 890
224.644124 69.68286399 890
229.5044157 69.76115934 891
233.5867937 69.60456863 889
238.1843331 69.60456863 889
242.7818724 69.60456863 889
246.5446106 69.36968258 886
251.1266353 69.36968258 886
255.9972701 69.44797793 887
261.1720299 69.60456863 889
265.1716625 69.44797793 887
268.8464838 69.21309187 884
272.4902755 68.97820581 881
276.7319741 68.89991046 880
280.9633295 68.82161511 879
285.509153 68.82161511 879
289.3950107 68.6650244 877
294.9359545 68.89991046 880
300.8482539 69.21309187 884
306.4564284 69.44797793 887
314.1996478 70.1526361 896
320.9684333 70.62240822 902
327.4382654 71.01388498 907
333.5936294 71.3270664 911
338.3049436 71.3270664 911
342.2632035 71.17047569 909
346.9641746 71.17047569 909
351.2782753 71.09218034 908
355.5820329 71.01388498 907
359.0810203 70.77899893 904
363.3537483 70.70070357 903
366.3934631 70.38752216 899
371.0427184 70.38752216 899
375.2740737 70.30922681 898
379.9181574 70.30922681 898
383.705755 70.1526361 896
389.2063247 70.30922681 898
393.8504083 70.30922681 898
398.9382498 70.38752216 899
404.0364344 70.46581751 900
409.5990631 70.62240822 902
414.7231056 70.70070357 903
419.3930472 70.70070357 903
424.5326045 70.77899893 904
428.7329303 70.70070357 903
433.4028719 70.70070357 903
438.0728135 70.70070357 903
442.7427551 70.70070357 903
447.4126966 70.70070357 903
451.581993 70.62240822 902
456.246763 70.62240822 902
460.911533 70.62240822 902
464.543983 70.46581751 900
468.1557467 70.30922681 898
472.7998303 70.30922681 898
476.3805645 70.1526361 896
480.4774586 70.07434075 895
485.1060275 70.07434075 895
489.1874069 69.9960454 894
492.7060821 69.83945469 892
497.3191362 69.83945469 892
501.9321903 69.83945469 892
506.5452445 69.83945469 892
512.3043934 69.9960454 894
517.5060098 70.07434075 895
523.8847504 70.30922681 898
529.7059584 70.46581751 900
535.5478527 70.62240822 902
540.2126227 70.62240822 902
544.8773927 70.62240822 902
547.7144172 70.38752216 899
550.5204121 70.1526361 896
553.9149692 69.9960454 894
556.6640767 69.76115934 891
558.7522198 69.44797793 887
562.0692031 69.29138722 885
566.6460561 69.29138722 885
570.5774596 69.21309187 884
575.149141 69.21309187 884
579.7208225 69.21309187 884
584.2925039 69.21309187 884
588.8641854 69.21309187 884
593.4358668 69.21309187 884
595.9781109 68.97820581 881
600.5342776 68.97820581 881
604.403622 68.89991046 880
608.9546171 68.89991046 880
612.8084467 68.82161511 879
1075.413131 119.0089362 1520
1083.273941 119.0089362 1520
1091.134751 119.0089362 1520
1098.995561 119.0089362 1520
1106.85637 119.0089362 1520
1114.71718 119.0089362 1520
-80.16926731 98.07365232 1175
-73.96653936 97.90671844 1173
-68.01604173 98.07365232 1175
-62.04485776 98.2405862 1177
-55.9579018 98.2405862 1177
-5.281639365 71.44769905 856
-0.8527651955 71.28076518 854
3.563768695 71.28076518 854
7.933579502 70.86343049 849
12.32425547 70.86343049 849
16.754307 71.03036436 851
21.18018551 71.1138313 852
25.61640719 71.19729824 853
30.30938984 71.86503374 861
34.92362134 72.1989015 865
39.53367982 72.44930231 868
44.4283543 73.11703782 876
49.12632972 73.36743863 879
53.67215324 73.36743863 879
58.41667293 73.61783944 882
64.47748767 75.37064515 903
70.60235854 76.95651697 922
76.02453473 77.62425248 930
81.35561949 78.1250541 936
86.38040334 78.29198798 938
90.84230413 77.95812023 934
95.26283224 77.62425248 930
99.96480188 77.54078554 929
103.7542178 76.78958309 920
107.9223367 76.3722484 915
110.5613059 74.95331045 898
114.0507699 74.20210801 889
122.9685801 74.03517414 887
127.2681646 73.86824026 885
132.1429725 74.03517414 887
137.3467648 74.36904189 891
142.1139679 74.45250883 892
147.2204986 74.70290964 895
152.3580587 74.95331045 898
157.0021424 74.95331045 898
161.646226 74.95331045 898
165.9199526 74.78637658 896
170.9343933 74.95331045 898
175.7739987 75.03677739 899
180.4232539 75.03677739 899
185.278374 75.12024433 900
190.3548737 75.28717821 902
194.5872276 75.12024433 900
198.356136 74.78637658 896
202.7633252 74.70290964 895
207.1601713 74.6194427 894
212.020463 74.70290964 895
431.4830364 75.03677739 899
436.6174221 75.12024433 900
440.7815468 75.03677739 899
445.9262757 75.12024433 900
450.0800573 75.03677739 899
454.7293125 75.03677739 899
458.8675794 74.95331045 898
463.511663 74.95331045 898
466.591752 74.70290964 895
470.6938177 74.6194427 894
475.317215 74.6194427 894
478.8669197 74.45250883 892
482.9379559 74.36904189 891
487.5458384 74.36904189 891
491.0489988 74.20210801 889
495.6465382 74.20210801 889
500.2440776 74.20210801 889
505.4094928 74.28557495 890
510.0122038 74.28557495 890
515.1931337 74.36904189 891
520.3844069 74.45250883 892
526.7631475 74.70290964 895
531.9854502 74.78637658 896
537.8170014 74.95331045 898
541.2529311 74.78637658 896
544.6681746 74.6194427 894
548.0627317 74.45250883 892
551.4366024 74.28557495 890
554.1650236 74.03517414 887
556.8624152 73.78477332 884
559.5287773 73.53437251 881
563.444666 73.45090557 880
568.6411107 73.53437251 881
572.5466562 73.45090557 880
576.4418585 73.36743863 879
581.6486464 73.45090557 880
586.1996415 73.45090557 880
590.7506366 73.45090557 880
594.6251526 73.36743863 879
597.8076747 73.20050475 877
602.3431551 73.20050475 877
606.8786354 73.20050475 877
611.4141158 73.20050475 877
1073.290606 126.6193452 1517
1083.273941 126.869746 1520
1091.134751 126.869746 1520
1098.995561 126.869746 1520
1106.85637 126.869746 1520
1114.71718 126.869746 1520
-80.16926731 104.1502651 1175
-74.21876968 104.3275422 1177
-68.2475857 104.5048192 1179
-62.15028657 104.5048192 1179
-56.14807309 104.6820963 1181
3.522038382 74.81091383 844
7.877511803 74.72227531 843
12.19360965 74.45635974 840
16.57711692 74.63363678 842
20.95645116 74.72227531 843
25.31609761 74.72227531 843
29.74614915 74.89955236 845
34.27763528 75.25410645 849
43.31257371 75.69729907 854
47.84088537 75.87457611 856
52.38988337 76.05185316 858
56.89333566 76.14049168 859
61.76414932 76.67232283 865
66.77359723 77.29279249 872
71.85544734 77.91326215 879
77.70504682 79.24284001 894
83.15725396 80.04058672 903
88.31350337 80.48377934 908
96.41384551 79.42011705 896
98.67928319 77.55870806 875
102.0249413 76.67232283 865
105.8827651 76.22913021 860
110.0737464 76.05185316 858
114.6444293 76.14049168 859
119.6413581 76.49504578 863
124.1044363 76.49504578 863
128.2695596 76.31776873 861
133.3388906 76.67232283 865
145.9108358 76.22913021 860
150.0087285 76.05185316 858
154.4459487 76.05185316 858
159.0683475 76.14049168 859
163.7010894 76.22913021 860
188.1009867 77.11551544 870
196.1933404 76.76096135 866
200.6719333 76.76096135 866
204.9136319 76.67232283 865
209.1449872 76.5836843 864
213.3659994 76.49504578 863
217.0718502 76.22913021 860
221.5194136 76.22913021 860
225.1787201 75.96321464 857
229.6107688 75.96321464 857
232.6773401 75.52002202 852
237.3617978 75.60866054 853
242.0565988 75.69729907 854
246.1845224 75.60866054 853
250.0083211 75.4313835 851
254.4093403 75.4313835 851
258.8103594 75.4313835 851
262.902082 75.34274497 850
273.491134 74.63363678 842
277.1856431 74.45635974 840
280.5243113 74.19044417 837
365.1707931 79.42011705 896
373.6024743 79.24284001 894
378.2258716 79.24284001 894
382.8492689 79.24284001 894
416.1419383 79.42011705 896
421.7149102 79.5973941 898
426.3589938 79.5973941 898
431.0030775 79.5973941 898
436.6174221 79.77467115 900
440.7815468 79.68603262 899
445.4308021 79.68603262 899
449.5794121 79.5973941 898
454.2234957 79.5973941 898
457.8456026 79.42011705 896
462.4793431 79.42011705 896
466.0704204 79.24284001 894
469.6408114 79.06556296 892
473.7221908 78.97692444 891
477.793227 78.88828591 890
482.395938 78.88828591 890
486.4514595 78.79964739 889
489.9442767 78.62237034 887
493.9739402 78.53373182 886
498.5559648 78.53373182 886
503.7058653 78.62237034 887
508.2930615 78.62237034 887
512.8802577 78.62237034 887
519.2176257 78.88828591 890
524.4088988 78.97692444 891
529.6105151 79.06556296 892
534.2235693 79.06556296 892
538.8366234 79.06556296 892
542.840429 78.97692444 891
546.2194714 78.79964739 889
1049.23403 133.4009779 1505
1081.1359 134.4646401 1517
1088.981195 134.4646401 1517
1098.995561 134.7305557 1520
1106.85637 134.7305557 1520
1114.71718 134.7305557 1520
-86.39268159 110.4144981 1177
-80.30572564 110.4144981 1177
-74.34488483 110.6021183 1179
-68.36335769 110.7897386 1181
-62.41385861 111.0711689 1184
-56.3857872 111.2587891 1186
7.840133336 78.70668132 839
12.12102864 78.33144089 835
20.75757618 78.33144089 835
642.9673704 137.5256196 1466
669.3536929 139.8708723 1491
677.0645267 139.8708723 1491
684.7753604 139.8708723 1491
692.4861942 139.8708723 1491
698.3185651 139.4956319 1487
706.0087125 139.4956319 1487
713.6988599 139.4956319 1487
719.933616 139.2142015 1484
725.6470404 138.8389611 1480
733.3009867 138.8389611 1480
739.4529974 138.5575308 1477
747.0914289 138.5575308 1477
752.6859069 138.1822903 1473
760.3036521 138.1822903 1473
770.0067236 138.5575308 1477
777.6451552 138.5575308 1477
786.878611 138.8389611 1480
796.6799426 139.2142015 1484
1081.1359 142.3099351 1517
1088.981195 142.3099351 1517
1098.995561 142.5913655 1520
1109.76915 142.9666059 1524
1114.71718 142.5913655 1520
-86.53948309 116.6994175 1179
-80.57864229 116.8973809 1181
-74.47099999 116.8973809 1181
-68.65278765 117.3922893 1186
-62.62471624 117.5902527 1188
-56.48087284 117.5902527 1188
-50.54888563 118.0851612 1193
7.793410253 82.55073296 834
12.01941522 81.9568428 828
16.3014879 81.9568428 828
20.55870119 81.8578611 827
24.80557132 81.75887941 826
29.04209828 81.65989772 825
33.34903032 81.75887941 826
191.2321064 78.19553842 790
195.3176588 78.19553842 790
199.1508021 78.09655672 789
203.2311829 78.09655672 789
206.2605546 77.70062995 785
210.3202491 77.70062995 785
214.9261345 77.89859334 787
219.2744393 77.99757503 788
223.6330872 78.09655672 789
229.1565191 78.5914652 794
233.5565397 78.69044689 795
237.9669035 78.78942858 796
243.9082353 79.38331875 802
249.6023296 79.87822722 807
254.4047353 80.07619061 809
257.9492683 79.87822722 807
262.1227377 79.87822722 807
266.62619 79.97720891 808
271.1399855 80.07619061 809
274.6431459 79.87822722 807
278.8166152 79.87822722 807
282.9900846 79.87822722 807
287.163554 79.87822722 807
290.2539861 79.58128214 804
526.5632418 127.8843489 1292
537.7849411 128.9731475 1303
624.9838755 142.731603 1442
642.9673704 145.1071637 1466
661.6428592 147.5817061 1491
669.3536929 147.5817061 1491
677.0645267 147.5817061 1491
684.7753604 147.5817061 1491
692.4861942 147.5817061 1491
700.197028 147.5817061 1491
707.9078617 147.5817061 1491
713.6988599 147.1857793 1487
719.933616 146.8888342 1484
727.6082486 146.8888342 1484
733.3009867 146.4929074 1480
739.4529974 146.1959623 1477
747.0914289 146.1959623 1477
752.6859069 145.8000356 1473
762.3682921 146.1959623 1477
770.0067236 146.1959623 1477
779.2246646 146.4929074 1480
786.878611 146.4929074 1480
796.6799426 146.8888342 1484
805.980629 147.1857793 1487
1088.981195 150.1552301 1517
1098.995561 150.4521752 1520
1109.76915 150.848102 1524
1117.650646 150.848102 1524
-86.90648684 123.317483 1184
-80.78332978 123.317483 1184
-74.66017272 123.317483 1184
-68.65278765 123.5257895 1186
-62.62471624 123.7340961 1188
-56.62350131 124.0465559 1191
-50.6336281 124.4631691 1195
11.94683422 85.71814907 823
16.08492224 85.09322939 817
20.31010747 85.09322939 817
24.41516887 84.67661628 813
28.54926267 84.46830972 811
32.74341839 84.46830972 811
36.8920284 84.36415644 810
41.08101253 84.36415644 810
45.21410778 84.26000316 809
49.33685986 84.15584988 808
53.64796494 84.36415644 810
58.33677456 85.09322939 817
62.56195979 85.09322939 817
66.86889184 85.19738267 818
130.935773 82.90601052 796
134.7130274 82.69770396 794
142.3854842 82.38524413 791
180.3347563 82.90601052 796
183.9878927 82.69770396 794
187.3834483 82.38524413 791
190.9900404 82.17693757 789
195.0704213 82.17693757 789
199.1508021 82.17693757 789
203.2311829 82.17693757 789
206.2605546 81.76032445 785
210.0523252 81.65617117 784
214.9261345 81.96863101 787
219.2744393 82.07278429 788
223.6330872 82.17693757 789
229.1565191 82.69770396 794
233.5565397 82.80185724 795
243.9082353 83.5309302 802
249.6023296 84.0516966 807
254.4047353 84.26000316 809
257.9492683 84.0516966 807
262.1227377 84.0516966 807
266.62619 84.15584988 808
270.804831 84.15584988 808
274.3028198 83.94754332 806
278.8166152 84.0516966 807
282.9900846 84.0516966 807
287.163554 84.0516966 807
290.2539861 83.73923676 804
526.5632418 134.5660372 1292
536.5467563 135.3992634 1300
552.881514 137.7947888 1323
572.8387362 141.0235405 1354
603.8226724 146.8561242 1410
623.6836316 149.8765693 1439
642.9673704 152.6887078 1466
663.4178903 155.7091529 1495
671.1494104 155.7091529 1495
678.8809305 155.7091529 1495
686.6124506 155.7091529 1495
692.4861942 155.2925398 1491
700.197028 155.2925398 1491
707.9078617 155.2925398 1491
713.6988599 154.8759267 1487
721.3890074 154.8759267 1487
727.6082486 154.5634669 1484
735.2828813 154.5634669 1484
740.954933 154.1468537 1480
747.0914289 153.8343939 1477
754.7298605 153.8343939 1477
1096.82649 158.0005251 1517
1109.76915 158.729598 1524
1120.584113 159.1462112 1528
-87.05328834 129.6592898 1186
-80.91978811 129.6592898 1186
-74.78628788 129.6592898 1186
-68.76855964 129.8779395 1188
-62.78285946 130.2059141 1191
-56.71858696 130.4245638 1193
-50.84548429 131.1898379 1200
20.21066998 88.88111517 813
24.35510695 88.66246544 811
28.4084525 88.22516598 807
32.54154775 88.11584111 806
36.61875411 87.89719138 804
40.67527414 87.67854165 802
44.76699671 87.56921679 801
185.251399 85.49204436 782
189.0535128 85.38271949 781
192.3508083 85.0547449 778
196.1218926 84.94542003 777
199.8826337 84.83609517 776
203.3702793 84.61744544 774
207.3730864 84.61744544 774
211.9220844 84.83609517 776
215.9352346 84.83609517 776
220.2318235 84.94542003 777
224.5387555 85.0547449 778
246.5093639 87.13191733 797
251.2600537 87.35056706 799
255.7117902 87.45989192 800
261.1483037 87.89719138 804
266.2962071 88.22516598 807
270.804831 88.33449084 808
273.6221676 87.89719138 804
277.7801222 87.89719138 804
281.9380769 87.89719138 804
286.8077132 88.11584111 806
471.9929565 138.9519033 1271
478.5660414 138.9519033 1271
485.1391264 138.9519033 1271
500.2455061 139.4985276 1276
508.0360895 139.8265022 1279
516.6624727 140.3731265 1284
525.7481284 141.0290757 1290
536.5467563 142.1223244 1300
551.6278144 144.3088217 1320
571.5695219 147.6978925 1351
603.8226724 154.1480595 1410
623.6836316 157.3184806 1439
641.6516118 159.9422774 1463
663.4178903 163.440673 1495
671.1494104 163.440673 1495
680.2432334 163.7686476 1498
686.6124506 163.440673 1495
692.4861942 163.0033736 1491
700.197028 163.0033736 1491
707.9078617 163.0033736 1491
715.6186955 163.0033736 1491
1096.82649 165.8458201 1517
1106.85637 166.1737947 1520
1117.650646 166.6110941 1524
-87.20008983 136.0217829 1188
-81.26093393 136.3652723 1191
-75.22769093 136.5942652 1193
-69.0579896 136.5942652 1193
-62.9937171 136.8232581 1195
-57.05138671 137.3957403 1200
-51.43868161 138.9986906 1214
28.4084525 92.39863536 807
32.54154775 92.28413891 806
36.61875411 92.05514601 804
40.67527414 91.82615311 802
181.9023876 89.87971345 785
185.0145046 89.42172765 781
191.8563332 88.8492454 776
195.3646652 88.6202525 774
199.3674722 88.6202525 774
202.8447747 88.3912596 772
206.8372386 88.3912596 772
211.3758934 88.6202525 774
215.3787005 88.6202525 774
219.6649462 88.73474895 775
224.5387555 89.0782383 778
286.0960315 92.05514601 804
289.8929737 91.94064956 803
471.9929565 145.5249883 1271
477.4364599 145.1814989 1268
483.9940301 145.1814989 1268
489.7778597 144.952506 1266
498.2852964 145.5249883 1271
508.0360895 146.4409599 1279
516.6624727 147.0134421 1284
525.7481284 147.7004208 1290
535.7212997 148.6163924 1298
551.6278144 151.1353143 1320
571.5695219 154.6847043 1351
603.8226724 161.4399949 1410
623.6836316 164.7603919 1439
641.6516118 167.5083067 1463
664.7491637 171.5156825 1498
672.4961985 171.5156825 1498
680.2432334 171.5156825 1498
686.6124506 171.1721931 1495
694.3439707 171.1721931 1495
702.0754908 171.1721931 1495
1112.68193 174.950576 1528
1120.584113 174.950576 1528
-87.71389508 143.0033026 1195
-81.53385058 143.0033026 1195
-75.66909398 143.6016427 1200
-69.28953358 143.2426386 1197
-63.36271795 143.8409788 1202
-57.241558 144.0803149 1204
184.5407159 93.22139974 779
191.3618581 92.62305956 774
194.1026195 92.02471938 769
198.5947301 92.26405545 771
202.5820224 92.26405545 771
206.5693147 92.26405545 771
211.102798 92.50339152 773
215.1004334 92.50339152 773
464.3213195 151.7390692 1268
470.1361785 151.4997331 1266
477.4364599 151.7390692 1268
483.9940301 151.7390692 1268
490.5516004 151.7390692 1268
497.1091706 151.7390692 1268
506.844449 152.6964134 1276
515.8577025 153.4144216 1282
524.5254584 154.0127618 1287
535.7212997 155.3291102 1298
551.6278144 157.961807 1320
570.3003075 161.312512 1348
623.6836316 172.2023032 1439
644.7217152 175.9120123 1470
666.5241948 179.7413895 1502
674.291916 179.7413895 1502
683.4219401 180.1003936 1505
689.8273584 179.7413895 1502
695.7373031 179.2627173 1498
1112.68193 182.8527584 1528
1120.584113 182.8527584 1528
-88.08089882 149.8075452 1200
-82.01145473 150.0572244 1202
-75.92132429 150.3069036 1204
-69.69473553 150.3069036 1204
-63.7317188 150.9311017 1209
-57.57435776 151.180781 1211
470.1361785 158.0469601 1266
476.6834056 158.0469601 1266
483.2306326 158.0469601 1266
488.6172486 157.6724413 1263
496.3250867 158.0469601 1266
506.0500219 159.0456771 1274
514.6505472 159.6698752 1279
523.3027883 160.2940733 1284
534.4831149 161.6673091 1295
550.3741148 164.4137808 1317
571.5695219 168.6583279 1351
623.6836316 179.6442146 1439
644.7217152 183.5142428 1470
666.5241948 187.5091107 1502
675.6387041 187.8836295 1505
683.4219401 187.8836295 1505
691.205176 187.8836295 1505
1115.59471 191.2542993 1532
1123.517579 191.2542993 1532
-88.37450182 156.5334924 1204
-82.35260055 156.923526 1207
-76.67801523 158.0936269 1216
-70.38936744 158.0936269 1216
-64.36429169 158.7436829 1221
-58.14487162 159.0037053 1223
193.8502104 99.84860645 768
197.821988 99.84860645 768
201.7937655 99.84860645 768
206.3013908 100.1086289 770
210.556607 100.2386401 771
483.2306326 164.5941872 1266
488.6172486 164.2041536 1263
496.3250867 164.5941872 1266
506.0500219 165.6342768 1274
514.6505472 166.2843329 1279
523.3027883 166.9343889 1284
533.2449301 167.9744786 1292
550.3741148 171.2247587 1317
571.5695219 175.6451397 1351
623.6836316 187.0861259 1439
646.0374738 191.5065069 1473
667.8554682 195.6668655 1505
675.6387041 195.6668655 1505
685.2383439 196.1869103 1509
691.205176 195.6668655 1505
1123.517579 199.1771681 1532
-94.83680758 163.1656295 1207
-88.88830706 163.7063607 1211
-82.83020469 164.1119091 1214
-76.86718797 164.787823 1219
-70.56302542 164.787823 1219
-64.62786373 165.7341026 1226
-58.38258573 166.0044682 1228
190.372908 104.0907496 770
194.3550287 104.0907496 770
198.3371494 104.0907496 770
202.5820224 104.2259324 771
206.5693147 104.2259324 771
211.102798 104.496298 773
487.8435079 170.4655003 1261
494.3648771 170.4655003 1261
506.0500219 172.2228766 1274
514.6505472 172.8987905 1279
523.3027883 173.5747045 1284
532.4194735 174.3858012 1290
550.3741148 178.0357366 1317
571.5695219 182.6319515 1351
624.9838755 194.9335856 1442
647.7918186 199.6649833 1477
669.6304993 203.9908326 1509
677.4344216 203.9908326 1509
685.2383439 203.9908326 1509
691.205176 203.4501015 1505
1125.717679 207.5055852 1535
-88.88830706 169.9691506 1211
-82.96666302 170.6709225 1216
-77.11941828 171.6534031 1223
-70.79456939 171.6534031 1223
-64.73329255 172.355175 1228
-58.62029985 173.0569469 1233
190.6201455 108.2132247 771
194.8598469 108.3535791 772
198.8523108 108.3535791 772
203.107527 108.4939334 773
207.3730864 108.6342878 774
211.9220844 108.9149966 776
523.3027883 180.2150201 1284
532.4194735 181.0571463 1290
551.6278144 185.2677777 1320
571.5695219 189.6187633 1351
628.0177778 203.3734923 1449
649.1075772 207.724478 1480
671.4055305 212.3561724 1513
677.4344216 211.7947549 1509
687.0547477 212.3561724 1513
1125.717679 215.4439687 1535
-89.25531081 176.9595702 1216
-83.17135051 177.3961481 1219
-77.30859101 178.4148299 1226
-70.79456939 177.978252 1223
-64.89143577 179.1424597 1231
-58.62029985 179.4335116 1233
191.1146206 112.4915689 773
195.1122561 112.4915689 773
199.1098915 112.4915689 773
203.6330316 112.7826208 775
207.9089341 112.9281468 776
531.1812887 187.2919136 1287
549.1204153 191.2211146 1314
570.3003075 196.1689973 1348
628.0177778 210.8671195 1449
650.861922 215.9605282 1484
673.1805616 220.7628849 1517
679.2301391 220.1807811 1513
688.8711516 220.7628849 1517
1125.717679 223.3823522 1535
-89.62231455 184.0017058 1221
-83.44426716 184.3031009 1223
-77.43470617 185.0565886 1228
-71.08399936 185.0565886 1228
-65.15500781 186.262169 1236
-58.85801396 186.5635641 1238
191.3618581 116.6399019 774
195.3646652 116.6399019 774
199.625053 116.7905995 775
203.8957839 116.941297 776
208.4447819 117.2426921 778
531.1812887 193.9477439 1287
547.8667157 197.5644851 1311
569.0310932 202.6882017 1345
628.0177778 218.3607466 1449
650.861922 223.6351608 1484
674.511835 229.0602725 1520
681.0258566 228.6081799 1517
1128.651145 231.9235259 1539
-89.62231455 190.3162115 1221
-83.44426716 190.6279497 1223
-77.43470617 191.4072954 1228
-71.08399936 191.4072954 1228
-65.15500781 192.6542485 1236
-58.85801396 192.9659867 1238
191.6090957 120.7985781 775
196.1218926 121.1103164 777
200.1402144 121.1103164 777
204.4212885 121.2661855 778
208.9806297 121.5779238 780
547.030916 204.0326952 1309
568.1849503 209.3322457 1343
626.717534 225.3867664 1446
650.861922 231.3097935 1484
676.2868661 237.5445588 1524
684.1683622 237.5445588 1524
1137.451544 241.7530254 1551
-89.47551305 196.3086358 1219
-83.30780884 196.6307172 1221
-77.43470617 197.7580022 1228
-71.08399936 197.7580022 1228
-64.99686458 198.5632058 1233
-58.76292831 199.046328 1236
196.6267108 125.4507197 779
200.6553758 125.4507197 779
204.9467931 125.6117604 780
652.1776806 239.4675483 1487
1142.58511 250.9014393 1558
-89.47551305 202.6127983 1219
-83.30780884 202.9452229 1221
-77.30859101 203.7762844 1226
-70.96822737 203.7762844 1226
-64.73329255 204.108709 1228
-58.5252142 204.6073459 1231
-52.45559129 205.7708321 1238
-46.16476758 206.269469 1241
1142.58511 258.9587693 1558
-89.76911605 209.6024964 1223
-83.64895465 210.1166481 1226
-77.30859101 210.1166481 1226
-70.96822737 210.1166481 1226
-64.73329255 210.4594158 1228
-58.5252142 210.9735675 1231
-52.45559129 212.1732547 1238
-46.16476758 212.6874064 1241
1145.518576 267.7016348 1562
-90.35632204 217.3397891 1231
-83.78541298 216.8101227 1228
-77.43470617 216.8101227 1228
-70.96822737 216.4570117 1226
-64.73329255 216.8101227 1228
-58.5252142 217.3397891 1231
-52.66744748 219.4584548 1243
-46.42516514 220.3412321 1248
-48.55651738 319.2122979 1808
-39.20629106 319.2122979 1808
-29.85606475 319.2122979 1808
1134.52778 275.0734292 1558
1142.58511 275.0734292 1558
-91.09032953 225.5232812 1241
-84.1265588 224.0694648 1233
-77.62387891 223.7060107 1231
-71.25765734 223.7060107 1231
-64.73329255 223.1608295 1228
-58.62029985 224.0694648 1233
-52.66744748 225.8867354 1243
-46.5367641 227.3405518 1251
-47.58968407 322.02035 1772
-38.31721035 321.1117147 1767
-29.34415213 322.9289853 1777
-20.44912981 327.6538889 1803
-11.22348365 330.5615218 1819
-1.838338085 334.5595171 1841
7.636647204 332.5605195 1830
17.0445807 331.4701571 1824
26.6372306 333.4691548 1835
36.24521645 334.5595171 1841
45.21919888 330.5615218 1819
54.47615784 329.6528865 1814
63.64619841 328.5625242 1808
231.2959441 199.1728576 1096
237.3964177 199.5363117 1098
243.5175776 199.8997658 1100
365.1698507 268.4108674 1477
373.5655097 268.9560485 1480
383.022521 270.228138 1487
814.3958712 275.6799498 1517
823.8672199 276.2251309 1520
833.9167876 276.9520392 1524
841.7982837 276.9520392 1524
1070.514537 281.1317616 1547
1078.51498 281.1317616 1547
1108.217749 282.585578 1555
1118.41312 283.1307592 1558
1124.301379 282.585578 1555
1132.343195 282.585578 1555
1137.451544 281.8586698 1551
-91.60413477 233.2495092 1248
-84.46770462 231.3805227 1238
-77.74999406 230.4460295 1233
-71.25765734 230.0722322 1231
-64.89143577 230.0722322 1231
-58.76292831 231.0067254 1236
-53.00641737 233.8102051 1251
-46.90876061 235.6791916 1261
-41.3162054 241.0992523 1290
-34.47898385 297.1688458 1590
35.71364619 339.0341424 1814
44.57285519 335.1092708 1793
53.84550773 335.1092708 1793
62.94214754 334.1747776 1788
71.74482674 332.1188925 1777
79.11290534 324.6429467 1737
225.2161568 204.4671178 1094
231.2959441 204.8409151 1096
237.3964177 205.2147124 1098
243.5175776 205.5885097 1100
249.6594239 205.962307 1102
355.8369574 274.7410084 1470
364.1809005 275.3017044 1473
372.8082823 276.0492989 1477
533.2449301 241.4730496 1292
543.2698172 242.9682387 1300
804.4238773 282.7776502 1513
814.3958712 283.5252447 1517
822.2411662 283.5252447 1517
831.7280297 284.0859407 1520
841.7982837 284.8335353 1524
1062.514095 289.1322041 1547
1070.514537 289.1322041 1547
1078.51498 289.1322041 1547
1086.515422 289.1322041 1547
1094.515865 289.1322041 1547
1102.516307 289.1322041 1547
1113.388157 289.8797987 1551
1121.409286 289.8797987 1551
1126.517635 289.1322041 1547
1131.584611 288.3846095 1543
-92.70514601 242.5847012 1263
-85.14999626 239.7036477 1248
-78.25445469 238.3591561 1241
-71.66285929 237.7829454 1238
-65.15500781 237.3988049 1236
-59.09572807 238.7432966 1243
-53.64198592 243.1609119 1266
-47.68995329 246.2340355 1282
-41.73257026 250.2675104 1303
-38.45848058 275.0445701 1432
-33.22125991 294.2515932 1532
-25.79379045 300.0137001 1562
-9.810521717 305.3916665 1590
-1.604676428 308.6568605 1607
52.16377408 333.6259904 1737
61.14681783 333.6259904 1737
69.76649443 331.8973584 1728
78.47526535 330.9370072 1723
226.0396163 210.8931131 1098
231.718017 210.8931131 1098
237.8288338 211.2772536 1100
243.5175776 211.2772536 1100
249.6594239 211.661394 1102
255.8219566 212.0455345 1104
270.0595842 218.9600628 1140
355.8369574 282.3432389 1470
363.4391879 282.3432389 1470
371.7986458 282.9194496 1473
534.4831149 248.7309485 1295
542.4340175 249.3071592 1298
668.40537 292.7150313 1524
804.4238773 290.6022588 1513
812.2484859 290.6022588 1513
822.2411662 291.3705397 1517
831.7280297 291.9467504 1520
841.7982837 292.7150313 1524
1043.807293 296.3643657 1543
1054.513652 297.1326466 1547
1059.766805 296.3643657 1543
1070.514537 297.1326466 1547
1075.726318 296.3643657 1543
1080.896726 295.5960848 1539
1086.025761 294.8278039 1535
1093.964145 294.8278039 1535
1101.902528 294.8278039 1535
1109.840912 294.8278039 1535
1115.59471 294.2515932 1532
1123.517579 294.2515932 1532
-93.07214976 250.1026225 1268
-85.35468375 246.7495117 1251
-78.38056985 245.1715771 1243
-71.83651727 244.7770935 1241
-65.41857985 244.7770935 1241
-59.47607065 246.7495117 1251
-54.06569829 251.6805571 1276
-48.06194981 254.8364261 1292
-42.18096319 259.7674715 1317
-31.35635889 285.2116658 1446
-24.80299184 296.2572075 1502
-9.11329596 291.3261621 1477
6.280412044 296.8489329 1505
226.451346 216.9659975 1100
232.1400899 216.9659975 1100
238.2612498 217.3604811 1102
244.4030961 217.7549647 1104
250.1125263 217.7549647 1104
256.2854021 218.1494484 1106
265.3216967 220.9108338 1120
345.9122532 281.8585549 1429
360.7195749 287.7758094 1459
473.6711881 248.1302044 1258
480.1770425 248.1302044 1258
486.6828969 248.1302044 1258
491.2285416 247.1439953 1253
524.5254584 253.850217 1287
533.2449301 254.8364261 1292
543.2698172 256.4143607 1300
569.0310932 265.2902424 1345
671.9140596 302.1744619 1532
812.2484859 298.4268674 1513
822.2411662 299.2158347 1517
1049.219126 305.9220564 1551
1054.513652 305.1330892 1547
1065.261384 305.9220564 1551
1070.514537 305.1330892 1547
1078.51498 305.1330892 1547
1080.896726 303.5551546 1539
1086.025761 302.7661874 1535
1091.826104 302.1744619 1532
1099.748973 302.1744619 1532
1107.671841 302.1744619 1532
1109.76915 300.5965274 1524
1117.650646 300.5965274 1524
-93.292352 257.267433 1271
-85.49114207 253.6239917 1253
-78.56974258 252.2070979 1246
-71.95228925 251.5998577 1243
-65.68215188 252.2070979 1246
-60.28429862 256.6601928 1268
-54.40466819 259.8988072 1284
-48.47114598 263.7446618 1303
-43.36600164 274.0677453 1354
-37.00823061 278.9256669 1378
-30.57570266 285.4028957 1410
-23.81219323 291.8801246 1442
-16.43415923 293.2970184 1449
21.84688395 304.6321689 1505
39.75013689 323.6590286 1599
48.89039965 329.5290172 1628
226.8630757 223.0595682 1102
232.5621628 223.0595682 1102
238.6936659 223.464395 1104
244.8458553 223.8692218 1106
251.0187311 224.2740486 1108
256.7488477 224.2740486 1108
265.7954855 227.1078362 1122
327.0311085 273.4605051 1351
466.4226226 254.231232 1256
472.9181338 254.231232 1256
480.1770425 254.6360588 1258
485.9091562 254.231232 1256
491.2285416 253.6239917 1253
501.6806732 255.6481258 1263
512.6386217 257.8746732 1274
524.5254584 260.5060474 1287
533.2449301 261.5181144 1292
547.8667157 265.363969 1311
575.3771649 275.2822257 1360
686.8259905 316.9793863 1566
716.6688247 326.897643 1615
719.6337825 324.4686822 1603
1053.95448 315.3600791 1558
1059.966858 314.7528389 1555
1065.261384 313.9431853 1551
1073.282513 313.9431853 1551
1081.303641 313.9431853 1551
1083.706074 312.3238781 1543
1088.855796 311.5142245 1539
1093.964145 310.7045709 1535
1101.902528 310.7045709 1535
1109.840912 310.7045709 1535
1112.68193 309.2876771 1528
1120.584113 309.2876771 1528
-93.292352 263.840518 1271
-85.69582956 260.7267432 1256
-78.69585774 259.0660633 1248
-72.12594723 258.6508933 1246
-65.94572392 259.6888182 1251
-60.6646412 264.8784429 1276
-54.8707518 268.8225576 1295
-48.88034214 272.7666724 1314
-43.55817004 282.3155818 1360
-37.27679542 288.1279614 1388
-30.64075734 293.317586 1413
-23.81219323 299.3375507 1442
-16.43415923 300.7906456 1449
-8.965212613 301.6209855 1453
-1.453894759 302.2437405 1456
6.117663825 304.3195903 1466
13.80199873 306.6030252 1477
21.58559232 308.6788751 1487
228.0982649 230.0041651 1108
233.8283814 230.0041651 1108
239.9909141 230.4193351 1110
246.174133 230.8345051 1112
253.2842431 232.080015 1118
260.4564123 233.3255249 1124
267.2168517 234.1558649 1128
339.6185383 291.2417362 1403
467.1653338 261.1419131 1258
472.9181338 260.7267432 1256
480.1770425 261.1419131 1258
484.7485452 260.1039882 1253
490.4444577 259.6888182 1251
501.6806732 262.1798381 1263
512.6386217 264.4632729 1274
524.5254584 267.1618777 1287
532.4194735 267.7846327 1290
550.3741148 273.3894273 1317
579.1848079 284.1838466 1369
685.6619217 328.3994488 1582
717.9656107 339.816623 1637
722.4376759 337.9483582 1628
725.020935 335.2497533 1615
1056.660396 324.2477491 1562
1062.01181 323.4174091 1558
1068.008673 322.7946541 1555
1076.050488 322.7946541 1555
1084.092303 322.7946541 1555
1089.32477 321.9643142 1551
1091.68583 320.3036343 1543
1096.814865 319.4732944 1539
1104.773935 319.4732944 1539
1112.733005 319.4732944 1539
1115.59471 318.0201995 1532
1123.517579 318.0201995 1532
-85.69582956 267.2222544 1256
-78.69585774 265.5202018 1248
-72.24171922 265.5202018 1248
-66.20929596 267.2222544 1256
-61.04498378 273.1794384 1284
-55.20972169 277.2218132 1303
-49.28953831 281.9024578 1325
-43.84642263 291.263747 1369
-37.43793431 296.5826613 1394
-30.77086671 301.9015756 1419
-23.81219323 306.7949767 1442
-16.40013406 307.646003 1446
-8.965212613 309.135299 1453
228.5099946 236.1597949 1110
234.6725272 236.585308 1112
240.8557462 237.0108211 1114
247.0596515 237.4363343 1116
254.190448 238.7128737 1122
264.6274225 242.9680052 1142
276.6926266 248.499676 1168
470.1361785 269.3498201 1266
474.8007697 268.2860372 1261
480.1770425 267.6477675 1258
485.9091562 267.2222544 1256
491.2285416 266.5839846 1253
501.6806732 268.7115504 1263
512.6386217 271.0518727 1274
524.5254584 273.8177081 1287
532.4194735 274.4559778 1290
553.7173137 281.9024578 1325
581.7232365 292.5402864 1375
693.0299701 340.1977585 1599
725.4215761 351.89937 1654
729.9815582 349.9845608 1645
729.0612993 345.5166728 1624
1051.26761 333.1767917 1566
1059.366313 333.1767917 1566
1064.738413 332.3257654 1562
1072.816429 332.3257654 1562
1078.12647 331.4747391 1558
1086.1838 331.4747391 1558
1089.32477 329.9854431 1551
1094.515865 329.1344168 1547
1099.665586 328.2833905 1543
1107.645343 328.2833905 1543
1112.733005 327.4323642 1539
1120.692075 327.4323642 1539
1128.651145 327.4323642 1539
-85.49114207 273.0639811 1253
-78.69585774 271.9743403 1248
-72.12594723 271.538484 1246
-66.05115274 273.0639811 1253
-61.04498378 279.819754 1284
-55.08260798 283.3066045 1300
-49.21513901 288.3189521 1323
-43.75033843 297.6898629 1366
-37.35736487 303.1380668 1391
-30.64075734 307.9324863 1413
-23.71311337 312.9448339 1436
-16.35476716 314.2524028 1442
229.7451837 243.2078235 1116
235.9387459 243.6436799 1118
241.7205783 243.6436799 1118
247.94517 244.0795362 1120
255.0966528 245.3871051 1126
264.1639769 248.4380993 1140
274.5605773 252.5787343 1159
489.5880159 291.3699463 1337
471.9929565 276.9866879 1271
475.553824 275.2432627 1263
481.3221388 274.8074063 1261
485.9091562 273.7177656 1256
491.2285416 273.0639811 1253
501.6806732 275.2432627 1263
512.6386217 277.6404724 1274
523.3027883 279.819754 1284
532.4194735 281.1273229 1290
556.2247129 290.0623774 1331
587.2231653 302.4842823 1388
673.959727 338.8782846 1555
735.0704726 365.2475916 1676
735.7504095 361.3248848 1658
736.6930987 357.6201061 1641
1064.778146 343.0189196 1574
1070.191618 342.1472069 1570
1075.563718 341.2754943 1566
1083.662421 341.2754943 1566
1091.761124 341.2754943 1566
1094.24113 339.5320691 1558
1100.175934 338.8782846 1555
1108.217749 338.8782846 1555
1116.259564 338.8782846 1555
1124.301379 338.8782846 1555
1132.343195 338.8782846 1555
1140.38501 338.8782846 1555
-92.70514601 281.774975 1263
-85.35468375 279.097778 1251
-78.38056985 277.3129801 1243
-71.95228925 277.3129801 1243
-65.7875807 278.4284788 1248
-59.8088704 280.6594762 1258
-54.8707518 288.9141667 1295
-48.88034214 293.1530618 1314
-43.55817004 303.41565 1360
-37.19622598 308.9931436 1385
-30.48896307 313.6782382 1406
-23.64706013 319.4788315 1432
-16.32074198 321.0405297 1439
-8.922021637 322.6022279 1446
225.1778541 250.3179112 1122
230.5686432 249.8717118 1120
236.7828917 250.3179112 1122
243.0178265 250.7641107 1124
248.8306884 250.7641107 1124
255.0966528 251.2103102 1126
263.2370857 253.4413076 1136
476.077868 286.0138701 1282
477.4364599 282.8904737 1268
483.2306326 282.4442742 1266
486.6828969 280.6594762 1258
492.4046674 280.2132768 1256
502.8723138 282.4442742 1266
512.6386217 284.2290721 1274
523.3027883 286.4600696 1284
532.4194735 287.798668 1290
561.2395112 299.6229544 1343
592.3000227 312.3396397 1400
685.6619217 352.9437929 1582
749.5438172 381.2774602 1709
748.1756275 376.1461661 1686
746.5695448 371.014872 1663
743.3632664 365.2142787 1637
726.5691618 352.9437929 1582
722.2106184 346.9200998 1555
1086.430396 350.266596 1570
1094.549785 350.266596 1570
1099.859826 349.374197 1566
1105.128494 348.481798 1562
1113.206511 348.481798 1562
1121.284527 348.481798 1562
1129.362543 348.481798 1562
1137.44056 348.481798 1562
1145.518576 348.481798 1562
-92.92534826 288.9915012 1266
-85.01353793 284.4260747 1246
-78.06528195 282.5999041 1238
-71.5470873 282.1433614 1236
-65.26043662 282.5999041 1238
-59.33344218 284.8826173 1248
-54.192812 291.9590285 1279
-48.28514772 296.2961837 1298
-42.18096319 300.633339 1317
-36.6053834 311.1338201 1363
-30.03358027 316.1557893 1385
-23.16817414 320.2646732 1403
-16.13927439 324.8300997 1423
227.1847869 258.4031433 1132
232.6272918 257.9466006 1130
238.4711832 257.9466006 1130
244.3150747 257.9466006 1130
250.6017254 258.4031433 1132
259.1745744 261.1423992 1144
265.7860364 261.8272132 1147
509.027513 321.8625725 1410
496.911696 309.7641921 1357
486.1044689 298.8071683 1309
479.695623 290.8176719 1274
485.1391264 290.1328579 1271
488.6172486 288.3066873 1263
493.1887513 287.1653306 1258
501.6806732 288.3066873 1263
512.6386217 290.8176719 1274
523.3027883 293.1003851 1284
532.4194735 294.4700131 1290
567.0901092 309.7641921 1357
597.7999514 322.5473865 1413
693.0299701 365.0058535 1599
757.876955 394.4528548 1728
756.1632676 388.9743429 1704
752.4056267 382.5827457 1676
746.996074 375.5063346 1645
728.406252 362.0383262 1586
722.2106184 354.961915 1555
1094.549785 358.385985 1570
1116.057231 357.4728996 1566
1124.155934 357.4728996 1566
1132.254637 357.4728996 1566
1140.353339 357.4728996 1566
1148.452042 357.4728996 1566
-101.515456 301.608244 1292
-92.92534826 295.5387283 1266
-84.80885044 290.1695413 1243
-77.9391668 288.5354409 1236
-71.25765734 287.3682263 1231
-64.89143577 287.3682263 1231
-58.85801396 289.0023267 1238
-53.7267284 296.0056141 1268
-47.87595155 300.4410295 1287
-41.82865446 304.8764448 1306
-36.28310563 315.3813759 1351
-29.81673131 320.9840059 1375
-22.97001442 324.7190925 1391
227.98756 265.1911496 1136
233.4507512 264.7242637 1134
239.315329 264.7242637 1134
245.1799068 264.7242637 1134
251.0444846 264.7242637 1134
259.854228 267.7590216 1147
489.0753137 307.4443169 1317
481.5782589 298.5734862 1279
486.2842227 297.4062716 1274
489.7778597 295.5387283 1266
493.1887513 293.671185 1258
502.8723138 295.5387283 1266
512.6386217 297.4062716 1274
523.3027883 299.7407007 1284
533.2449301 301.608244 1292
572.1049075 319.5833484 1369
603.2998802 332.8895944 1426
699.964604 377.0103051 1615
764.0171618 406.6575551 1742
760.1570877 399.8877106 1713
756.8949204 393.5847519 1686
751.0829827 386.1145787 1654
723.6039508 363.704059 1558
1124.155934 365.5716023 1566
1135.14673 366.505374 1570
1143.266119 366.505374 1570
1151.385508 366.505374 1570
-160.6763069 349.8088551 1466
-151.7371694 346.7068666 1453
-139.2599221 334.7761417 1403
-129.9342719 329.5266227 1381
-110.9606936 316.1642108 1325
-101.751173 309.0057758 1295
-93.07214976 302.5631844 1268
-84.67239211 296.1205929 1241
-77.62387891 293.7344479 1231
-70.96822737 292.5413754 1226
-64.62786373 292.5413754 1226
-58.5252142 293.7344479 1231
-53.43012974 300.8928829 1261
-47.46675538 304.4721003 1276
-41.47634573 309.0057758 1295
-35.98768434 319.7434283 1340
-29.55651257 325.2315617 1363
-22.80488131 329.5266227 1381
228.3889465 271.5432995 1138
234.2742107 271.5432995 1138
239.7374019 271.0660705 1136
245.6123229 271.0660705 1136
251.930003 271.5432995 1138
260.7604328 274.645288 1151
511.1935875 337.8781302 1416
485.1938078 316.1642108 1325
479.7914239 308.2899323 1292
480.4486773 304.4721003 1276
485.1391264 303.2790278 1271
489.7778597 302.0859554 1266
493.1887513 300.1770394 1258
501.6806732 301.3701119 1263
511.4314664 303.2790278 1271
521.2650048 305.1879438 1279
534.4831149 309.0057758 1295
574.6123067 328.0949357 1375
605.8383089 341.6959621 1432
703.8653355 387.5099459 1624
768.4030238 418.0526017 1752
762.3758766 409.9397088 1718
758.6906379 403.2585028 1690
752.8993865 395.6228388 1658
723.6039508 371.761389 1558
1146.178899 375.579221 1574
1154.318975 375.579221 1574
-160.3475014 356.659041 1463
-151.0061576 352.5146775 1446
-138.9621461 341.3005177 1400
-129.6520106 335.9372238 1378
-120.3915939 330.0863578 1354
-111.2119254 323.7479196 1328
-101.98689 316.4343371 1298
-93.292352 309.8521128 1271
-84.67239211 302.5385303 1241
-77.43470617 299.3693112 1228
-70.79456939 298.1503808 1223
