# .PCD v0.7 - Point Cloud Data file format
VERSION 0.7
FIELDS x y z rgb
SIZE 4 4 4 4
TYPE F F F F
COUNT 1 1 1 1
WIDTH 1044
HEIGHT 1
VIEWPOINT 0 0 0 1 0 0 0
POINTS 1044
DATA ascii
-595.7570269 633.3673717 1223 1.647550185e-38
-589.432178 633.3673717 1223 1.647550185e-38
-583.1073291 633.3673717 1223 1.647550185e-38
-576.7824802 633.3673717 1223 1.647550185e-38
-570.4576313 633.3673717 1223 1.647550185e-38
-564.1327824 633.3673717 1223 1.647550185e-38
-557.8079336 633.3673717 1223 1.647550185e-38
-552.8358641 634.921012 1226 1.647550185e-38
-547.3870103 635.9567723 1228 1.647550185e-38
-542.3580534 637.5104126 1231 1.647550185e-38
-536.8626553 638.5461728 1233 1.647550185e-38
-532.6372912 641.1355733 1238 1.647550185e-38
-527.5100742 642.6892137 1241 1.647550185e-38
-521.9319307 643.7249739 1243 1.647550185e-38
-516.7478263 645.2786142 1246 1.647550185e-38
-512.3517999 647.8680147 1251 1.647550185e-38
-506.6909111 648.9037749 1253 1.647550185e-38
-500.2109146 648.9037749 1253 1.647550185e-38
-495.7011134 651.4931755 1258 1.647550185e-38
-490.3618614 653.0468158 1261 1.647550185e-38
-484.607884 654.082576 1263 1.647550185e-38
-479.2117445 655.6362163 1266 1.647550185e-38
-473.4112229 656.6719766 1268 1.647550185e-38
-467.958196 658.2256169 1271 1.647550185e-38
-462.4741396 659.7792572 1274 1.647550185e-38
-456.6012157 660.8150174 1276 1.647550185e-38
-452.118271 663.9222981 1282 1.647550185e-38
-446.1832881 664.9580583 1284 1.647550185e-38
-440.5699421 666.5116986 1287 1.647550185e-38
-435.5998697 669.1010991 1292 1.647550185e-38
-430.9100616 672.2083798 1298 1.647550185e-38
-425.8313859 674.7977803 1303 1.647550185e-38
-420.0577208 676.3514207 1306 1.647550185e-38
-415.8353524 680.4944615 1314 1.647550185e-38
-409.9737702 682.0481018 1317 1.647550185e-38
-404.0811586 683.6017422 1320 1.647550185e-38
-398.1575174 685.1553825 1323 1.647550185e-38
-391.9070679 686.1911427 1325 1.647550185e-38
-385.0547173 686.1911427 1325 1.647550185e-38
-378.2023667 686.1911427 1325 1.647550185e-38
-371.3500161 686.1911427 1325 1.647550185e-38
-363.9474803 685.1553825 1323 1.647550185e-38
-357.6453149 686.1911427 1325 1.647550185e-38
-350.7929643 686.1911427 1325 1.647550185e-38
-344.7193472 687.744783 1328 1.647550185e-38
-337.8514818 687.744783 1328 1.647550185e-38
-332.4790244 690.8520637 1334 1.647550185e-38
-326.3123187 692.405704 1337 1.647550185e-38
-321.309041 696.5487449 1345 1.647550185e-38
-315.755578 699.6560255 1351 1.647550185e-38
-310.1400561 702.7633061 1357 1.647550185e-38
-306.4728656 710.5315078 1372 1.647550185e-38
-301.3412968 715.1924287 1381 1.647550185e-38
-296.3296729 720.3712298 1391 1.647550185e-38
-291.6303413 726.5857911 1403 1.647550185e-38
-289.0364859 738.4970336 1426 1.647550185e-38
-284.8221059 746.7831153 1442 1.647550185e-38
-278.7111103 750.4082761 1449 1.647550185e-38
-271.9661857 752.4797965 1453 1.647550185e-38
-263.1778439 748.8546357 1446 1.647550185e-38
-237.0636624 715.1924287 1381 1.647550185e-38
-226.9248959 705.8705868 1363 1.647550185e-38
-216.165718 693.9593443 1340 1.647550185e-38
-208.7673553 692.405704 1337 1.647550185e-38
-200.9470985 689.2984233 1331 1.647550185e-38
-193.6263096 687.744783 1328 1.647550185e-38
-187.1803383 689.2984233 1331 1.647550185e-38
-180.7033375 690.8520637 1334 1.647550185e-38
-735.7140319 663.2295468 1268 1.647550185e-38
-728.0063726 662.1834434 1266 1.647550185e-38
-718.6097809 659.5681849 1261 1.647550185e-38
-710.3943077 657.9990299 1258 1.647550185e-38
-703.8884533 657.9990299 1258 1.647550185e-38
-694.610808 655.3837714 1253 1.647550185e-38
-687.0324383 654.337668 1251 1.647550185e-38
-678.93074 652.7685129 1248 1.647550185e-38
-671.3989146 651.7224095 1246 1.647550185e-38
-662.2867601 649.1071511 1241 1.647550185e-38
-654.2833219 647.537996 1238 1.647550185e-38
-646.8342418 646.4918926 1236 1.647550185e-38
-638.8876911 644.9227375 1233 1.647550185e-38
-631.4851553 643.8766341 1231 1.647550185e-38
-623.595492 642.3074791 1228 1.647550185e-38
-616.2395005 641.2613757 1226 1.647550185e-38
-609.8991369 641.2613757 1226 1.647550185e-38
-602.0818758 639.6922206 1223 1.647550185e-38
-595.7570269 639.6922206 1223 1.647550185e-38
-588.468266 638.6461172 1221 1.647550185e-38
-582.1537603 638.6461172 1221 1.647550185e-38
-575.8392546 638.6461172 1221 1.647550185e-38
-569.5247489 638.6461172 1221 1.647550185e-38
-564.1327824 639.6922206 1223 1.647550185e-38
-557.8079336 639.6922206 1223 1.647550185e-38
-551.4830847 639.6922206 1223 1.647550185e-38
-547.3870103 642.3074791 1228 1.647550185e-38
-542.3580534 643.8766341 1231 1.647550185e-38
-536.8626553 644.9227375 1233 1.647550185e-38
-532.6372912 647.537996 1238 1.647550185e-38
-527.5100742 649.1071511 1241 1.647550185e-38
-521.9319307 650.1532545 1243 1.647550185e-38
-516.7478263 651.7224095 1246 1.647550185e-38
-512.3517999 654.337668 1251 1.647550185e-38
-506.6909111 655.3837714 1253 1.647550185e-38
-500.2109146 655.3837714 1253 1.647550185e-38
-495.7011134 657.9990299 1258 1.647550185e-38
-490.3618614 659.5681849 1261 1.647550185e-38
-484.607884 660.6142883 1263 1.647550185e-38
-479.2117445 662.1834434 1266 1.647550185e-38
-473.4112229 663.2295468 1268 1.647550185e-38
-467.958196 664.7987019 1271 1.647550185e-38
-462.4741396 666.3678569 1274 1.647550185e-38
-456.6012157 667.4139603 1276 1.647550185e-38
-451.0602719 668.9831154 1279 1.647550185e-38
-445.4882986 670.5522705 1282 1.647550185e-38
-439.5429725 671.5983739 1284 1.647550185e-38
-435.5998697 675.7827874 1292 1.647550185e-38
-429.9141215 677.3519425 1295 1.647550185e-38
-424.8509606 679.967201 1300 1.647550185e-38
-420.0577208 683.1055111 1306 1.647550185e-38
-414.8859566 685.7207696 1311 1.647550185e-38
-409.9737702 688.8590797 1317 1.647550185e-38
-404.0811586 690.4282348 1320 1.647550185e-38
-397.2546659 690.4282348 1320 1.647550185e-38
-391.31551 691.9973899 1323 1.647550185e-38
-384.4735026 691.9973899 1323 1.647550185e-38
-377.6314952 691.9973899 1323 1.647550185e-38
-370.7894878 691.9973899 1323 1.647550185e-38
-363.9474803 691.9973899 1323 1.647550185e-38
-357.1054729 691.9973899 1323 1.647550185e-38
-350.2634655 691.9973899 1323 1.647550185e-38
-343.9406137 693.0434933 1325 1.647550185e-38
-337.0882631 693.0434933 1325 1.647550185e-38
-330.9836165 694.6126484 1328 1.647550185e-38
-324.8479404 696.1818034 1331 1.647550185e-38
-320.1145836 700.8892687 1340 1.647550185e-38
-313.8858189 702.4584238 1343 1.647550185e-38
-308.0831213 705.0736822 1348 1.647550185e-38
-304.4624751 712.9194576 1363 1.647550185e-38
-299.3774505 717.6269229 1372 1.647550185e-38
-294.1993374 722.3343881 1381 1.647550185e-38
-289.7595836 729.1340601 1394 1.647550185e-38
-287.0095821 740.6411974 1416 1.647550185e-38
-283.6369932 751.1022312 1436 1.647550185e-38
-277.3646799 754.2405414 1442 1.647550185e-38
-271.2174832 757.9019032 1449 1.647550185e-38
-261.9038156 752.6713863 1439 1.647550185e-38
-250.9252551 742.2103524 1419 1.647550185e-38
-239.8102364 730.7032152 1397 1.647550185e-38
-225.4264924 708.2119924 1354 1.647550185e-38
-214.7138587 696.1818034 1331 1.647550185e-38
-207.3620403 694.6126484 1328 1.647550185e-38
-199.7393023 691.9973899 1323 1.647550185e-38
-192.459886 690.4282348 1320 1.647550185e-38
-186.3365501 693.0434933 1325 1.647550185e-38
-179.8905789 694.6126484 1328 1.647550185e-38
-734.5535997 668.7306705 1266 1.647550185e-38
-728.0063726 668.7306705 1266 1.647550185e-38
-718.6097809 666.0895541 1261 1.647550185e-38
-710.3943077 664.5048842 1258 1.647550185e-38
-702.7693937 663.4484377 1256 1.647550185e-38
-694.610808 661.8637678 1253 1.647550185e-38
-687.0324383 660.8073213 1251 1.647550185e-38
-678.93074 659.2226514 1248 1.647550185e-38
-671.3989146 658.1662049 1246 1.647550185e-38
-662.2867601 655.5250885 1241 1.647550185e-38
-654.2833219 653.9404187 1238 1.647550185e-38
-646.8342418 652.8839721 1236 1.647550185e-38
-638.8876911 651.2993023 1233 1.647550185e-38
-631.4851553 650.2428557 1231 1.647550185e-38
-623.595492 648.6581859 1228 1.647550185e-38
-616.2395005 647.6017393 1226 1.647550185e-38
-609.8991369 647.6017393 1226 1.647550185e-38
-602.0818758 646.0170695 1223 1.647550185e-38
-595.7570269 646.0170695 1223 1.647550185e-38
-588.468266 644.9606229 1221 1.647550185e-38
-582.1537603 644.9606229 1221 1.647550185e-38
-575.8392546 644.9606229 1221 1.647550185e-38
-569.5247489 644.9606229 1221 1.647550185e-38
-562.2877038 643.9041764 1219 1.647550185e-38
-556.8957374 644.9606229 1221 1.647550185e-38
-550.5812317 644.9606229 1221 1.647550185e-38
-546.4955005 647.6017393 1226 1.647550185e-38
-541.0363034 648.6581859 1228 1.647550185e-38
-535.9918318 650.2428557 1231 1.647550185e-38
-532.6372912 653.9404187 1238 1.647550185e-38
-527.5100742 655.5250885 1241 1.647550185e-38
-521.9319307 656.5815351 1243 1.647550185e-38
-516.7478263 658.1662049 1246 1.647550185e-38
-512.3517999 660.8073213 1251 1.647550185e-38
-505.8821466 660.8073213 1251 1.647550185e-38
-500.2109146 661.8637678 1253 1.647550185e-38
-494.9130353 663.4484377 1256 1.647550185e-38
-490.3618614 666.0895541 1261 1.647550185e-38
-483.8404922 666.0895541 1261 1.647550185e-38
-478.0761717 667.1460006 1263 1.647550185e-38
-472.6645175 668.7306705 1266 1.647550185e-38
-466.8536526 669.787117 1268 1.647550185e-38
-461.385111 671.3717868 1271 1.647550185e-38
-454.812026 671.3717868 1271 1.647550185e-38
-450.0022728 674.0129032 1276 1.647550185e-38
-444.4458142 675.5975731 1279 1.647550185e-38
-438.8583261 677.1822429 1282 1.647550185e-38
-434.9255665 681.4080291 1290 1.647550185e-38
-428.9181815 682.4644757 1292 1.647550185e-38
-423.2169185 684.0491455 1295 1.647550185e-38
-418.1278997 686.6902619 1300 1.647550185e-38
-414.2530261 691.4442714 1309 1.647550185e-38
-408.1060082 692.500718 1311 1.647550185e-38
-402.2444261 694.0853878 1314 1.647550185e-38
-396.3518144 695.6700577 1317 1.647550185e-38
-390.4281733 697.2547275 1320 1.647550185e-38
-383.6016806 697.2547275 1320 1.647550185e-38
-375.9188807 695.6700577 1317 1.647550185e-38
-369.1079028 695.6700577 1317 1.647550185e-38
-362.2969249 695.6700577 1317 1.647550185e-38
-355.485947 695.6700577 1317 1.647550185e-38
-348.6749691 695.6700577 1317 1.647550185e-38
-341.8639912 695.6700577 1317 1.647550185e-38
-335.0530132 695.6700577 1317 1.647550185e-38
-328.9897393 697.2547275 1320 1.647550185e-38
-322.8954358 698.8393973 1323 1.647550185e-38
-317.2478858 701.4805137 1328 1.647550185e-38
-311.0811801 703.0651836 1331 1.647550185e-38
-304.883445 704.6498534 1334 1.647550185e-38
-299.3248105 707.8191931 1340 1.647550185e-38
-295.449758 715.214319 1354 1.647550185e-38
-291.0038341 721.5529983 1366 1.647550185e-38
-285.8102062 726.3070078 1375 1.647550185e-38
-284.3746071 741.0972596 1403 1.647550185e-38
-280.2791736 749.548832 1419 1.647550185e-38
-274.8641661 754.8310648 1429 1.647550185e-38
-268.7842 758.5286278 1436 1.647550185e-38
-258.9917509 751.6617252 1423 1.647550185e-38
-248.0959358 741.0972596 1403 1.647550185e-38
-236.5486798 727.8916776 1378 1.647550185e-38
-222.5961745 706.2345232 1337 1.647550185e-38
-212.939364 697.2547275 1320 1.647550185e-38
-205.1759946 694.0853878 1314 1.647550185e-38
-197.9276079 692.500718 1311 1.647550185e-38
-191.1476595 692.500718 1311 1.647550185e-38
-185.2114993 695.6700577 1317 1.647550185e-38
-178.8069007 697.2547275 1320 1.647550185e-38
-735.7140319 676.3446872 1268 1.647550185e-38
-728.0063726 675.2778975 1266 1.647550185e-38
-718.6097809 672.6109232 1261 1.647550185e-38
-710.3943077 671.0107386 1258 1.647550185e-38
-702.7693937 669.9439489 1256 1.647550185e-38
-694.610808 668.3437643 1253 1.647550185e-38
-687.0324383 667.2769746 1251 1.647550185e-38
-678.93074 665.67679 1248 1.647550185e-38
-671.3989146 664.6100002 1246 1.647550185e-38
-662.2867601 661.9430259 1241 1.647550185e-38
-654.2833219 660.3428413 1238 1.647550185e-38
-646.8342418 659.2760516 1236 1.647550185e-38
-638.8876911 657.675867 1233 1.647550185e-38
-631.4851553 656.6090773 1231 1.647550185e-38
-623.595492 655.0088927 1228 1.647550185e-38
-616.2395005 653.942103 1226 1.647550185e-38
-609.8991369 653.942103 1226 1.647550185e-38
-603.5587732 653.942103 1226 1.647550185e-38
-595.7570269 652.3419184 1223 1.647550185e-38
-589.432178 652.3419184 1223 1.647550185e-38
-582.1537603 651.2751286 1221 1.647550185e-38
-575.8392546 651.2751286 1221 1.647550185e-38
-568.5918664 650.2083389 1219 1.647550185e-38
-562.2877038 650.2083389 1219 1.647550185e-38
-555.9835413 650.2083389 1219 1.647550185e-38
-550.5812317 651.2751286 1221 1.647550185e-38
-546.4955005 653.942103 1226 1.647550185e-38
-541.0363034 655.0088927 1228 1.647550185e-38
-535.9918318 656.6090773 1231 1.647550185e-38
-532.6372912 660.3428413 1238 1.647550185e-38
-527.5100742 661.9430259 1241 1.647550185e-38
-521.9319307 663.0098156 1243 1.647550185e-38
-516.7478263 664.6100002 1246 1.647550185e-38
-512.3517999 667.2769746 1251 1.647550185e-38
-505.8821466 667.2769746 1251 1.647550185e-38
-500.2109146 668.3437643 1253 1.647550185e-38
-494.9130353 669.9439489 1256 1.647550185e-38
-489.195259 671.0107386 1258 1.647550185e-38
-483.8404922 672.6109232 1261 1.647550185e-38
-477.3191231 672.6109232 1261 1.647550185e-38
-472.6645175 675.2778975 1266 1.647550185e-38
-466.8536526 676.3446872 1268 1.647550185e-38
-460.2960824 676.3446872 1268 1.647550185e-38
-454.812026 677.9448718 1271 1.647550185e-38
-449.2969401 679.5450564 1274 1.647550185e-38
-443.4033299 680.6118461 1276 1.647550185e-38
-438.8583261 683.8122153 1282 1.647550185e-38
-433.9141117 686.4791896 1287 1.647550185e-38
-428.9181815 689.146164 1292 1.647550185e-38
-423.2169185 690.7463486 1295 1.647550185e-38
-417.484626 692.3465331 1298 1.647550185e-38
-413.3036303 696.6136921 1306 1.647550185e-38
-407.4834208 698.2138767 1309 1.647550185e-38
-401.3260598 699.2806664 1311 1.647550185e-38
-395.4489629 700.880851 1314 1.647550185e-38
-388.6534998 700.880851 1314 1.647550185e-38
-382.7298586 702.4810356 1317 1.647550185e-38
-375.0625735 700.880851 1314 1.647550185e-38
-368.2671103 700.880851 1314 1.647550185e-38
-361.4716471 700.880851 1314 1.647550185e-38
-354.676184 700.880851 1314 1.647550185e-38
-347.8807208 700.880851 1314 1.647550185e-38
-341.0852577 700.880851 1314 1.647550185e-38
-335.0530132 702.4810356 1317 1.647550185e-38
-328.2420353 702.4810356 1317 1.647550185e-38
-321.4310574 702.4810356 1317 1.647550185e-38
-316.5312114 706.7481945 1325 1.647550185e-38
-309.6788608 706.7481945 1325 1.647550185e-38
-303.5121551 708.3483791 1328 1.647550185e-38
-297.9845501 711.5487482 1334 1.647550185e-38
-294.1405272 719.0162763 1348 1.647550185e-38
-289.7256328 725.4170147 1360 1.647550185e-38
-284.5630344 730.2175685 1369 1.647550185e-38
-283.1584648 745.1526247 1397 1.647550185e-38
-279.0940608 753.6869425 1413 1.647550185e-38
-273.7100828 759.0208911 1423 1.647550185e-38
-266.9124438 760.6210757 1426 1.647550185e-38
-258.2637348 756.8873117 1419 1.647550185e-38
-247.5654385 746.7528093 1400 1.647550185e-38
-236.5486798 735.0181222 1378 1.647550185e-38
-222.0967067 711.5487482 1334 1.647550185e-38
-211.9714578 700.880851 1314 1.647550185e-38
-204.7075563 699.2806664 1311 1.647550185e-38
-197.6256588 698.2138767 1309 1.647550185e-38
-190.8560536 698.2138767 1309 1.647550185e-38
-184.7896052 700.880851 1314 1.647550185e-38
-178.4005214 702.4810356 1317 1.647550185e-38
-735.7140319 682.9022575 1268 1.647550185e-38
-728.0063726 681.8251246 1266 1.647550185e-38
-719.7495267 680.2094252 1263 1.647550185e-38
-712.0884117 679.1322923 1261 1.647550185e-38
-703.8884533 677.516593 1258 1.647550185e-38
-696.2738825 676.4394601 1256 1.647550185e-38
-687.0324383 673.7466278 1251 1.647550185e-38
-678.93074 672.1309285 1248 1.647550185e-38
-671.3989146 671.0537956 1246 1.647550185e-38
-662.2867601 668.3609633 1241 1.647550185e-38
-654.2833219 666.745264 1238 1.647550185e-38
-646.8342418 665.6681311 1236 1.647550185e-38
-638.8876911 664.0524317 1233 1.647550185e-38
-631.4851553 662.9752988 1231 1.647550185e-38
-623.595492 661.3595995 1228 1.647550185e-38
-617.2447852 661.3595995 1228 1.647550185e-38
-610.8940784 661.3595995 1228 1.647550185e-38
-603.5587732 660.2824666 1226 1.647550185e-38
-597.2184096 660.2824666 1226 1.647550185e-38
-589.432178 658.6667673 1223 1.647550185e-38
-583.1073291 658.6667673 1223 1.647550185e-38
-575.8392546 657.5896344 1221 1.647550185e-38
-569.5247489 657.5896344 1221 1.647550185e-38
-562.2877038 656.5125015 1219 1.647550185e-38
-556.8957374 657.5896344 1221 1.647550185e-38
-550.5812317 657.5896344 1221 1.647550185e-38
-546.4955005 660.2824666 1226 1.647550185e-38
-541.0363034 661.3595995 1228 1.647550185e-38
-535.9918318 662.9752988 1231 1.647550185e-38
-532.6372912 666.745264 1238 1.647550185e-38
-527.5100742 668.3609633 1241 1.647550185e-38
-521.9319307 669.4380962 1243 1.647550185e-38
-516.7478263 671.0537956 1246 1.647550185e-38
-511.1231385 672.1309285 1248 1.647550185e-38
-505.8821466 673.7466278 1251 1.647550185e-38
-500.2109146 674.8237607 1253 1.647550185e-38
-494.9130353 676.4394601 1256 1.647550185e-38
-489.195259 677.516593 1258 1.647550185e-38
-482.6894046 677.516593 1258 1.647550185e-38
-477.3191231 679.1322923 1261 1.647550185e-38
-471.5444594 680.2094252 1263 1.647550185e-38
-466.1172904 681.8251246 1266 1.647550185e-38
-459.5700634 681.8251246 1266 1.647550185e-38
-453.7385122 682.9022575 1268 1.647550185e-38
-448.238941 684.5179568 1271 1.647550185e-38
-442.7083404 686.1336562 1274 1.647550185e-38
-437.8313566 688.8264884 1279 1.647550185e-38
-432.2283537 690.4421878 1282 1.647550185e-38
-427.2582814 693.13502 1287 1.647550185e-38
-422.2364932 695.8278522 1292 1.647550185e-38
-416.5197154 697.4435516 1295 1.647550185e-38
-412.3542345 701.7520832 1303 1.647550185e-38
-406.5495398 703.3677825 1306 1.647550185e-38
-400.7138156 704.9834819 1309 1.647550185e-38
-394.5461114 706.0606148 1311 1.647550185e-38
-388.6534998 707.6763141 1314 1.647550185e-38
-381.8580366 707.6763141 1314 1.647550185e-38
-375.0625735 707.6763141 1314 1.647550185e-38
-367.4263178 706.0606148 1311 1.647550185e-38
-360.6463694 706.0606148 1311 1.647550185e-38
-354.676184 707.6763141 1314 1.647550185e-38
-347.0864726 706.0606148 1311 1.647550185e-38
-340.3065242 706.0606148 1311 1.647550185e-38
-334.2897945 707.6763141 1314 1.647550185e-38
-327.4943314 707.6763141 1314 1.647550185e-38
-321.4310574 709.2920135 1317 1.647550185e-38
-315.336754 710.9077128 1320 1.647550185e-38
-309.211421 712.5234122 1323 1.647550185e-38
-302.8265102 713.6005451 1325 1.647550185e-38
-296.6442898 715.2162444 1328 1.647550185e-38
-293.0495015 723.2947411 1343 1.647550185e-38
-288.4474315 729.2189721 1354 1.647550185e-38
-283.3158626 734.0660701 1363 1.647550185e-38
-281.9423225 749.1459307 1391 1.647550185e-38
-277.7114292 757.2244274 1406 1.647550185e-38
-271.7866107 760.9943926 1413 1.647550185e-38
-265.6022144 764.2257913 1419 1.647550185e-38
-257.7177226 762.6100919 1416 1.647550185e-38
-236.0336972 740.5288675 1375 1.647550185e-38
-221.5972388 716.8319438 1331 1.647550185e-38
-211.9714578 707.6763141 1314 1.647550185e-38
-204.3952641 704.9834819 1309 1.647550185e-38
-197.1727353 703.3677825 1306 1.647550185e-38
-190.4186448 703.3677825 1306 1.647550185e-38
-184.3677111 706.0606148 1311 1.647550185e-38
-177.994142 707.6763141 1314 1.647550185e-38
-737.4546803 691.0910418 1271 1.647550185e-38
-729.1564617 689.4598277 1268 1.647550185e-38
-719.7495267 686.7411375 1263 1.647550185e-38
-712.0884117 685.6536614 1261 1.647550185e-38
-703.8884533 684.0224473 1258 1.647550185e-38
-696.2738825 682.9349713 1256 1.647550185e-38
-687.0324383 680.2162811 1251 1.647550185e-38
-678.93074 678.585067 1248 1.647550185e-38
-671.3989146 677.4975909 1246 1.647550185e-38
-662.2867601 674.7789008 1241 1.647550185e-38
-654.2833219 673.1476867 1238 1.647550185e-38
-646.8342418 672.0602106 1236 1.647550185e-38
-640.4421623 672.0602106 1236 1.647550185e-38
-632.5111263 670.4289965 1233 1.647550185e-38
-625.1189338 669.3415204 1231 1.647550185e-38
-617.2447852 667.7103063 1228 1.647550185e-38
-610.8940784 667.7103063 1228 1.647550185e-38
-603.5587732 666.6228302 1226 1.647550185e-38
-597.2184096 666.6228302 1226 1.647550185e-38
-590.878046 666.6228302 1226 1.647550185e-38
-584.5376823 666.6228302 1226 1.647550185e-38
-575.8392546 663.9041401 1221 1.647550185e-38
-569.5247489 663.9041401 1221 1.647550185e-38
-563.2102431 663.9041401 1221 1.647550185e-38
-556.8957374 663.9041401 1221 1.647550185e-38
-551.4830847 664.9916161 1223 1.647550185e-38
-546.4955005 666.6228302 1226 1.647550185e-38
-541.0363034 667.7103063 1228 1.647550185e-38
-535.9918318 669.3415204 1231 1.647550185e-38
-532.6372912 673.1476867 1238 1.647550185e-38
-527.5100742 674.7789008 1241 1.647550185e-38
-521.9319307 675.8663768 1243 1.647550185e-38
-516.7478263 677.4975909 1246 1.647550185e-38
-511.1231385 678.585067 1248 1.647550185e-38
-505.8821466 680.2162811 1251 1.647550185e-38
-500.2109146 681.3037572 1253 1.647550185e-38
-493.7309182 681.3037572 1253 1.647550185e-38
-489.195259 684.0224473 1258 1.647550185e-38
-482.6894046 684.0224473 1258 1.647550185e-38
-476.1835502 684.0224473 1258 1.647550185e-38
-471.5444594 686.7411375 1263 1.647550185e-38
-465.0127471 686.7411375 1263 1.647550185e-38
-459.5700634 688.3723516 1266 1.647550185e-38
-453.0228363 688.3723516 1266 1.647550185e-38
-448.238941 691.0910418 1271 1.647550185e-38
-442.7083404 692.7222559 1274 1.647550185e-38
-436.804387 693.809732 1276 1.647550185e-38
-431.2168989 695.4409461 1279 1.647550185e-38
-426.2623413 698.1596362 1284 1.647550185e-38
-421.5828763 701.4220644 1290 1.647550185e-38
-415.5548049 702.5095405 1292 1.647550185e-38
-411.4048387 706.8594448 1300 1.647550185e-38
-405.6156588 708.4906589 1303 1.647550185e-38
-399.7954493 710.121873 1306 1.647550185e-38
-393.9442104 711.7530871 1309 1.647550185e-38
-387.766163 712.8405632 1311 1.647550185e-38
-380.9862146 712.8405632 1311 1.647550185e-38
-374.2062662 712.8405632 1311 1.647550185e-38
-367.4263178 712.8405632 1311 1.647550185e-38
-360.6463694 712.8405632 1311 1.647550185e-38
-353.866421 712.8405632 1311 1.647550185e-38
-347.0864726 712.8405632 1311 1.647550185e-38
-340.3065242 712.8405632 1311 1.647550185e-38
-333.5265758 712.8405632 1311 1.647550185e-38
-326.7466274 712.8405632 1311 1.647550185e-38
-320.6988682 714.4717773 1314 1.647550185e-38
-314.6200795 716.1029914 1317 1.647550185e-38
-308.5102613 717.7342055 1320 1.647550185e-38
-302.3694136 719.3654196 1323 1.647550185e-38
-295.9741596 720.4528957 1325 1.647550185e-38
-291.7402707 726.9777521 1337 1.647550185e-38
-287.1692301 732.9588704 1348 1.647550185e-38
-282.6922767 739.4837269 1360 1.647550185e-38
-280.7261802 753.0771777 1385 1.647550185e-38
-276.5263164 761.2332482 1400 1.647550185e-38
-270.4401802 764.4956764 1406 1.647550185e-38
-265.0406875 769.9330568 1416 1.647550185e-38
-256.6256984 766.6706286 1410 1.647550185e-38
-245.9739464 756.3396059 1391 1.647550185e-38
-236.0336972 747.6397974 1375 1.647550185e-38
-222.0967067 725.346538 1334 1.647550185e-38
-211.9714578 714.4717773 1314 1.647550185e-38
-204.3952641 711.7530871 1309 1.647550185e-38
-197.1727353 710.121873 1306 1.647550185e-38
-189.981236 708.4906589 1303 1.647550185e-38
-184.0864484 711.7530871 1309 1.647550185e-38
-177.5877627 712.8405632 1311 1.647550185e-38
-740.3557608 700.4086749 1276 1.647550185e-38
-730.8815953 697.6641268 1271 1.647550185e-38
-722.5988915 696.0173979 1268 1.647550185e-38
-714.9119185 694.9195787 1266 1.647550185e-38
-705.5670426 692.1750306 1261 1.647550185e-38
-697.3825989 690.5283017 1258 1.647550185e-38
-688.1308115 687.7837536 1253 1.647550185e-38
-680.5627851 686.6859344 1251 1.647550185e-38
-672.4766015 685.0392055 1248 1.647550185e-38
-663.3541037 682.2946574 1243 1.647550185e-38
-655.8688226 681.1968382 1241 1.647550185e-38
-647.8808992 679.5501093 1238 1.647550185e-38
-640.4421623 678.4522901 1236 1.647550185e-38
-632.5111263 676.8055612 1233 1.647550185e-38
-626.1345616 676.8055612 1233 1.647550185e-38
-618.7527122 675.707742 1231 1.647550185e-38
-612.3864906 675.707742 1231 1.647550185e-38
-604.5433716 674.0610131 1228 1.647550185e-38
-598.1926648 674.0610131 1228 1.647550185e-38
-591.8419579 674.0610131 1228 1.647550185e-38
-584.5376823 672.9631939 1226 1.647550185e-38
-576.7824802 671.316465 1223 1.647550185e-38
-570.4576313 671.316465 1223 1.647550185e-38
-564.1327824 671.316465 1223 1.647550185e-38
-557.8079336 671.316465 1223 1.647550185e-38
-551.4830847 671.316465 1223 1.647550185e-38
-547.3870103 674.0610131 1228 1.647550185e-38
-541.0363034 674.0610131 1228 1.647550185e-38
-535.9918318 675.707742 1231 1.647550185e-38
-532.6372912 679.5501093 1238 1.647550185e-38
-527.5100742 681.1968382 1241 1.647550185e-38
-521.0921368 681.1968382 1241 1.647550185e-38
-515.5036501 682.2946574 1243 1.647550185e-38
-510.3040309 683.9413863 1246 1.647550185e-38
-504.669 685.0392055 1248 1.647550185e-38
-499.4124934 686.6859344 1251 1.647550185e-38
-493.7309182 687.7837536 1253 1.647550185e-38
-487.2509217 687.7837536 1253 1.647550185e-38
-481.9220129 689.4304825 1256 1.647550185e-38
-475.4265017 689.4304825 1256 1.647550185e-38
-469.6776959 690.5283017 1258 1.647550185e-38
-464.2763848 692.1750306 1261 1.647550185e-38
-457.7550157 692.1750306 1261 1.647550185e-38
-451.9493225 693.2728498 1263 1.647550185e-38
-446.4756092 694.9195787 1266 1.647550185e-38
-440.6233717 696.0173979 1268 1.647550185e-38
-435.0927711 697.6641268 1271 1.647550185e-38
-429.5311409 699.3108556 1274 1.647550185e-38
-424.6024412 702.0554037 1279 1.647550185e-38
-418.9684089 703.7021326 1282 1.647550185e-38
-412.9817101 704.7999518 1284 1.647550185e-38
-408.8731166 709.1912288 1292 1.647550185e-38
-403.1253094 710.8379576 1295 1.647550185e-38
-397.3464726 712.4846865 1298 1.647550185e-38
-391.2356558 713.5825057 1300 1.647550185e-38
-386.2872684 716.8759635 1306 1.647550185e-38
-380.4049999 718.5226923 1309 1.647550185e-38
-373.6353947 718.5226923 1309 1.647550185e-38
-366.8657895 718.5226923 1309 1.647550185e-38
-360.0961843 718.5226923 1309 1.647550185e-38
-353.326579 718.5226923 1309 1.647550185e-38
-346.5569738 718.5226923 1309 1.647550185e-38
-339.7873686 718.5226923 1309 1.647550185e-38
-333.0177634 718.5226923 1309 1.647550185e-38
-326.2481581 718.5226923 1309 1.647550185e-38
-319.4785529 718.5226923 1309 1.647550185e-38
-313.9034051 721.2672404 1314 1.647550185e-38
-307.8091016 722.9139693 1317 1.647550185e-38
-300.9981237 722.9139693 1317 1.647550185e-38
-294.857276 724.5606981 1320 1.647550185e-38
-290.4310398 730.598704 1331 1.647550185e-38
-285.4649617 735.5388905 1340 1.647550185e-38
-280.821519 741.5768964 1351 1.647550185e-38
-278.0912052 753.1039984 1372 1.647550185e-38
-273.5635345 760.2398234 1385 1.647550185e-38
-268.1320137 765.18001 1394 1.647550185e-38
-262.0458775 768.4734677 1400 1.647550185e-38
-255.3516701 770.1201966 1403 1.647550185e-38
-245.443449 761.8865523 1388 1.647550185e-38
-235.5187146 753.1039984 1372 1.647550185e-38
-222.0967067 732.2454328 1334 1.647550185e-38
-212.4554109 722.9139693 1317 1.647550185e-38
-204.7075563 719.6205116 1311 1.647550185e-38
-197.1727353 716.8759635 1306 1.647550185e-38
-189.981236 715.2292346 1303 1.647550185e-38
-184.0864484 718.5226923 1309 1.647550185e-38
-177.5877627 719.6205116 1311 1.647550185e-38
-751.6378053 711.4402674 1284 1.647550185e-38
-743.8370575 710.332105 1282 1.647550185e-38
-735.4819515 708.6698614 1279 1.647550185e-38
-726.0181291 705.8994554 1274 1.647550185e-38
-717.7354253 704.2372118 1271 1.647550185e-38
-708.3646915 701.4668057 1266 1.647550185e-38
-700.1543898 699.8045621 1263 1.647550185e-38
-690.8767445 697.0341561 1258 1.647550185e-38
-683.2828601 695.9259937 1256 1.647550185e-38
-674.0931318 693.1555877 1251 1.647550185e-38
-664.9551193 690.3851816 1246 1.647550185e-38
-658.5113239 690.3851816 1246 1.647550185e-38
-650.4975426 688.722938 1243 1.647550185e-38
-643.0329478 687.6147756 1241 1.647550185e-38
-635.0760539 685.952532 1238 1.647550185e-38
-627.6580034 684.8443696 1236 1.647550185e-38
-621.2659239 684.8443696 1236 1.647550185e-38
-614.8738444 684.8443696 1236 1.647550185e-38
-607.0048674 683.182126 1233 1.647550185e-38
-600.6283026 683.182126 1233 1.647550185e-38
-594.2517379 683.182126 1233 1.647550185e-38
-587.8751732 683.182126 1233 1.647550185e-38
-580.5553828 682.0739636 1231 1.647550185e-38
-574.1891612 682.0739636 1231 1.647550185e-38
-566.4391307 680.4117199 1228 1.647550185e-38
-560.0884239 680.4117199 1228 1.647550185e-38
-553.7377171 680.4117199 1228 1.647550185e-38
-548.7242749 682.0739636 1231 1.647550185e-38
-543.23922 683.182126 1233 1.647550185e-38
-536.8626553 683.182126 1233 1.647550185e-38
-532.6372912 685.952532 1238 1.647550185e-38
-527.5100742 687.6147756 1241 1.647550185e-38
-521.0921368 687.6147756 1241 1.647550185e-38
-515.5036501 688.722938 1243 1.647550185e-38
-510.3040309 690.3851816 1246 1.647550185e-38
-504.669 691.493344 1248 1.647550185e-38
-498.2148615 691.493344 1248 1.647550185e-38
-492.9428401 693.1555877 1251 1.647550185e-38
-487.2509217 694.2637501 1253 1.647550185e-38
-480.7709253 694.2637501 1253 1.647550185e-38
-474.2909288 694.2637501 1253 1.647550185e-38
-468.9309905 695.9259937 1256 1.647550185e-38
-463.1718415 697.0341561 1258 1.647550185e-38
-457.7550157 698.6963997 1261 1.647550185e-38
-451.2336466 698.6963997 1261 1.647550185e-38
-445.4176102 699.8045621 1263 1.647550185e-38
-439.9283822 701.4668057 1266 1.647550185e-38
-434.0658015 702.5749681 1268 1.647550185e-38
-428.5196861 704.2372118 1271 1.647550185e-38
-423.6065012 707.0076178 1276 1.647550185e-38
-417.9879836 708.6698614 1279 1.647550185e-38
-411.3735259 708.6698614 1279 1.647550185e-38
-407.2907903 713.102511 1287 1.647550185e-38
-402.1914284 715.8729171 1292 1.647550185e-38
-395.5097401 715.8729171 1292 1.647550185e-38
-390.6337548 719.1974043 1298 1.647550185e-38
-385.3999316 721.9678103 1303 1.647550185e-38
-379.5331779 723.6300539 1306 1.647550185e-38
-372.7790875 723.6300539 1306 1.647550185e-38
-366.8657895 725.2922976 1309 1.647550185e-38
-360.0961843 725.2922976 1309 1.647550185e-38
-353.326579 725.2922976 1309 1.647550185e-38
-346.5569738 725.2922976 1309 1.647550185e-38
-339.7873686 725.2922976 1309 1.647550185e-38
-333.0177634 725.2922976 1309 1.647550185e-38
-326.2481581 725.2922976 1309 1.647550185e-38
-319.4785529 725.2922976 1309 1.647550185e-38
-313.1867306 726.40046 1311 1.647550185e-38
-307.1079419 728.0627036 1314 1.647550185e-38
-300.9981237 729.7249472 1317 1.647550185e-38
-294.857276 731.3871908 1320 1.647550185e-38
-289.7764244 735.8198405 1328 1.647550185e-38
-284.8258611 740.8065713 1337 1.647550185e-38
-280.1979331 746.9014646 1348 1.647550185e-38
-278.0912052 760.1994135 1372 1.647550185e-38
-272.7734593 765.1861443 1381 1.647550185e-38
-266.9779304 769.0647128 1388 1.647550185e-38
-260.9228237 772.3892 1394 1.647550185e-38
-254.2596458 774.0514436 1397 1.647550185e-38
-245.443449 769.0647128 1388 1.647550185e-38
-236.5486798 763.5239007 1378 1.647550185e-38
-223.5951102 744.1310585 1343 1.647550185e-38
-213.7459525 734.1575968 1325 1.647550185e-38
-205.644433 729.7249472 1317 1.647550185e-38
-197.6256588 725.2922976 1309 1.647550185e-38
-190.4186448 723.6300539 1306 1.647550185e-38
-184.0864484 725.2922976 1309 1.647550185e-38
-177.5877627 726.40046 1311 1.647550185e-38
-755.1501315 721.4360998 1290 1.647550185e-38
-744.9974897 718.080583 1284 1.647550185e-38
-737.2070851 716.9620774 1282 1.647550185e-38
-727.157875 713.6065607 1276 1.647550185e-38
-719.4295294 712.4880551 1274 1.647550185e-38
-711.1623403 710.8102967 1271 1.647550185e-38
-700.1543898 706.3362744 1263 1.647550185e-38
-692.5243043 705.2177688 1261 1.647550185e-38
-684.3708902 703.5400105 1258 1.647550185e-38
-676.7873489 702.4215049 1256 1.647550185e-38
-667.6234785 699.6252409 1251 1.647550185e-38
-659.5683245 697.9474826 1248 1.647550185e-38
-652.0675286 696.828977 1246 1.647550185e-38
-645.6237332 696.828977 1246 1.647550185e-38
-636.6150104 694.032713 1241 1.647550185e-38
-630.1970729 694.032713 1241 1.647550185e-38
-622.2712085 692.3549547 1238 1.647550185e-38
-615.8687859 692.3549547 1238 1.647550185e-38
-609.4663632 692.3549547 1238 1.647550185e-38
-603.0639405 692.3549547 1238 1.647550185e-38
-595.6976059 691.2364491 1236 1.647550185e-38
-589.3055264 691.2364491 1236 1.647550185e-38
-581.4986084 689.5586907 1233 1.647550185e-38
-575.1220437 689.5586907 1233 1.647550185e-38
-568.7454789 689.5586907 1233 1.647550185e-38
-562.3689142 689.5586907 1233 1.647550185e-38
-555.9923495 689.5586907 1233 1.647550185e-38
-549.6157847 689.5586907 1233 1.647550185e-38
-544.5609699 691.2364491 1236 1.647550185e-38
-538.1688904 691.2364491 1236 1.647550185e-38
-532.6372912 692.3549547 1238 1.647550185e-38
-527.5100742 694.032713 1241 1.647550185e-38
-521.0921368 694.032713 1241 1.647550185e-38
-515.5036501 695.1512186 1243 1.647550185e-38
-510.3040309 696.828977 1246 1.647550185e-38
-503.8602356 696.828977 1246 1.647550185e-38
-498.2148615 697.9474826 1248 1.647550185e-38
-492.9428401 699.6252409 1251 1.647550185e-38
-486.4731868 699.6252409 1251 1.647550185e-38
-480.7709253 700.7437465 1253 1.647550185e-38
-474.2909288 700.7437465 1253 1.647550185e-38
-468.9309905 702.4215049 1256 1.647550185e-38
-462.4354793 702.4215049 1256 1.647550185e-38
-456.6659871 703.5400105 1258 1.647550185e-38
-450.1601328 703.5400105 1258 1.647550185e-38
-445.4176102 706.3362744 1263 1.647550185e-38
-438.8858979 706.3362744 1263 1.647550185e-38
-433.3811551 708.0140328 1266 1.647550185e-38
-427.5082313 709.1325384 1268 1.647550185e-38
-422.9425412 712.4880551 1274 1.647550185e-38
-417.0075583 713.6065607 1276 1.647550185e-38
-410.4086154 713.6065607 1276 1.647550185e-38
-406.3413945 718.080583 1284 1.647550185e-38
-400.63496 719.7583414 1287 1.647550185e-38
-394.8974959 721.4360998 1290 1.647550185e-38
-388.8280518 722.5546053 1292 1.647550185e-38
-384.5125949 727.0286277 1300 1.647550185e-38
-378.6613559 728.706386 1303 1.647550185e-38
-372.7790875 730.3841444 1306 1.647550185e-38
-366.024997 730.3841444 1306 1.647550185e-38
-360.0961843 732.0619028 1309 1.647550185e-38
-353.326579 732.0619028 1309 1.647550185e-38
-346.5569738 732.0619028 1309 1.647550185e-38
-339.7873686 732.0619028 1309 1.647550185e-38
-333.0177634 732.0619028 1309 1.647550185e-38
-326.2481581 732.0619028 1309 1.647550185e-38
-319.966679 733.1804084 1311 1.647550185e-38
-313.1867306 733.1804084 1311 1.647550185e-38
-307.1079419 734.8581667 1314 1.647550185e-38
-300.9981237 736.5359251 1317 1.647550185e-38
-294.857276 738.2136835 1320 1.647550185e-38
-289.7764244 742.6877058 1328 1.647550185e-38
-284.1867604 746.0432225 1334 1.647550185e-38
-279.1586232 751.0764977 1343 1.647550185e-38
-276.2669918 762.2615535 1363 1.647550185e-38
-270.9957901 767.2948286 1372 1.647550185e-38
-265.6314999 772.3281037 1381 1.647550185e-38
-259.2382431 774.5651149 1385 1.647550185e-38
-253.1676216 777.9206316 1391 1.647550185e-38
-244.2056218 772.3281037 1381 1.647550185e-38
-235.5187146 767.2948286 1372 1.647550185e-38
-223.9280888 752.1950032 1345 1.647550185e-38
-214.2299056 742.6877058 1328 1.647550185e-38
-206.1128713 738.2136835 1320 1.647550185e-38
-197.9276079 733.1804084 1311 1.647550185e-38
-190.8560536 732.0619028 1309 1.647550185e-38
-184.0864484 732.0619028 1309 1.647550185e-38
-177.5877627 733.1804084 1311 1.647550185e-38
-756.3209069 729.2362936 1292 1.647550185e-38
-746.7381381 726.4141717 1287 1.647550185e-38
-738.3571741 724.7208986 1284 1.647550185e-38
-728.8674938 721.8987767 1279 1.647550185e-38
-720.5589321 720.2055036 1276 1.647550185e-38
-712.8409296 719.0766548 1274 1.647550185e-38
-701.8174644 714.5612598 1266 1.647550185e-38
-693.6226775 712.8679867 1263 1.647550185e-38
-686.0029352 711.739138 1261 1.647550185e-38
-677.8650358 710.0458648 1258 1.647550185e-38
-668.6908222 707.223743 1253 1.647550185e-38
-661.1538252 706.0948942 1251 1.647550185e-38
-654.684172 706.0948942 1251 1.647550185e-38
-646.6600474 704.4016211 1248 1.647550185e-38
-639.1799379 703.2727723 1246 1.647550185e-38
-631.2127008 701.5794992 1243 1.647550185e-38
-624.7844202 701.5794992 1243 1.647550185e-38
-618.3561396 701.5794992 1243 1.647550185e-38
-610.9432607 700.4506504 1241 1.647550185e-38
-604.5253233 700.4506504 1241 1.647550185e-38
-598.1073858 700.4506504 1241 1.647550185e-38
-591.6894484 700.4506504 1241 1.647550185e-38
-583.8566725 698.7573773 1238 1.647550185e-38
-576.5213674 697.6285286 1236 1.647550185e-38
-570.1292879 697.6285286 1236 1.647550185e-38
-564.6494045 698.7573773 1238 1.647550185e-38
-557.3451289 697.6285286 1236 1.647550185e-38
-550.9530494 697.6285286 1236 1.647550185e-38
-544.5609699 697.6285286 1236 1.647550185e-38
-539.0397139 698.7573773 1238 1.647550185e-38
-533.9280116 700.4506504 1241 1.647550185e-38
-527.5100742 700.4506504 1241 1.647550185e-38
-521.0921368 700.4506504 1241 1.647550185e-38
-514.6741994 700.4506504 1241 1.647550185e-38
-509.0753695 701.5794992 1243 1.647550185e-38
-503.8602356 703.2727723 1246 1.647550185e-38
-498.2148615 704.4016211 1248 1.647550185e-38
-491.760723 704.4016211 1248 1.647550185e-38
-486.4731868 706.0948942 1251 1.647550185e-38
-480.0035335 706.0948942 1251 1.647550185e-38
-473.5338803 706.0948942 1251 1.647550185e-38
-467.8109324 707.223743 1253 1.647550185e-38
-462.4354793 708.9170161 1256 1.647550185e-38
-455.9399681 708.9170161 1256 1.647550185e-38
-450.1601328 710.0458648 1258 1.647550185e-38
-444.7122775 711.739138 1261 1.647550185e-38
-438.8858979 712.8679867 1263 1.647550185e-38
-432.3541856 712.8679867 1263 1.647550185e-38
-426.8339281 714.5612598 1266 1.647550185e-38
-421.9466011 717.3833817 1271 1.647550185e-38
-416.3539414 719.0766548 1274 1.647550185e-38
-409.7653417 719.0766548 1274 1.647550185e-38
-403.8096725 720.2055036 1276 1.647550185e-38
-399.701079 724.7208986 1284 1.647550185e-38
-393.9791296 726.4141717 1287 1.647550185e-38
-388.2261508 728.1074449 1290 1.647550185e-38
-383.9210371 732.6228399 1298 1.647550185e-38
-377.7895339 733.7516886 1300 1.647550185e-38
-372.7790875 737.1382349 1306 1.647550185e-38
-366.024997 737.1382349 1306 1.647550185e-38
-360.0961843 738.831508 1309 1.647550185e-38
-353.326579 738.831508 1309 1.647550185e-38
-346.5569738 738.831508 1309 1.647550185e-38
-339.7873686 738.831508 1309 1.647550185e-38
-333.0177634 738.831508 1309 1.647550185e-38
-326.2481581 738.831508 1309 1.647550185e-38
-319.4785529 738.831508 1309 1.647550185e-38
-313.1867306 739.9603568 1311 1.647550185e-38
-307.1079419 741.6536299 1314 1.647550185e-38
-300.3124788 741.6536299 1314 1.647550185e-38
-294.857276 745.0401761 1320 1.647550185e-38
-289.121809 747.862298 1325 1.647550185e-38
-283.5476597 751.2488443 1331 1.647550185e-38
-277.9114514 754.6353905 1337 1.647550185e-38
-274.4427783 764.2306049 1354 1.647550185e-38
-268.6255645 767.6171512 1360 1.647550185e-38
-262.7462917 771.0036974 1366 1.647550185e-38
-257.3664868 776.0835168 1375 1.647550185e-38
-250.8015691 777.7767899 1378 1.647550185e-38
-243.1446271 776.0835168 1375 1.647550185e-38
-235.003732 772.6969706 1369 1.647550185e-38
-223.9280888 759.1507855 1345 1.647550185e-38
-215.1978118 752.9421174 1334 1.647550185e-38
-206.5813097 746.7334493 1323 1.647550185e-38
-198.8334551 743.346903 1317 1.647550185e-38
-190.8560536 738.831508 1309 1.647550185e-38
-184.0864484 738.831508 1309 1.647550185e-38
-177.5877627 739.9603568 1311 1.647550185e-38
-758.07707 737.6267698 1295 1.647550185e-38
-748.4787864 734.77879 1290 1.647550185e-38
-740.0823077 733.0700021 1287 1.647550185e-38
-731.7168585 731.3612142 1284 1.647550185e-38
-723.9471402 730.2220223 1282 1.647550185e-38
-715.6385785 728.5132344 1279 1.647550185e-38
-704.5892553 723.9564667 1271 1.647550185e-38
-696.3686106 722.2476788 1268 1.647550185e-38
-688.7230103 721.1084869 1266 1.647550185e-38
-680.5592529 719.399699 1263 1.647550185e-38
-671.3591814 716.5517192 1258 1.647550185e-38
-663.7963265 715.4125273 1256 1.647550185e-38
-655.7308293 713.7037394 1253 1.647550185e-38
-649.2508329 713.7037394 1253 1.647550185e-38
-640.2059089 710.8557596 1248 1.647550185e-38
-632.7361425 709.7165677 1246 1.647550185e-38
-626.2923472 709.7165677 1246 1.647550185e-38
-619.8485518 709.7165677 1246 1.647550185e-38
-611.927859 708.0077798 1243 1.647550185e-38
-605.4995784 708.0077798 1243 1.647550185e-38
-599.0712978 708.0077798 1243 1.647550185e-38
-592.6430172 708.0077798 1243 1.647550185e-38
-586.2147366 708.0077798 1243 1.647550185e-38
-578.8535736 706.8685879 1241 1.647550185e-38
-572.4356361 706.8685879 1241 1.647550185e-38
-566.0176987 706.8685879 1241 1.647550185e-38
-559.5997613 706.8685879 1241 1.647550185e-38
-553.1818239 706.8685879 1241 1.647550185e-38
-546.7638865 706.8685879 1241 1.647550185e-38
-539.0397139 705.1598 1238 1.647550185e-38
-533.9280116 706.8685879 1241 1.647550185e-38
-527.5100742 706.8685879 1241 1.647550185e-38
-521.0921368 706.8685879 1241 1.647550185e-38
-514.6741994 706.8685879 1241 1.647550185e-38
-509.0753695 708.0077798 1243 1.647550185e-38
-502.6470889 708.0077798 1243 1.647550185e-38
-497.4164402 709.7165677 1246 1.647550185e-38
-490.9726449 709.7165677 1246 1.647550185e-38
-484.5288495 709.7165677 1246 1.647550185e-38
-478.8524459 710.8557596 1248 1.647550185e-38
-472.3983074 710.8557596 1248 1.647550185e-38
-467.064227 712.5645475 1251 1.647550185e-38
-460.5945737 712.5645475 1251 1.647550185e-38
-454.8509395 713.7037394 1253 1.647550185e-38
-448.370943 713.7037394 1253 1.647550185e-38
-443.6542784 716.5517192 1258 1.647550185e-38
-437.148424 716.5517192 1258 1.647550185e-38
-431.6695392 718.2605071 1261 1.647550185e-38
-425.1481701 718.2605071 1261 1.647550185e-38
-420.286701 721.1084869 1266 1.647550185e-38
-413.739474 721.1084869 1266 1.647550185e-38
-407.8355206 722.2476788 1268 1.647550185e-38
-402.2273462 723.9564667 1271 1.647550185e-38
-398.1446106 728.5132344 1279 1.647550185e-38
-392.4485192 730.2220223 1282 1.647550185e-38
-386.4204478 731.3612142 1284 1.647550185e-38
-382.1463635 735.9179819 1292 1.647550185e-38
-377.2083193 739.3355577 1298 1.647550185e-38
-371.066473 740.4747496 1300 1.647550185e-38
-365.1842045 742.1835375 1303 1.647550185e-38
-360.0961843 745.6011132 1309 1.647550185e-38
-353.326579 745.6011132 1309 1.647550185e-38
-346.5569738 745.6011132 1309 1.647550185e-38
-339.7873686 745.6011132 1309 1.647550185e-38
-333.0177634 745.6011132 1309 1.647550185e-38
-326.2481581 745.6011132 1309 1.647550185e-38
-319.4785529 745.6011132 1309 1.647550185e-38
-313.1867306 746.7403052 1311 1.647550185e-38
-307.1079419 748.449093 1314 1.647550185e-38
-300.3124788 748.449093 1314 1.647550185e-38
-294.1871458 750.1578809 1317 1.647550185e-38
-288.6853987 753.5754567 1323 1.647550185e-38
-282.9085591 756.4234365 1328 1.647550185e-38
-277.2878655 759.8410123 1334 1.647550185e-38
-271.605113 763.258588 1340 1.647550185e-38
-267.4404518 771.2329315 1354 1.647550185e-38
-261.5922085 774.6505073 1360 1.647550185e-38
-255.6819062 778.068083 1366 1.647550185e-38
-249.1635327 779.7768709 1369 1.647550185e-38
-242.0836323 779.7768709 1369 1.647550185e-38
-233.9737668 776.3592951 1363 1.647550185e-38
-224.4275567 767.8153557 1348 1.647550185e-38
-216.165718 763.258588 1340 1.647550185e-38
-207.3620403 756.4234365 1328 1.647550185e-38
-199.2863787 751.8666688 1320 1.647550185e-38
-191.5850683 748.449093 1314 1.647550185e-38
-184.3677111 746.7403052 1311 1.647550185e-38
-177.5877627 746.7403052 1311 1.647550185e-38
-844.1622069 761.5669992 1325 1.647550185e-38
-759.8332331 746.0482754 1298 1.647550185e-38
-751.379867 744.3239728 1295 1.647550185e-38
-744.6826639 744.3239728 1295 1.647550185e-38
-736.2758421 742.5996702 1292 1.647550185e-38
-728.4647511 741.4501351 1290 1.647550185e-38
-721.793406 741.4501351 1290 1.647550185e-38
-710.6871954 736.8519947 1282 1.647550185e-38
-702.4096632 735.1276921 1279 1.647550185e-38
-694.1631605 733.4033894 1276 1.647550185e-38
-686.4865307 732.2538543 1274 1.647550185e-38
-676.6958999 728.805249 1268 1.647550185e-38
-669.0813291 727.655714 1266 1.647550185e-38
-660.9641161 725.9314113 1263 1.647550185e-38
-653.3960896 724.7818762 1261 1.647550185e-38
-645.3357639 723.0575736 1258 1.647550185e-38
-637.8142817 721.9080385 1256 1.647550185e-38
-631.3187705 721.9080385 1256 1.647550185e-38
-623.3308471 720.1837358 1253 1.647550185e-38
-616.8508506 720.1837358 1253 1.647550185e-38
-609.396599 719.0342008 1251 1.647550185e-38
-602.9269458 719.0342008 1251 1.647550185e-38
-596.4572925 719.0342008 1251 1.647550185e-38
-589.9876392 719.0342008 1251 1.647550185e-38
-583.5179859 719.0342008 1251 1.647550185e-38
-575.6645237 717.3098981 1248 1.647550185e-38
-569.2103852 717.3098981 1248 1.647550185e-38
-562.7562467 717.3098981 1248 1.647550185e-38
-555.4105984 716.160363 1246 1.647550185e-38
-548.966803 716.160363 1246 1.647550185e-38
-540.345949 713.2865253 1241 1.647550185e-38
-533.9280116 713.2865253 1241 1.647550185e-38
-527.5100742 713.2865253 1241 1.647550185e-38
-521.0921368 713.2865253 1241 1.647550185e-38
-513.4300232 711.5622226 1238 1.647550185e-38
-508.2562619 713.2865253 1241 1.647550185e-38
-501.8383245 713.2865253 1241 1.647550185e-38
-496.2188083 714.4360604 1243 1.647550185e-38
-489.7905278 714.4360604 1243 1.647550185e-38
-484.5288495 716.160363 1246 1.647550185e-38
-478.0850542 716.160363 1246 1.647550185e-38
-471.6412588 716.160363 1246 1.647550185e-38
-465.9441689 717.3098981 1248 1.647550185e-38
-460.5945737 719.0342008 1251 1.647550185e-38
-454.1249204 719.0342008 1251 1.647550185e-38
-448.370943 720.1837358 1253 1.647550185e-38
-442.9489457 721.9080385 1256 1.647550185e-38
-437.148424 723.0575736 1258 1.647550185e-38
-430.6425696 723.0575736 1258 1.647550185e-38
-425.1481701 724.7818762 1261 1.647550185e-38
-419.290761 725.9314113 1263 1.647550185e-38
-413.739474 727.655714 1266 1.647550185e-38
-407.8355206 728.805249 1268 1.647550185e-38
-402.2273462 730.5295517 1271 1.647550185e-38
-396.5881422 732.2538543 1274 1.647550185e-38
-391.5301529 735.1276921 1279 1.647550185e-38
-385.8185468 736.8519947 1282 1.647550185e-38
-381.5548057 741.4501351 1290 1.647550185e-38
-376.3364973 744.3239728 1295 1.647550185e-38
-370.4956015 746.0482754 1298 1.647550185e-38
-364.343412 747.1978105 1300 1.647550185e-38
-359.2709065 750.6464158 1306 1.647550185e-38
-353.326579 752.3707185 1309 1.647550185e-38
-346.5569738 752.3707185 1309 1.647550185e-38
-339.7873686 752.3707185 1309 1.647550185e-38
-333.0177634 752.3707185 1309 1.647550185e-38
-326.2481581 752.3707185 1309 1.647550185e-38
-319.4785529 752.3707185 1309 1.647550185e-38
-313.1867306 753.5202535 1311 1.647550185e-38
-307.1079419 755.2445562 1314 1.647550185e-38
-300.3124788 755.2445562 1314 1.647550185e-38
-294.1871458 756.9688588 1317 1.647550185e-38
-288.6853987 760.4174641 1323 1.647550185e-38
-282.2694584 761.5669992 1325 1.647550185e-38
-276.6642796 765.0156045 1331 1.647550185e-38
-270.9970418 768.4642098 1337 1.647550185e-38
-266.255339 774.7866528 1348 1.647550185e-38
-260.4381252 778.2352581 1354 1.647550185e-38
-254.5588524 781.6838633 1360 1.647550185e-38
-248.0715084 783.408166 1363 1.647550185e-38
-241.0226376 783.408166 1363 1.647550185e-38
-233.4587842 781.6838633 1360 1.647550185e-38
-224.4275567 774.7866528 1348 1.647550185e-38
-216.165718 770.1885124 1340 1.647550185e-38
-207.8304786 765.0156045 1331 1.647550185e-38
-199.7393023 760.4174641 1323 1.647550185e-38
-191.5850683 755.2445562 1314 1.647550185e-38
-184.7896052 755.2445562 1314 1.647550185e-38
-177.994142 755.2445562 1314 1.647550185e-38
-842.8879998 767.2594715 1323 1.647550185e-38
-836.0459924 767.2594715 1323 1.647550185e-38
-761.0040085 753.9208715 1300 1.647550185e-38
-753.1205153 752.7609932 1298 1.647550185e-38
-746.4077975 752.7609932 1298 1.647550185e-38
-739.6950797 752.7609932 1298 1.647550185e-38
-731.2882579 751.0211758 1295 1.647550185e-38
-724.5910549 751.0211758 1295 1.647550185e-38
-715.1220609 748.1214802 1290 1.647550185e-38
-706.803156 746.3816628 1287 1.647550185e-38
-698.5152806 744.6418454 1284 1.647550185e-38
-689.1807478 741.7421497 1279 1.647550185e-38
-680.9652746 740.0023323 1276 1.647550185e-38
-673.3093312 738.8424541 1274 1.647550185e-38
