2358,2376,2376,2404,2413,2432,2432,2442,2452,2452,2432,2423,2413,2386,2314,2289,2256,2215,2169,2139,2117,2117,2103,2103,2103,2103,2103,2103,2103,2103,2103,2103,2103,2110,2110,2110,2110,2117,2117,2110,2110,2110,2103,2103,2095,2095,2095,2088,2088,2088,2095,2095,2095,2103,2103,2110,2110,2117,2117,2110,2117,2110,2110,2103,2103,2095,2095,2088,2088,2088,2088,2081,2081,2081,2081,2081,2081,2081,2081,2081,2081,2081,2074,2074,2074,2074,2074,2074,2074,2074,2081,2088,2095,2095,2103,2117,2124,2139,2161,2169,2184,2184,2200,2200,2200,2200,2184,2169,2146,2068,2020,1982,1938,1903,1846,1824,1819,1814,1798,1798,1793,1788,1788,1788,1793,1798,1803,1803,1803,1803,1798,1788,1788,1777,1777,1772,1772,1772,1772,1777,1777,1782,1793,1798,1803,1808,1819,1824,1830,1841,1846,1852,1857,1857,1857,1857,1852,1852,1841,1841,1835,1830,1824,1814,1814,1808,1814,1814,1819,1830,1835,1846,1846,1852,1852,1857,1852,1857,1857,1852,1857,1863,1868,1868,1880,1897,1909,1920,1938,1951,1957,1957,1963,1957,1951,1932,1926,1920,1914,1909,1903,1903,1903,1903,1909,1909,1914,1920,1932,1932,1938,1951,1957,1957,1957,1957,1957,1957,1944,1938,1938,1932,1926,1926,1920,1920,1920,1926,1926,1926,1926,1932,1932,1932,1938,1932,1938,1938,1938,1938,1938,1944,1944,1951,1951,1957,1963,1969,1969,1975,1988,1988,1988,1982,1988,1988,1982,1982,1988,1988,1994,1988,1994,1994,1994,1994,2001,2001,2007,2001,2007,2007,2014,2014,2014,2014,2014,2014,2014,2014,2014,2007,2007,2007,2007,2001,2001,2007,2007,2007,2014,2020,2027,2027,2034,2040,2040,2040,0,0,0,0,0,0,0,0,0,0,0,0,0,0,0,0,0,0,0,0,0,0
2341,2349,2367,2386,2404,2413,2423,2442,2442,2442,2432,2423,2404,2395,2323,2289,2256,2223,2169,2139,2124,2117,2110,2103,2110,2103,2103,2103,2103,2095,2095,2095,2095,2103,2103,2110,2110,2117,2117,2117,2110,2103,2103,2103,2095,2095,2088,2088,2088,2088,2088,2095,2095,2103,2103,2110,2110,2117,2117,2117,2110,2103,2103,2103,2103,2088,2095,2088,2088,2081,2081,2081,2081,2074,2074,2074,2074,2074,2074,2074,2074,2068,2068,2068,2068,2074,2074,2074,2074,2081,2088,2095,2103,2103,2110,2124,2131,2146,2169,2176,2184,2192,2200,2207,2207,2200,2192,2169,2146,2068,2020,1982,1938,1903,1841,1824,1814,1808,1798,1798,1798,1793,1788,1793,1798,1798,1803,1798,1793,1793,1788,1782,1782,1772,1772,1767,1767,1772,1772,1772,1777,1777,1788,1793,1793,1798,1803,1808,1814,1819,1830,1830,1835,1841,1841,1841,1841,1835,1830,1824,1819,1819,1814,1808,1803,1803,1803,1803,1808,1819,1824,1830,1835,1841,1841,1841,1841,1846,1846,1846,1846,1852,1852,1857,1863,1874,1885,1891,1909,1914,1920,1926,1926,1926,1920,1914,1909,1903,1897,1891,1891,1891,1891,1891,1897,1903,1903,1914,1920,1920,1926,1938,1938,1944,1944,1951,1951,1944,1938,1932,1932,1926,1920,1914,1914,1914,1914,1914,1914,1920,1920,1920,1926,1926,1926,1926,1926,1926,1932,1932,1938,1938,1944,1951,1951,1957,1963,1969,1969,1975,1988,1988,1988,1982,1982,1982,1982,1982,1982,1982,1988,1988,1982,1988,1988,1988,1988,1988,1988,1988,1994,2001,2001,2001,2001,2001,2001,2001,2001,2001,2001,2001,1994,1994,1994,1994,1994,2001,2001,2001,2014,2014,2020,2020,2027,2034,2040,2034,0,0,0,0,0,0,0,0,0,0,0,0,0,0,0,0,0,0,0,0,0,0
2323,2332,2341,2367,2386,2404,2413,2432,2442,2442,2423,2423,2413,2386,2314,2289,2256,2223,2169,2146,2124,2117,2110,2110,2103,2103,2095,2095,2095,2088,2088,2081,2088,2088,2103,2110,2110,2117,2117,2117,2110,2103,2103,2103,2095,2095,2095,2095,2088,2095,2095,2095,2095,2103,2103,2103,2095,2103,2103,2103,2095,2095,2103,2103,2095,2088,2088,2088,2081,2074,2074,2068,2068,2068,2068,2061,2061,2061,2061,2061,2061,2068,2068,2068,2074,2074,2074,2081,2081,2088,2095,2103,2110,2117,2124,2139,2146,2161,2176,2192,2192,2207,2215,2215,2215,2207,2192,2176,2146,2061,2020,1975,1932,1897,1841,1824,1814,1808,1798,1793,1793,1793,1788,1793,1798,1803,1798,1793,1788,1788,1777,1777,1772,1767,1767,1767,1767,1767,1767,1772,1772,1777,1782,1788,1788,1793,1798,1798,1803,1808,1814,1814,1819,1824,1830,1830,1830,1830,1824,1824,1814,1814,1808,1803,1803,1798,1803,1803,1808,1814,1819,1824,1824,1830,1835,1835,1835,1841,1835,1835,1841,1841,1841,1841,1846,1852,1857,1868,1885,1891,1891,1897,1897,1897,1903,1897,1891,1885,1885,1880,1880,1880,1885,1885,1885,1891,1891,1897,1909,1914,1914,1926,1932,1932,1938,1938,1932,1932,1932,1926,1920,1920,1914,1914,1903,1903,1903,1903,1903,1909,1909,1909,1914,1914,1914,1914,1914,1914,1920,1926,1932,1938,1944,1951,1957,1963,1969,1969,1975,1975,1982,1988,1982,1982,1975,1969,1969,1963,1969,1969,1975,1975,1975,1975,1975,1982,1982,1982,1982,1988,1988,1994,2001,2001,2001,2001,2001,2001,2001,1994,1994,1994,1994,0,0,0,0,0,0,0,0,0,0,0,0,0,0,0,0,0,0,0,0,0,0,0,0,0,0,0,0,0,0,0,0,0,0,0,0,0
2306,2314,2314,2332,2367,2376,2395,2413,2432,2432,2423,2413,2404,2386,2323,2289,2256,2223,2169,2146,2124,2117,2103,2103,2095,2095,2081,2081,2074,2074,2074,2074,2081,2088,2103,2103,2110,2110,2117,2110,2110,2103,2095,2095,2095,2095,2095,2095,2095,2095,2095,2088,2088,2095,2095,2088,2088,2088,2088,2088,2081,2081,2088,2095,2088,2088,2081,2081,2081,2074,2074,2068,2068,2061,2061,2061,2061,2061,2054,2061,2061,2068,2068,2068,2074,2081,2081,2088,2088,2095,2095,2110,2117,2124,2131,2146,2154,2169,2192,2192,2207,2207,2215,2215,2215,2207,2192,2176,2146,2061,2014,1969,1932,1891,1830,1814,1808,1803,1793,1788,1788,1782,1777,1782,1788,1788,1793,1788,1788,1788,1782,1777,1772,1767,1767,1767,1767,1767,1767,1767,1772,1772,1777,1777,1782,1782,1788,1788,1793,1793,1803,1803,1808,1814,1819,1819,1824,1824,1819,1819,1814,1814,1808,1803,1803,1803,1808,1808,1814,1819,1824,1824,1830,1830,1835,1835,1835,1835,1830,1830,1824,1824,1824,1824,1819,1824,1830,1835,1841,1852,1852,1857,1863,1863,1868,1868,1863,1863,1868,1863,1863,1863,1868,1868,1874,1874,1880,1885,1891,1897,1903,1909,1914,1914,1914,1914,1914,1914,1909,1909,1909,1903,1903,1897,1897,1897,1897,1903,1897,1897,1903,1903,1909,1909,1909,1909,1909,1914,1914,1926,1932,1938,1944,1963,1969,1969,1982,1982,1982,1988,1988,1988,1988,1975,1969,1969,1963,1957,1963,1963,1969,1969,1975,1975,1975,1975,1982,1982,1988,1988,0,0,0,0,0,2001,0,2001,0,0,0,0,0,0,0,0,0,0,0,0,0,0,0,0,0,0,0,0,0,0,0,0,0,0,0,0,0,0,0,0,0,0,0,0,0,0,0,0,0,0
2297,2306,2314,2323,2358,2367,2386,2413,2423,2423,2423,2413,2404,2386,2332,2297,2264,2231,2176,2146,2131,2117,2103,2103,2095,2088,2081,2081,2074,2074,2074,2074,2081,2088,2103,2110,2117,2124,2117,2117,2117,2103,2095,2095,2095,2095,2088,2095,2088,2088,2088,2081,2081,2081,2088,2081,2074,2081,2081,2074,2068,2074,2081,2088,2088,2088,2081,2081,2081,2074,2068,2068,2061,2061,2054,2054,2054,2054,2054,2054,2061,2068,2068,2068,2081,2081,2081,2095,2095,2095,2103,2117,2124,2131,2139,2161,2161,2176,2192,2200,2207,2215,2223,2223,2223,2207,2200,2176,2146,2054,2014,1969,1926,1885,1824,1808,1798,1793,1782,1782,1777,1767,1767,1772,1772,1772,1772,1772,1777,1782,1772,1767,1767,1762,1762,1762,1762,1762,1762,1767,1762,1762,1767,1767,1772,1767,1772,1772,1772,1772,1777,1782,1782,1788,1798,1798,1808,1814,1814,1819,1819,1819,1814,1814,1808,1814,1819,1819,1819,1824,1824,1830,1830,1830,1835,1835,1835,1830,1830,1830,1824,1819,1814,1814,1814,1819,1819,1824,1824,1835,1841,1846,1852,1857,1857,1857,1857,1857,1857,1857,1857,1857,1863,1863,1868,1868,1874,1874,1885,1891,1897,1897,1903,1909,1909,1909,1909,1903,1903,1903,1897,1897,1897,1897,1897,1891,1891,1897,1897,1897,1897,1903,1903,1903,1909,1909,1909,1914,1914,1926,1932,1938,1951,1969,1975,1975,1988,1988,1988,1988,1988,1988,1988,1975,1969,1963,1957,1951,1957,1957,1963,1969,1975,1982,1982,0,0,0,0,0,0,0,0,0,0,0,0,0,0,0,0,0,0,0,0,0,0,0,0,0,0,0,0,0,0,0,0,0,0,0,0,0,0,0,0,0,0,0,0,0,0,0,0,0,0,0,0,0,0,0
2306,2306,2314,2323,2358,2367,2386,2413,2423,2423,2423,2413,2395,2376,2323,2289,2264,2231,2176,2154,2131,2124,2110,2103,2095,2088,2081,2074,2074,2074,2068,2074,2081,2088,2110,2117,2124,2124,2124,2124,2117,2110,2103,2103,2095,2095,2095,2088,2095,2088,2081,2081,2074,2074,2068,2061,2054,2054,2054,2054,2054,2061,2068,2074,2074,2074,2081,2081,2081,2074,2068,2068,2061,2061,2061,2054,2054,2054,2054,2054,2061,2068,2068,2068,2081,2088,2088,2088,2088,2095,2103,2117,2124,2131,2139,2161,2169,2184,2200,2207,2215,2215,2223,2223,2223,2207,2192,2176,2139,2040,2001,1957,1914,1874,1814,1798,1788,1777,1772,1762,1757,1752,1747,1752,1757,1767,1767,1767,1772,1777,1772,1767,1762,1762,1762,1757,1757,1757,1757,1762,1762,1762,1762,1762,1767,1762,1762,1762,1767,1762,1767,1772,1772,1777,1782,1793,1798,1803,1808,1814,1819,1824,1824,1824,1824,1830,1830,1830,1835,1835,1835,1835,1835,1835,1835,1835,1835,1835,1835,1830,1830,1824,1819,1819,1819,1819,1819,1819,1819,1830,1835,1835,1841,1841,1846,1846,1852,1852,1852,1852,1857,1857,1857,1857,1863,1863,1868,1874,1880,1885,1891,1891,1897,1897,1897,1897,1897,1897,1897,1897,1891,1891,1891,1891,1891,1891,1891,1891,1897,1897,1897,1903,1903,1903,1903,1903,1909,1909,1914,1926,1938,1944,1957,1969,1982,1982,1988,1988,1994,1988,1988,1988,1982,1963,1963,1951,1951,1951,1944,1957,1957,1969,1975,0,0,0,0,0,0,0,0,0,0,0,0,0,0,0,0,0,0,0,0,0,0,0,0,0,0,0,0,0,0,0,0,0,0,0,0,0,0,0,0,0,0,385,0,0,0,0,0,0,0,0,0,0,0,0,0,0
2306,2314,2323,2323,2358,2376,2386,2413,2423,2423,2413,2404,2386,2367,2314,2280,2264,2239,2184,2169,2161,2146,2139,2131,2139,2131,2124,2124,2124,2117,2110,2103,2110,2117,2131,2139,2139,2146,2146,2139,2131,2117,2110,2103,2095,2095,2088,2088,2088,2081,2081,2068,2061,2061,2054,2047,2034,2034,2034,2034,2027,2040,2054,2061,2068,2074,2074,2074,2074,2068,2068,2061,2061,2061,2061,2054,2054,2054,2054,2061,2068,2074,2074,2074,2088,2095,2088,2088,2088,2095,2103,2110,2124,2131,2146,2169,2176,2184,2207,2207,2215,2223,2223,2223,2223,2207,2192,2169,2131,2040,1994,1951,1909,1868,1835,1793,1782,1772,1767,1752,1752,1742,1737,1742,1747,1752,1762,1762,1762,1772,1762,1762,1762,1757,1757,1757,1752,1752,1752,1757,1757,1757,1757,1757,1762,1757,1757,1757,1757,1757,1762,1762,1767,1767,1772,1782,1788,1793,1803,1808,1814,1819,1824,1824,1824,1830,1835,1835,1835,1835,1835,1835,1841,1841,1841,1841,1841,1841,1841,1841,1841,1835,1830,1830,1824,1824,1824,1819,1824,1824,1830,1830,1841,1835,1841,1846,1846,1846,1846,1846,1852,1857,1857,1857,1863,1868,1868,1874,1880,1880,1885,1885,1891,1891,1891,1891,1891,1891,1885,1885,1885,1885,1885,1885,1885,1885,1885,1891,1891,1897,1897,1903,1903,1903,1903,1909,1909,1914,1920,1932,1938,1951,1963,1975,1982,1988,1988,1994,1994,1988,1988,1982,1975,1963,1951,1944,1944,1944,1938,1944,1951,1963,0,0,0,0,0,0,0,0,0,0,0,0,0,0,0,0,0,0,0,0,0,0,0,0,0,0,0,0,0,0,0,0,0,0,0,0,0,0,0,0,0,0,385,385,385,385,384,0,0,0,0,0,0,0,0,0,0,0
2306,2314,2323,2332,2358,2367,2386,2404,2413,2404,2386,2367,2332,2297,2239,2215,2200,2184,2161,2154,2154,2154,2161,2161,2176,2176,2169,2184,2169,2161,2154,2146,2146,2146,2146,2161,2161,2161,2161,2154,2146,2124,2117,2117,2103,2095,2095,2088,2088,2081,2074,2068,2061,2047,2040,2034,2027,2027,2027,2020,2020,2034,2040,2054,2061,2068,2068,2081,2074,2068,2068,2061,2068,2061,2061,2054,2054,2054,2054,2061,2068,2074,2081,2081,2088,2088,2081,2088,2088,2095,2095,2110,2117,2131,2139,2161,2169,2184,2200,2207,2215,2223,2223,2223,2215,2207,2192,2169,2124,2034,1988,1944,1903,1863,1830,1788,1777,1767,1762,1747,1742,1737,1733,1733,1737,1742,1742,1747,1757,1762,1762,1757,1757,1757,1757,1752,1752,1752,1752,1752,1757,1757,1757,1757,1757,1757,1752,1752,1752,1752,1752,1752,1757,1757,1767,1772,1777,1782,1798,1798,1808,1808,1819,1819,1824,1830,1830,1830,1835,1841,1841,1841,1841,1841,1846,1846,1846,1846,1846,1846,1846,1846,1841,1841,1835,1835,1830,1824,1824,1824,1830,1830,1830,1830,1830,1835,1835,1835,1841,1841,1846,1846,1846,1852,1857,1863,1863,1868,1874,1874,1880,1880,1885,1885,1885,1885,1885,1885,1885,1880,1880,1885,1885,1885,1885,1885,1885,1891,1891,1891,1897,1903,1909,1909,1909,1914,1920,1920,1926,1938,1944,1957,1969,1988,1994,1994,2001,1994,2001,1988,1982,1975,1963,1963,1951,1938,1938,1938,1932,1932,0,0,0,0,0,0,0,0,0,0,0,0,0,0,0,0,0,0,0,0,0,0,0,0,0,0,0,0,0,0,0,0,0,0,0,0,0,0,0,0,0,0,384,384,384,385,385,384,383,0,0,0,0,0,0,0,0,0,0,0
2314,2323,2323,2332,2358,2367,2376,2404,2404,2404,2367,2349,2314,2272,2215,2184,2169,2161,2139,2131,2146,0,2169,2176,2176,2176,0,0,2184,2184,2154,2161,2154,2161,2161,2169,2169,2169,2169,2154,2154,2131,2124,2117,2110,2103,2103,2095,2095,2081,2074,2061,2054,2047,2034,2034,2020,2014,2020,2020,2020,2034,2040,2054,2061,2068,2074,2081,2081,2074,2068,2068,2068,2068,2061,2061,2061,2061,2061,2061,2074,2081,2081,2081,2088,2088,2088,2081,2088,2088,2095,2103,2110,2124,2131,2154,2169,2176,2200,2207,2215,2223,2223,2223,2215,2200,2192,2161,2117,2027,1982,1938,1897,1857,1824,1782,1777,1767,1762,1747,1737,1733,1728,1728,1728,1728,1733,1733,1747,1757,1757,1757,1757,1752,1757,1752,1752,1752,1752,1752,1752,1752,1752,1752,1752,1752,1747,1747,1747,1747,1747,1747,1747,1747,1752,1752,1757,1762,1772,1782,1788,1793,1803,1814,1814,1824,1830,1830,1835,1846,1846,1846,1852,1857,1863,1863,1868,1874,1874,1874,1874,1874,1868,1863,1857,1857,1846,1841,1830,1830,1830,1830,1830,1824,1830,1830,1830,1830,1835,1835,1841,1841,1841,1846,1852,1857,1857,1863,1868,1874,1874,1874,1880,1885,1885,1885,1885,1885,1885,1880,1880,1880,1880,1885,1885,1885,1885,1891,1891,1897,1903,1914,1914,1920,1920,1926,1932,1938,1944,1951,1951,1963,1969,1982,1982,1988,1988,1994,1994,1982,1975,1969,1963,1951,1938,1932,1932,1926,1926,0,0,0,0,0,0,0,0,0,0,0,0,0,0,0,0,0,0,0,0,0,0,0,0,0,0,0,0,0,0,0,0,0,0,0,0,0,0,0,0,0,0,383,384,383,383,384,384,384,383,0,0,0,0,0,0,0,0,0,0,0
2314,2323,2332,2332,2358,2367,2376,2395,2395,2395,2341,2323,2280,2247,2215,2161,2146,2131,2110,2103,2117,2124,2139,2154,2161,2169,2169,2184,2184,2184,2154,2161,2154,2154,2161,2161,2169,2169,2169,2161,2154,2139,2124,2117,2117,2110,2103,2095,2095,2081,2074,2061,2054,2040,2027,2020,2020,2014,2014,2014,2014,2027,2040,2047,2054,2068,2074,2074,2074,2074,2074,2074,2074,2074,2068,2068,2068,2068,2068,2068,2074,2074,2074,2068,2074,2068,2068,2061,2068,2074,2074,2088,2095,2110,2117,2146,2154,2169,2192,2207,2215,2215,2223,2223,2215,2200,2184,2154,2117,2027,1975,1932,1891,1857,1824,1782,1777,1772,1762,1747,1742,1733,1728,1728,1728,1728,1733,1733,1747,1752,1752,1757,1757,1752,1757,1752,1752,1752,1752,1752,1752,1752,1752,1752,1752,1747,1747,1747,1747,1747,1747,1747,1742,1742,1747,1747,1752,1757,1762,1772,1777,1782,1798,1803,1808,1819,1824,1830,1835,1846,1846,1852,1857,1868,1874,1880,1885,1891,1891,1891,1891,1891,1885,1874,1868,1863,1857,1852,1835,1835,1830,1830,1824,1819,1824,1824,1824,1824,1830,1830,1835,1835,1841,1841,1846,1852,1852,1857,1868,1868,1874,1874,1880,1880,1880,1880,1885,1885,1885,1880,1880,1880,1880,1885,1885,1885,1885,1891,1897,1903,1909,1920,1926,1926,1932,1932,1938,1944,1951,1951,1957,1963,1969,1975,1982,1975,1982,1988,1988,1982,1969,1963,1957,1951,1938,1938,1932,1926,1926,0,0,0,0,0,0,0,0,0,0,0,0,0,0,0,0,0,0,0,0,0,0,0,0,0,0,0,0,0,0,0,0,0,0,0,0,0,0,0,0,0,382,382,382,383,382,382,382,381,381,380,379,379,378,0,0,376,376,376,376,375
2314,2323,2332,2332,2358,2367,2376,2395,2386,2386,2306,2272,2231,2192,2154,2110,2088,2068,2054,2054,2074,2081,2088,2117,2146,2131,2139,2161,2161,2161,2139,2139,2131,2131,2131,2139,2139,2146,2154,2154,2154,2139,2131,2117,2117,2110,2103,2095,2088,2088,2074,2068,2054,2040,2034,2027,2014,2020,2014,2014,2014,2034,2034,2047,2061,2068,2074,2081,2081,2081,2081,2074,2081,2074,2074,2074,2074,2074,2074,2074,2081,2074,2074,2068,2068,2061,2061,2054,2054,2061,2068,2081,2088,2103,2110,2139,2154,2169,2192,2207,2215,2215,2223,2223,2215,2200,2184,2154,2110,2061,1975,1932,1891,1852,1824,1788,1777,1772,1767,1752,1747,1737,1737,1733,1733,1733,1733,1737,1747,1752,1752,1757,1757,1752,1757,1752,1752,1752,1752,1752,1752,1752,1752,1752,1752,1752,1747,1747,1747,1747,1747,1747,1747,1747,1742,1747,1747,1752,1757,1762,1767,1772,1788,1793,1803,1808,1819,1824,1830,1841,1852,1852,1863,1880,1885,1891,1897,1903,1909,1909,1909,1909,1903,1891,1885,1880,1868,1863,1846,1835,1835,1830,1824,1819,1819,1819,1819,1819,1824,1824,1830,1830,1830,1835,1841,1846,1846,1852,1863,1868,1868,1874,1880,1880,1880,1885,1885,1885,1885,1880,1880,1880,1885,1885,1885,1885,1891,1897,1903,1909,1914,1926,1926,1932,1938,1944,1944,1951,1957,1957,1957,1957,1963,1969,1969,1963,1969,1969,1975,1969,1957,1951,1944,1938,1932,1926,1926,1920,0,0,0,0,0,0,0,0,0,0,0,0,0,0,0,0,0,0,0,0,0,0,0,0,0,0,0,0,0,0,0,0,0,0,0,0,0,0,0,0,0,0,382,382,381,381,381,381,381,380,380,378,378,378,377,375,374,374,374,374,373,371
2306,2314,2314,2323,2332,2341,2349,2358,2358,2349,2289,2256,2200,2169,2131,2081,2061,2040,2034,2034,2047,2054,2068,2081,2095,2110,2117,2139,2139,2139,2124,2117,2117,2117,2110,2117,2124,2131,2139,2139,2146,2139,2131,2124,2117,2110,2103,2095,2095,2088,2081,2074,2061,2054,2040,2034,2034,2027,2027,2027,2027,2040,2047,2054,2061,2074,2081,2081,2088,2081,2081,2081,2081,2074,2081,2074,2074,2074,2068,2068,2068,2061,2061,2054,2054,2047,2047,2047,2047,2054,2061,2074,2081,2095,2110,2139,2154,2169,2192,2207,2215,2223,2223,2223,2223,2200,2184,2146,2110,2061,1969,1926,1885,1852,1824,1788,1777,1772,1767,1757,1747,1742,1742,1737,1737,1737,1737,1742,1747,1757,1752,1757,1757,1752,1757,1752,1752,1752,1752,1752,1752,1752,1752,1752,1752,1752,1752,1752,1752,1752,1752,1752,1747,1747,1747,1747,1747,1747,1752,1757,1762,1767,1772,1782,1788,1798,1814,1814,1824,1841,1852,1863,1874,1891,1903,1909,1914,1920,1926,1926,1926,1926,1920,1909,1897,1891,1880,1863,1846,1841,1835,1830,1819,1808,1808,1808,1808,1808,1808,1808,1808,1814,1819,1819,1824,1830,1835,1841,1852,1852,1857,1868,1874,1874,1880,1880,1885,1885,1885,1885,1891,1891,1891,1891,1891,1891,1897,1909,1914,1920,1932,1951,1957,1969,1975,1982,1988,1994,1988,1988,1982,1975,1969,1963,1963,1957,1957,1957,1963,1963,1957,1951,1938,1938,1932,1926,0,0,0,0,0,0,0,0,0,0,0,0,0,0,0,0,0,0,0,0,0,0,0,0,0,0,0,0,0,0,0,0,0,0,0,0,0,0,0,0,0,0,0,0,0,381,380,0,0,380,380,379,379,378,377,377,375,375,373,373,373,372,371,370
2289,2289,2297,2314,2323,2323,2341,2341,2341,2349,2323,2231,2176,2131,2103,2061,2027,2014,2007,2007,2027,2034,2054,2061,2081,2088,2095,2117,2117,2117,2110,2103,2103,2103,2095,2103,2103,2110,2117,2117,2124,2124,2117,2117,2117,2110,2103,2095,2095,2081,2081,2074,2068,2054,2047,2040,2040,2034,2034,2034,2034,2047,2047,2061,2068,2081,2088,2088,2088,2088,2088,2081,2081,2081,2081,2074,2068,2068,2068,2061,2061,2054,2054,2047,2047,2040,2040,2040,2047,2054,2061,2074,2088,2095,2110,2139,2154,2169,2192,2207,2215,2223,2223,2223,2223,2200,2184,2146,2103,2061,1969,1920,1885,1846,1819,1788,1782,1772,1767,1757,1752,1747,1742,1742,1737,1742,1737,1737,1747,1752,1752,1757,1752,1757,1757,1752,1752,1752,1752,1752,1752,1752,1752,1752,1752,1752,1752,1757,1757,1757,1757,1752,1752,1752,1747,1747,1747,1747,1747,1752,1752,1757,1772,1777,1788,1793,1808,1814,1824,1835,1846,1863,1874,1897,1909,1920,1932,1938,1938,1944,1944,1938,1932,1920,1909,1897,1885,1874,1852,1846,1835,1830,1814,1808,1803,1803,1803,1803,1803,1803,1803,1808,1808,1814,1819,1824,1830,1835,1846,1852,1857,1863,1868,1874,1880,1880,1885,1885,1891,1891,1891,1897,1897,1897,1897,1897,1903,1914,1926,1932,1944,1963,1975,1982,1994,2001,2007,2014,2007,2001,1994,1988,1975,1963,1957,1951,1951,1951,1951,1951,1944,1944,1938,1938,1932,0,0,0,0,0,0,0,0,0,0,0,0,0,0,0,0,0,0,0,0,0,0,0,0,0,0,0,0,0,0,0,0,0,0,0,0,0,0,0,0,0,0,0,0,0,0,381,380,380,379,379,379,378,378,377,376,375,375,374,372,372,371,371,369,0
2272,2272,2280,2297,2306,2314,2323,2323,2323,2323,2297,2207,2154,2110,2081,2034,2001,1988,1982,1988,1994,2001,2014,2020,2034,2040,2047,2068,2074,2068,2068,2074,2068,2068,2068,2074,2081,2081,2088,2103,2103,2110,2110,2110,2110,2103,2095,2088,2088,2081,2074,2074,2068,2047,2040,2034,2034,2034,2034,2040,2040,2047,2054,2061,2068,2081,2081,2081,2081,2081,2081,2074,2074,2074,2074,2068,2068,2068,2061,2054,2054,2040,2040,2040,2040,2034,2034,2040,2047,2054,2061,2081,2088,2103,2117,2146,2161,2176,2200,2215,2223,2231,2231,2231,2223,2207,2184,2154,2110,2061,1969,1920,1885,1846,1819,1793,1782,1777,1772,1762,1757,1752,1747,1747,1747,1742,1747,1742,1752,1752,1752,1757,1757,1757,1757,1757,1757,1757,1757,1757,1757,1757,1757,1757,1762,1762,1762,1762,1767,1767,1767,1762,1762,1757,1757,1752,1752,1747,1747,1752,1752,1757,1767,1772,1782,1788,1798,1803,1814,1830,1846,1857,1868,1891,1903,1914,1932,1932,1938,1938,1938,1938,1932,1914,1903,1891,1885,1874,1852,1846,1841,1830,1819,1808,1808,1803,1798,1798,1798,1798,1798,1803,1803,1808,1819,1819,1830,1830,1841,1846,1852,1857,1868,1874,1880,1880,1885,1891,1891,1891,1897,1897,1897,1903,1903,1903,1909,1920,1932,1938,1951,1982,1988,2001,2007,2020,2027,2034,2020,2020,2007,2001,1982,1963,1957,1944,1944,1938,1944,1938,1938,1938,1938,1938,1932,0,0,0,0,0,0,0,0,0,0,0,0,0,0,0,0,0,0,0,0,0,0,0,0,0,0,0,0,0,0,0,0,0,0,0,0,0,0,0,0,0,0,0,0,0,0,380,379,379,379,378,378,377,376,375,374,373,373,371,370,369,369,368,367,365
2231,2239,2256,2264,2289,2297,2297,2297,2297,2297,2289,2176,2124,2088,2054,2020,1982,1975,1969,1969,1975,1982,1982,1988,1988,1994,2007,2007,2020,2027,2034,2040,2047,2047,2054,2061,2061,2068,2068,2081,2081,2081,2088,2088,2088,2088,2088,2088,2081,2074,2074,2068,2054,2047,2047,2040,2040,2040,2040,2047,2047,2054,2054,2068,2068,2081,2081,2081,2074,2081,2074,2074,2081,2081,2081,2081,2074,2068,2068,2061,2054,2047,2047,2047,2047,2040,2047,2047,2061,2068,2081,2103,2110,2124,2139,2169,2176,2192,2215,2231,2247,2247,2256,2247,2247,2223,2200,2161,2117,2068,1969,1926,1885,1846,1819,1788,1782,1777,1772,1767,1762,1757,1752,1752,1747,1747,1747,1747,1752,1752,1757,1757,1757,1757,1757,1757,1757,1762,1762,1762,1762,1762,1762,1762,1762,1762,1767,1772,1772,1772,1772,1767,1767,1762,1762,1757,1757,1752,1752,1752,1757,1757,1767,1777,1777,1782,1798,1803,1808,1824,1835,1846,1863,1885,1891,1903,1914,1920,1926,1926,1932,1926,1920,1903,1897,1891,1880,1874,1857,1852,1846,1841,1824,1814,1808,1803,1803,1798,1798,1798,1798,1803,1803,1803,1808,1819,1824,1830,1841,1846,1852,1857,1868,1874,1880,1880,1891,1891,1891,1897,1897,1897,1903,1903,1903,1909,1909,1926,1938,1944,1963,1994,2001,2014,2027,2040,2047,2047,2040,2027,2020,2007,1982,1969,1957,1938,1926,1926,1920,1920,1920,1926,1926,1926,1932,0,0,0,0,0,0,0,0,0,0,0,0,0,0,0,0,0,0,0,0,0,0,0,0,0,0,0,0,0,0,0,0,0,0,0,0,0,0,0,0,0,0,0,0,0,0,0,0,378,378,377,377,376,375,375,373,372,371,370,369,368,367,367,366,364
2215,2223,2239,2256,2280,2289,2289,2289,2289,2297,2280,2169,2117,2081,2054,2027,1982,1975,1969,1975,1975,1982,1988,1988,1994,2001,2001,2001,2014,2014,2027,2034,2040,2047,2047,2061,2061,2068,2068,2074,2081,2088,2088,2095,2088,2095,2088,2081,2081,2081,2074,2068,2061,2054,2047,2047,2040,2040,2047,2047,2047,2054,2054,2061,2068,2074,2074,2074,2068,2068,2068,2074,2074,2081,2081,2081,2074,2074,2068,2061,2061,2054,2054,2054,2054,2047,2054,2061,2074,2081,2088,2110,2124,2139,2146,2176,2192,2207,2231,2247,2256,2264,2264,2264,2256,2239,2215,2176,2124,2074,1975,1926,1885,1846,1814,1788,1782,1777,1772,1767,1762,1757,1757,1752,1752,1752,1752,1752,1757,1757,1757,1762,1762,1762,1762,1762,1762,1762,1762,1762,1762,1762,1762,1762,1762,1767,1767,1772,1772,1777,1777,1772,1772,1767,1762,1762,1762,1757,1757,1757,1757,1762,1772,1777,1782,1788,1798,1798,1803,1808,1824,1835,1841,1852,1863,1868,1874,1885,1891,1891,1897,1897,1891,1885,1880,1874,1874,1868,1857,1857,1852,1846,1830,1819,1814,1808,1803,1798,1798,1798,1798,1803,1808,1808,1808,1819,1824,1830,1846,1852,1863,1863,1874,1880,1880,1885,1897,1897,1897,1903,1903,1903,1909,1909,1909,1914,1914,1926,1938,1951,1969,2001,2014,2027,2040,2061,2061,2068,2054,2047,2040,2027,1994,1982,1969,1951,1938,1926,1926,1920,1920,1920,1920,0,0,0,0,0,0,0,0,0,0,0,0,0,0,0,0,0,0,0,0,0,0,0,0,0,0,0,0,0,0,0,0,0,0,0,0,0,0,0,0,0,0,0,0,0,0,0,0,0,0,378,377,377,376,376,375,373,371,370,369,369,368,366,366,365,364,363
2207,2223,2231,2247,2280,2289,2297,2306,2297,2297,2280,2184,0,2103,2068,2034,1994,1988,1988,1994,2001,2001,2007,2007,2007,2001,2007,2007,2014,2014,2020,2034,2040,2047,2047,2061,2068,2068,2074,2081,2088,2088,2088,2095,2088,2088,2088,2088,2088,2081,2081,2074,2068,2061,2054,2054,2047,2047,2047,2047,2047,2054,2054,2061,2068,2068,2068,2074,2074,2074,2074,2074,2074,2081,2088,2088,2088,2081,2081,2074,2074,2068,2068,2061,2068,2068,2068,2074,2081,2095,2103,2124,2139,2146,2161,2192,2200,2215,2247,2256,2272,2272,2280,2272,2272,2247,2223,2184,2131,2081,1975,1932,1885,1846,1814,1782,1772,1767,1767,1762,1757,1752,1752,1752,1752,1752,1752,1752,1762,1762,1762,1767,1762,1767,1767,1762,1762,1762,1762,1762,1762,1762,1762,1762,1767,1767,1772,1772,1772,1772,1772,1772,1767,1767,1767,1762,1762,1762,1767,1772,1772,1777,1788,1788,1793,1793,1798,1803,1808,1808,1814,1824,1830,1841,1846,1857,1863,1874,1880,1885,1885,1885,1880,1880,1874,1868,1868,1868,1868,1868,1868,1863,1846,1841,1830,1824,1819,1814,1814,1814,1814,1819,1824,1824,1835,1841,1846,1852,1857,1863,1868,1874,1880,1880,1885,1891,1897,1897,1897,1903,1903,1909,1909,1909,1909,1909,1914,1932,1944,1951,1963,1994,2014,2034,2047,2061,2074,2074,2068,2061,2047,2034,2007,1988,1975,1963,1938,1932,1932,1926,1926,1914,1926,0,0,0,0,0,0,0,0,0,0,0,0,0,0,0,0,0,0,0,0,0,0,0,0,0,0,0,0,0,0,0,0,0,0,0,0,0,0,0,0,0,0,0,0,0,0,0,0,0,0,377,377,376,375,375,373,372,370,369,368,367,366,365,364,364,363,363
2192,2215,2231,2256,2289,2306,2314,2323,2323,2306,2297,2200,0,2124,2088,2040,2027,2020,2014,2020,2027,2027,2034,2027,2020,2020,2020,2020,2020,2020,2027,2040,2047,2054,2061,2074,2081,2081,2088,2095,2095,2095,2095,2103,2095,2095,2095,2095,2095,2088,2088,2081,2074,2068,2061,2061,2061,2054,2054,2061,2054,2061,2061,2061,2068,2074,2074,2074,2068,2074,2074,2074,2074,2088,2095,2095,2095,2095,2088,2088,2088,2081,2081,2081,2088,2088,2088,2088,2095,2103,2110,2131,2146,2154,2176,2207,2215,2239,2280,2297,2306,2314,2314,2314,2306,2280,2256,2215,2161,2103,1994,1944,1891,1852,1819,1777,1772,1767,1762,1757,1752,1752,1747,1747,1747,1752,1752,1757,1767,1772,1772,1772,1772,1772,1772,1767,1767,1767,1772,1772,1767,1767,1767,1767,1767,1767,1767,1772,1767,1767,1767,1767,1767,1767,1767,1767,1767,1767,1772,1772,1777,1782,1788,1793,1798,1798,1803,1803,1803,1803,1808,1814,1819,1830,1835,1841,1852,1863,1868,1874,1874,1874,1874,1868,1868,1868,1868,1868,1868,1874,1880,1868,1857,1852,1841,1835,1830,1824,1824,1824,1824,1835,1835,1835,1846,1852,1857,1863,1868,1874,1880,1880,1885,1885,1891,1897,1897,1903,1903,1903,1903,1909,1909,1909,1909,1914,1914,1926,1938,1951,1963,1994,2014,2034,2047,2068,2081,2081,2074,2068,2061,2034,2020,2007,1988,1969,1951,1938,1932,1926,1920,1920,1920,0,0,0,0,0,0,0,0,0,0,0,0,0,0,0,0,0,0,0,0,0,0,0,0,0,0,0,0,0,0,0,0,0,0,0,0,0,0,0,0,0,0,0,0,0,0,0,0,0,0,0,0,376,374,373,372,371,369,366,366,365,364,363,362,362,361,361
2192,2223,2239,2256,2306,2323,2341,2349,2332,2323,2306,2223,2184,2146,2117,2068,2054,2047,2047,2047,2054,2054,2061,2054,2047,2040,2040,2034,2034,2040,2047,2068,2068,2074,2081,2088,2095,2095,2103,2103,2103,2110,2103,2110,2110,2110,2110,2110,2110,2103,2103,2095,2088,2081,2081,2074,2074,2068,2061,2068,2061,2068,2068,2074,2074,2074,2074,2081,2081,2081,2088,2095,2095,2110,2117,2117,2117,2117,2117,2117,2110,2110,2117,2117,2117,2117,2110,2117,2124,2131,2131,2154,2169,2176,2192,2223,2247,2272,2297,2306,2323,2332,2341,2332,2323,2297,2280,2231,2176,2117,2001,1944,1897,1852,1814,1772,1767,1757,1757,1752,1747,1747,1742,1742,1747,1747,1752,1757,1767,1772,1777,1777,1777,1777,1772,1772,1772,1772,1772,1772,1772,1772,1772,1767,1772,1767,1767,1767,1767,1767,1762,1762,1762,1762,1762,1767,1767,1767,1772,1777,1782,1788,1798,1798,1798,1803,1803,1798,1803,1803,1803,1803,1808,1819,1824,1824,1835,1846,1857,1857,1863,1863,1857,1857,1857,1863,1863,1868,1874,1885,1885,1880,1868,1863,1852,1852,1841,1835,1835,1835,1835,1841,1846,1846,1857,1863,1868,1874,1880,1885,1891,1891,1897,1897,1897,1903,1909,1903,1909,1909,1909,1909,1909,1909,1909,1914,1914,1932,1944,1957,1969,2001,2020,2034,2054,2074,2081,2081,2074,2068,2061,2034,2020,2001,1988,1975,1951,1944,1938,1932,1920,1914,1914,0,0,0,0,0,0,0,0,0,0,0,0,0,0,0,0,0,0,0,0,0,0,0,0,0,0,0,0,0,0,0,0,0,0,0,0,0,0,0,0,0,0,0,0,0,0,0,0,0,0,0,0,0,374,373,0,0,368,366,365,364,363,363,361,361,360,360
2200,2239,2264,2280,2332,2349,2358,2367,2358,2349,2332,2264,2231,2207,2184,2139,2131,2124,2124,2117,2110,2110,2117,2110,2103,2095,2088,2081,2088,2088,2095,2117,2124,2131,2139,2139,2139,2139,2131,2131,2131,2124,2117,2117,2117,2117,2110,2110,2117,2110,2110,2103,2095,2088,2081,2081,2081,2074,2074,2074,2068,2068,2074,2081,2081,2081,2081,2088,2088,2095,2095,2103,2110,2124,2124,2124,2131,2131,2131,2131,2131,2131,2139,2131,2131,2131,2131,2131,2131,2139,2139,2161,2176,2184,2200,2239,2264,2280,2323,2332,2341,2358,2358,2358,2341,2314,2297,2256,2200,2074,2014,1957,1903,1857,1814,1767,1757,1752,1752,1742,1742,1737,1737,1737,1742,1747,1752,1752,1767,1777,1782,1782,1782,1782,1777,1777,1772,1772,1772,1772,1772,1772,1772,1772,1772,1767,1767,1767,1762,1762,1757,1757,1757,1757,1757,1762,1767,1767,1777,1782,1788,1793,1798,1803,1803,1798,1798,1803,1798,1793,1798,1798,1798,1803,1808,1814,1819,1830,1841,1846,1846,1852,1852,1852,1852,1863,1863,1868,1880,1891,1891,1885,1880,1874,1863,1857,1846,1846,1846,1841,1846,1852,1863,1863,1874,1880,1885,1891,1891,1897,1897,1897,1903,1903,1903,1909,1914,1909,1909,1909,1914,1914,1914,1914,1920,1920,1926,1944,1951,1963,1982,2014,2027,2040,2054,2068,2074,2074,2074,2061,2061,2047,2034,2020,2007,2001,1969,1957,1951,1944,1932,0,0,0,0,0,0,0,0,0,0,0,0,0,0,0,0,0,0,0,0,0,0,0,0,0,0,0,0,0,0,0,0,0,0,0,0,0,0,0,0,0,0,0,0,0,0,0,0,0,0,0,0,0,0,0,0,0,0,369,367,365,364,363,363,362,361,360,360,359
2223,2264,2280,2306,2349,2367,2376,2386,2376,2358,2341,2289,2272,2247,2215,2184,2176,2169,2169,2154,2146,2154,2154,2139,2131,2124,2117,2124,2124,2124,2131,2146,2154,2161,2169,2169,2161,2154,2154,2146,2139,2139,2131,2131,2124,2124,2124,2124,2124,2117,2117,2110,2110,2103,2095,2088,2088,2088,2081,2081,2074,2074,2081,2088,2088,2088,2095,2103,2103,2103,2117,2117,2131,2131,2139,2139,2146,2146,2146,2154,2154,2154,2154,2154,2154,2146,2139,2146,2146,2154,2154,2169,2184,2192,2207,2256,2280,2297,2341,2358,2376,2376,2376,2376,2349,2341,2314,2280,2223,2095,2034,1969,1914,1863,1819,1762,1752,1742,1737,1733,1728,1723,1723,1723,1733,1737,1742,1747,1767,1777,1782,1782,1782,1782,1777,1777,1777,1777,1777,1777,1772,1772,1772,1772,1772,1772,1767,1767,1762,1757,1757,1752,1752,1752,1757,1762,1772,1772,1788,1793,1793,1803,1808,1808,1808,1808,1803,1803,1803,1798,1798,1793,1798,1798,1808,1814,1819,1830,1835,1835,1841,1846,1852,1852,1857,1868,1874,1880,1891,1903,1909,1903,1897,1891,1885,1874,1874,1868,1863,1863,1863,1868,1868,1874,1880,1885,1891,1891,1891,1891,1891,1891,1897,1897,1903,1903,1914,1909,1909,1909,1914,1914,1914,1920,1920,1926,1932,1944,1951,1969,1982,2007,2027,2040,2047,2068,2068,2068,2061,2054,2054,2054,2034,2027,2014,2007,1982,1975,1969,1957,0,0,0,0,0,0,0,0,0,0,0,0,0,0,0,0,0,0,0,0,0,0,0,0,0,0,0,0,0,0,0,0,0,0,0,0,0,0,0,0,0,0,0,0,0,0,0,0,0,0,0,0,0,0,0,0,0,0,0,0,366,364,363,363,362,361,360,360,359,359
2247,2289,2306,2323,2376,2386,2395,2395,2386,2367,2358,2314,2297,2280,2256,2223,2215,2215,2207,2200,2192,2192,2192,2184,2169,2161,2154,2161,2161,2161,2169,2184,2184,2192,2192,2192,2192,2184,2176,2169,2161,2146,2139,2139,2131,2131,2131,2131,2131,2124,2124,2124,2124,2110,2110,2103,2103,2095,2095,2088,2088,2088,2088,2095,2095,2103,2103,2117,2117,2131,2131,2131,2146,2146,2154,2154,2161,2161,2161,2169,2169,2169,2169,2169,2169,2161,2154,2154,2161,2176,2176,2207,2223,2239,2297,2323,2349,2376,2413,2423,2432,2442,2432,2423,2404,2386,2367,2332,2272,2131,2061,1994,1926,1874,1824,1762,1742,1737,1733,1723,1718,1718,1718,1718,1723,1728,1737,1742,1767,1772,1782,1788,1782,1782,1782,1777,1777,1777,1777,1777,1777,1777,1777,1777,1777,1777,1767,1767,1762,1757,1752,1752,1752,1752,1757,1767,1772,1782,1793,1793,1803,1808,1814,1814,1814,1808,1808,1803,1803,1798,1798,1793,1798,1798,1803,1814,1819,1830,1835,1841,1841,1852,1846,1852,1857,1863,1874,1880,1885,1903,1909,1909,1903,1897,1885,1880,1880,1874,1874,1868,1874,1874,1880,1880,1885,1885,1891,1897,1897,1897,1891,1891,1897,1897,1897,1903,1909,1903,1903,1903,1909,1909,1914,1914,1926,1932,1938,1951,1957,1969,1982,2014,2027,2034,2040,2054,2061,2061,2047,2040,2047,2034,2027,2020,2014,2007,1988,0,0,0,0,0,0,0,0,0,0,0,0,0,0,0,0,0,0,0,0,0,0,0,0,0,0,0,0,0,0,0,0,0,0,0,0,0,0,0,0,0,0,0,0,0,0,0,0,0,0,0,0,0,0,0,0,0,0,0,0,0,0,0,0,364,362,362,361,360,359,359,358,358
2264,2297,2323,2341,2386,2395,2404,2404,2404,2386,2367,2332,2323,2306,2289,2264,2264,2256,2247,2239,2231,2231,2231,2215,2215,2200,2192,2200,2200,2200,2207,2223,2256,2256,2256,2247,2239,2223,2215,2207,2200,2176,2169,2161,2154,2154,2154,2154,2154,2154,2154,2146,2139,2131,2124,2124,2110,2103,2103,2095,2095,2103,2110,2110,2110,2131,2139,2146,2146,2161,2169,2169,2176,2184,2184,2184,2192,2192,2192,2200,2200,2200,2192,2200,2192,2184,2184,2192,2192,2200,2207,2247,2272,2297,2349,2367,2395,2423,2452,2461,2461,2461,2461,2452,2423,2404,2386,2358,2297,2146,2074,2001,1932,1880,1824,1752,1742,1733,1723,1718,1713,1713,1713,1709,1718,1723,1733,1737,1767,1777,1777,1782,1782,1782,1777,1777,1777,1777,1777,1777,1782,1777,1782,1782,1777,1777,1772,1767,1762,1757,1752,1747,1747,1747,1757,1772,1777,1782,1798,1798,1803,1808,1808,1808,1814,1808,1808,1803,1798,1793,1798,1793,1798,1803,1808,1814,1819,1830,1841,1841,1841,1846,1857,1852,1857,1863,1874,1885,1891,1909,1909,1909,1909,1909,1897,1891,1885,1885,1880,1874,1880,1880,1880,1880,1885,1891,1891,1891,1891,1891,1885,1885,1885,1891,1891,1897,1897,1897,1897,1897,1903,1909,1909,1920,1932,1938,1944,1963,1969,1982,1994,2020,2027,2034,2034,2034,2034,2027,2001,2001,2001,1994,1994,1988,1988,1988,1975,1975,0,0,0,0,0,0,0,0,0,0,0,0,0,0,0,0,0,0,0,0,0,0,0,0,0,0,0,0,0,0,0,0,0,0,0,0,0,0,0,0,0,0,0,0,0,0,0,0,0,0,0,0,0,0,0,0,0,0,0,0,0,0,0,0,0,361,360,360,359,358,358,357
2297,2332,2358,2376,2413,2423,2432,2423,2413,2404,2386,2358,2349,2332,2314,2306,2306,2306,2289,2280,2272,2264,2264,2256,2256,2247,2247,2256,2272,2272,2289,2289,2289,2289,2280,2272,2272,2247,2231,2231,2215,2192,2184,2176,2176,2169,2169,2169,2169,2169,2169,2161,2154,2146,2139,2131,2117,2110,2103,2103,2103,2103,2110,2117,2117,2131,2139,2146,2154,2169,2176,2184,2192,2192,2200,2200,2207,2207,2207,2207,2215,2215,2215,2207,2207,2207,2207,2215,2223,2239,2256,2306,2332,2358,2404,2432,2452,2481,2491,2501,2501,2501,2491,2481,2452,2432,2413,2367,2306,2154,2074,2001,1932,1874,1824,1752,1737,1728,1718,1709,1709,1709,1704,1709,1713,1718,1728,1737,1762,1772,1777,1782,1782,1782,1777,1777,1777,1777,1777,1782,1782,1782,1782,1782,1782,1777,1772,1767,1762,1762,1752,1752,1752,1752,1757,1777,1782,1788,1798,1798,1798,1803,1803,1803,1808,1803,1803,1803,1798,1793,1798,1798,1798,1808,1814,1819,1830,1846,1846,1846,1852,1857,1857,1857,1863,1880,1880,1891,1897,1914,1914,1914,1914,1914,1909,1914,1914,1909,1909,1891,1885,1885,1880,1880,1880,1885,1885,1891,1885,1885,1880,1880,1885,1885,1885,1885,1897,1891,1897,1897,1903,1909,1909,1920,1944,1957,1975,1988,2001,2014,2014,2034,2034,2034,2020,2020,2014,2001,1975,1969,1969,1969,1963,1963,1963,1969,1963,1963,1963,1957,0,0,0,0,1951,1957,1963,0,0,0,0,0,0,0,0,0,0,0,0,0,0,0,0,0,0,0,0,0,0,0,0,0,0,0,0,0,0,0,0,0,0,0,0,0,0,0,0,0,0,0,0,0,0,0,0,0,0,0,0,0,0,0,0,0,0,0,0,358,357,357
2306,2349,2367,2386,2413,2423,2432,2423,2413,2404,2376,2358,2358,2341,2323,2323,2323,2314,2306,2297,2280,2289,2272,2272,2264,2256,2264,2272,2280,2280,2297,2297,2297,2297,2289,2289,2280,2256,2247,2239,2223,2200,2192,2192,2184,2176,2184,2184,2184,2184,2184,2176,2169,2154,2146,2139,2124,2117,2110,2103,2103,2110,2110,2117,2117,2131,2146,2146,2161,2176,2184,2192,2200,2207,2207,2207,2215,2223,2223,2223,2231,2231,2231,2231,2231,2231,2239,2256,2264,2289,2306,2358,2386,2423,2461,2481,2501,2521,2532,2521,2532,2521,2521,2501,2471,2452,2423,2386,2314,2161,2074,2001,1932,1868,1814,1747,1733,1723,1713,1704,1695,1695,1695,1695,1699,1709,1709,1723,1752,1762,1767,1767,1772,1777,1777,1777,1777,1777,1777,1782,1782,1782,1782,1788,1788,1788,1777,1777,1767,1767,1757,1757,1757,1762,1767,1782,1788,1793,1798,1798,1798,1798,1803,1803,1808,1803,1803,1803,1803,1798,1803,1808,1808,1814,1824,1835,1841,1846,1846,1846,1852,1857,1857,1857,1863,1874,1880,1891,1897,1914,1914,1914,1920,1914,1914,1914,1909,1914,1909,1897,1891,1885,1885,1880,1885,1880,1885,1885,1885,1880,1874,1874,1874,1874,1880,1880,1891,1891,1891,1891,1897,1903,1914,1926,1957,1969,1988,2007,2020,2020,2027,2034,2034,2027,2007,1994,1982,1969,1944,1938,1938,1938,1938,1944,1944,1951,1951,1944,1951,1944,1938,1938,1944,1944,1951,1957,1963,1969,0,0,0,0,0,0,0,0,0,0,0,0,0,0,0,0,0,0,0,0,0,0,0,0,0,0,0,0,0,0,0,0,0,0,0,0,0,0,0,0,0,0,0,0,0,0,0,0,0,0,0,0,0,0,0,0,0,0,0,358,357,356
2323,2358,2367,2386,2423,2423,2432,2423,2413,2404,2386,2367,2358,2349,2332,2323,2323,2323,2314,2306,2297,2289,2280,2272,2272,2264,2272,2280,2280,2280,2289,2297,2306,2306,2306,2297,2297,2280,2264,2256,2239,2207,2207,2200,2192,2192,2192,2192,2200,2200,2200,2200,2184,2169,2161,2146,2131,2117,2110,2110,2103,2110,2110,2117,2124,2139,2146,2154,2161,2184,2192,2200,2207,2215,2215,2223,2231,2239,2231,2256,2256,2264,2272,2280,2289,2297,2306,2341,2349,2367,2423,2452,2471,2491,2532,2542,2563,2574,2574,2574,2574,2563,2563,2542,2501,2471,2452,2404,2341,2176,2081,2001,0,1868,1814,1742,1733,1718,1709,1699,1690,1686,1686,1690,1695,1699,1709,1718,1747,1752,1757,1762,1767,1772,1772,1772,1777,1777,1777,1782,1782,1782,1782,1788,1788,1788,1777,1777,1772,1772,1767,1762,1762,1762,1777,1782,1793,1793,1803,1793,1798,1798,1803,1803,1803,1803,1808,1814,1808,1808,1814,1814,1824,1824,1841,1841,1846,1846,1846,1852,1852,1857,1857,1863,1863,1874,1880,1891,1897,1909,1909,1909,1914,1914,1914,1909,1909,1909,1914,1903,1891,1891,1885,1885,1880,1880,1880,1880,1880,1874,1868,1863,1863,1868,1868,1874,1880,1880,1880,1885,1891,1897,1909,1926,1957,1975,1994,2014,2014,2027,2027,2020,2020,2007,1982,1969,1957,1938,1914,1909,1914,1914,1914,1926,1926,1932,1920,1920,1926,1926,1926,1932,1938,1938,1944,1957,1963,1969,1975,1994,2001,0,0,0,0,0,0,0,0,0,0,0,0,0,0,0,0,0,0,0,0,0,0,0,0,0,0,0,0,0,0,0,0,0,0,0,0,0,0,0,0,0,0,0,0,0,0,0,0,0,0,0,0,0,0,0,0,0,0,0
2323,2358,2376,2395,2423,2432,2432,2423,2413,2404,2395,2367,2358,2349,2332,2332,2323,2323,2314,2306,2314,2306,2297,2297,2289,2280,2272,2280,2280,2289,2289,2297,2297,2297,2297,2297,2297,2289,2280,2272,2264,2239,2223,2223,2215,2215,2215,2215,2223,2231,2239,2239,2223,2207,2192,2184,2154,2139,2131,2117,2117,2117,2117,2117,2124,2139,2146,2161,2169,2184,2192,2207,2215,2223,2231,2231,2247,2256,2256,2272,2272,2280,2289,2306,2314,2323,2332,2367,2386,2404,2452,2481,2501,2521,2553,2563,2584,2595,2595,2595,2584,2574,2563,2542,2511,2481,2452,2423,2349,2289,2088,2001,1932,1868,1808,1772,1728,1713,1704,1699,1686,1681,1681,1681,1686,1699,1704,1713,1737,1747,1752,1757,1767,1767,1767,1772,1772,1777,1777,1777,1777,1782,1782,1788,1788,1788,1777,1777,1777,1772,1767,1762,1762,1767,1777,1788,1788,1793,1793,1798,1798,1798,1803,1803,1803,1808,1814,1814,1814,1819,1824,1830,1835,1841,1841,1846,1846,1852,1852,1852,1857,1857,1863,1863,1868,1874,1880,1897,1897,1909,1914,1909,1914,1914,1909,1909,1909,1909,1909,1903,1897,1897,1891,1885,1885,1885,1880,1880,1874,1868,1863,1863,1857,1863,1863,1863,1868,1868,1874,1874,1880,1891,1897,1914,1957,1969,1982,1994,2001,2001,2001,1988,1975,1963,1944,1932,1920,1914,1897,1891,1885,1885,1885,1891,1903,1903,1914,1914,1920,1920,1920,1926,1932,1938,1944,1957,1963,1975,1982,1994,2001,2007,2007,2001,2001,0,0,0,0,0,0,0,0,0,0,0,0,0,0,0,0,0,0,0,0,0,0,0,0,0,0,0,0,0,0,0,0,0,0,0,0,0,0,0,0,0,0,0,0,0,0,0,0,0,0,0,0,0,0,0
2332,2358,2376,2386,2413,2423,2423,2413,2413,2404,2395,2367,2358,2349,2332,2332,2332,2332,2332,2332,2323,2323,2306,2306,2297,2289,2280,2280,2280,2280,2280,2289,2297,2297,2297,2297,2297,2289,2280,2272,2264,2247,2231,2231,2231,2223,2223,2231,2239,2256,2256,2256,2239,2231,2215,2200,2169,2154,2139,2131,2124,2124,2124,2124,2131,2139,2154,2154,2169,2192,2200,2207,2223,2231,2239,2239,2256,2264,2264,2280,2289,2297,2306,2332,2332,2349,2358,2386,2404,2432,2481,2501,2521,2542,2574,2584,2584,2606,2606,2606,2595,2574,2574,2553,2511,2491,2461,2423,2367,2215,0,2014,0,1874,1808,1767,1728,1713,1704,1695,1681,1681,1676,1681,1681,1690,1704,1718,1733,1733,1737,1742,1752,1757,1762,1767,1772,1772,1777,1777,1777,1777,1777,1782,1782,1782,1777,1777,1772,1772,1767,1767,1767,1767,1777,1788,1793,1793,1798,1798,1798,1798,1803,1803,1808,1814,1814,1819,1819,1824,1830,1835,1841,1846,1852,1857,1857,1857,1857,1863,1863,1863,1863,1868,1868,1874,1880,1897,1903,1909,1909,1909,1920,1914,1914,1914,1914,1914,1914,1903,1903,1897,1897,1891,1891,1891,1891,1891,1891,1885,1885,1880,1880,1874,1874,1868,1874,1868,1868,1874,1885,1891,1903,1920,1957,1969,1982,1994,1994,1994,1982,1975,1963,1951,1932,1920,1914,1909,1897,1885,1880,1885,1885,1885,1891,1897,1903,1909,1909,1914,1914,1920,1926,1938,1944,1957,1963,1975,1982,2001,2001,2001,2001,2001,2001,2001,1994,0,0,0,0,0,0,0,0,0,0,0,0,0,0,0,0,0,0,0,0,0,0,0,0,0,0,0,0,0,0,0,0,0,0,0,0,0,0,0,0,0,0,0,0,0,0,0,0,0,0,0,0,0
2332,2349,2367,2386,2413,2413,2413,2413,2404,2395,2386,2367,2358,2349,2341,2341,2332,2341,2341,2332,2332,2332,2323,2314,2306,2289,2280,2280,2280,2280,2280,2289,2289,2289,2289,2297,2289,2289,2280,2272,2272,2256,2239,2239,2231,2231,2239,2239,2247,2264,2272,2272,2264,2256,2239,2223,2192,2176,2161,2146,2131,2131,2124,2124,2131,2139,2154,2161,2169,2192,2207,2207,2231,2239,2247,2247,2264,2272,2280,2289,2297,2306,2323,2341,2349,2358,2376,2395,2423,2442,2491,2521,2542,2563,2584,2584,2595,2595,2595,2584,2584,2574,2563,2542,2511,2481,2461,2432,2358,2247,0,2040,0,1880,1808,1757,1728,1713,1704,1690,1676,1676,1676,1676,1681,1690,1699,1709,1723,1728,1737,1742,1747,1752,1757,1762,1772,1772,1777,1777,1777,1777,1777,1777,1777,1777,1777,1772,1772,1772,1767,1772,1772,1777,1782,1793,1788,1793,1793,1793,1793,1793,1803,1808,1814,1824,1846,1857,1868,1880,1885,1891,1885,1891,1885,1880,1885,1885,1880,1880,1880,1874,1874,1874,1874,1880,1885,1891,1903,1909,1914,1914,1914,1914,1914,1909,1914,1914,1914,1909,1909,1903,1903,1897,1897,1897,1897,1897,1897,1891,1891,1891,1885,1885,1880,1880,1880,1880,1880,1880,1891,1891,1909,1914,1951,1963,1969,1982,1975,1975,1975,1963,1951,1944,1926,1920,1909,1903,1897,1885,1885,1885,1885,1885,1891,1897,1897,1903,1903,1909,1909,1920,1926,1932,1938,1957,1969,1975,1982,1994,2001,2007,2007,2007,2001,1994,1994,0,0,0,0,0,0,0,0,0,0,0,0,0,0,0,0,0,0,0,0,0,0,0,0,0,0,0,0,0,0,0,0,0,0,0,0,0,0,0,0,0,0,0,0,0,0,0,0,0,0,0,0,0
2341,2358,2367,2386,2404,2404,2404,2395,2386,2386,2367,2358,2349,2349,2341,2341,2341,2349,2349,2349,2349,2349,2341,2323,2314,2306,2280,2280,2280,2280,2280,2280,2289,2280,2280,2289,2289,2280,2280,2280,2272,2264,2247,2247,2239,2247,2247,2256,2264,2280,2280,2280,2272,2264,2264,2247,2207,2192,2176,2161,2139,2131,2131,2131,2131,2139,2154,2161,2169,2192,2207,2215,2239,2247,2256,2264,2272,2289,2297,2306,2314,2332,2332,2349,2367,2376,2395,2423,2432,2461,2501,2521,2542,2553,2574,2584,2584,2595,2584,2574,2574,2553,2542,2532,2501,2481,2452,2432,2376,2297,2169,0,0,0,1808,1762,1733,1718,1709,1695,1681,1676,1681,1681,1681,1690,1699,1709,1718,1718,1728,1733,1742,1747,1752,1762,1772,1772,1772,1772,1772,1777,1777,1777,1777,1777,1777,1772,1772,1772,1772,1772,1782,1782,1788,1793,1793,1793,1798,1793,1798,1798,1803,1814,1819,1835,1857,1874,1885,1903,1909,1909,1909,1903,1903,1897,1897,1897,1891,1891,1885,1885,1880,1880,1880,1885,1885,1897,1897,1909,1909,1909,1914,1914,1914,1914,1914,1914,1914,1909,1909,1903,1903,1897,1897,1897,1903,1903,1903,1897,1897,1897,1891,1891,1891,1885,1885,1885,1885,1885,1897,1903,1909,1920,1944,1951,1957,1963,1963,1963,1957,1951,1944,1932,1920,1920,1914,1903,1903,1891,1891,1891,1885,1885,1891,1897,1897,1903,1903,1903,1903,1914,1920,1926,1938,1957,1969,1982,1988,2001,2001,2007,2001,2001,1994,1994,1982,1969,1957,0,0,0,0,0,0,0,0,0,0,0,0,0,0,0,0,0,0,0,0,0,0,0,0,0,0,0,0,0,0,0,0,0,0,0,0,0,0,0,0,0,0,0,0,0,0,0,0,0,0,0
2341,2358,2376,2376,2386,2386,2386,2376,2376,2367,2358,2349,2349,2349,2349,2358,2358,2358,2367,2367,2376,2367,2358,2349,2332,2323,2297,2289,2289,2280,2280,2280,2280,2280,2280,2280,2280,2280,2280,2272,2272,2272,2256,2256,2256,2256,2256,2272,2272,2289,2297,2297,2297,2289,2289,2272,2231,2215,2200,2184,2161,2146,2139,2139,2139,2146,2154,2161,2176,2200,2207,2223,2239,2247,2256,2264,2280,2289,2297,2306,2314,2323,2332,2358,2367,2376,2395,2413,2442,2452,2501,2511,2521,2532,2563,2563,2574,2574,2574,2563,2553,2532,2521,2511,2491,2471,2452,2423,2395,2341,2200,0,0,0,1814,1757,1733,1728,1709,1699,1681,1681,1681,1681,1676,1690,1699,1709,1713,1718,1728,1728,1737,1742,1752,1757,1772,1772,1772,1772,1772,1777,1772,1772,1777,1777,1772,1772,1772,1777,1777,1782,1793,1793,1798,1798,1803,1798,1803,1803,1803,1803,1819,1819,1830,1841,1874,1885,1897,1914,1920,1926,1926,1926,1914,1914,1909,1909,1903,1903,1897,1891,1885,1885,1885,1885,1891,1897,1903,1909,1903,1903,1909,1909,1909,1903,1903,1909,1903,1903,1897,1897,1897,1897,1897,1903,1903,1903,1903,1903,1903,1897,1897,1897,1891,1891,1891,1891,1891,1891,1903,1909,1914,1920,1932,1932,1938,1938,1938,1944,1938,1938,1932,1926,1926,1920,1914,1909,1897,1897,1891,1903,1903,1903,1903,1903,1903,1903,1903,1903,1903,1914,1920,1926,1938,1963,1975,1982,1988,2001,2007,2007,2001,2001,1994,1982,1969,1951,1938,1926,0,0,0,0,0,0,0,0,0,0,0,0,0,0,0,0,0,0,0,0,0,0,0,0,0,0,0,0,0,0,0,0,0,0,0,0,0,0,0,0,0,0,0,0,0,0,0,0,0,0
2358,2367,2367,2376,2376,2376,2376,2367,2367,2358,2349,2341,2349,2349,2349,2349,2367,2376,2376,2386,2386,2386,2376,2358,2349,2332,2306,2297,2297,2289,2289,2280,2289,2289,2289,2289,2289,2289,2289,2289,2289,2280,2280,2272,2272,2264,2272,2272,2272,2289,2297,2297,2297,2297,2289,2289,2256,2231,2215,2200,2169,2161,2146,2146,2146,2154,2161,2169,2176,2200,2215,2223,2239,2256,2256,2264,2280,2289,2297,2297,2314,2314,2323,2349,2358,2367,2376,2413,2423,2442,2481,2501,2521,2532,2542,2553,2553,2542,2542,2542,2532,2511,2501,2501,2471,2452,2442,2423,2404,2349,2215,0,0,0,1814,1757,1737,1733,1713,1699,1686,1686,1681,1681,1681,1690,1699,1709,1709,1713,1718,1723,1733,1742,1742,1752,1762,1767,1767,1767,1772,1772,1767,1767,1767,1767,1767,1767,1772,1772,1772,1788,1793,1798,1803,1808,1803,1803,1803,1808,1808,1808,1824,1824,1835,1846,1880,1891,1909,1926,1932,1938,1938,1938,1932,1926,1926,1926,1920,1914,1914,1914,1914,1909,1903,1903,1903,1909,1909,1914,1914,1914,1914,1914,1914,1909,1909,1909,1909,1903,1897,1897,1897,1897,1897,1903,1903,1903,1909,1909,1909,1909,1909,1903,1903,1903,1903,1909,1914,1914,1920,1920,1926,1926,1932,1932,1932,1932,1932,1932,1932,1932,1932,1926,1926,1926,1920,1920,1914,1914,1914,1914,1909,1909,1903,1903,1903,1903,1903,1903,1903,1914,1920,1926,1938,1957,1969,1982,1988,2001,2001,2001,1994,1982,1975,1969,1951,1938,1920,1914,1903,1897,1891,0,0,0,0,0,0,0,0,0,0,0,0,0,0,0,0,0,0,0,0,0,0,0,0,0,0,0,0,0,0,0,0,0,0,0,0,0,0,0,0,0,0,0,0,0,0,0
2367,2367,2376,2376,2376,2367,2367,2358,2358,2349,2341,2341,2341,2349,2358,2358,2376,2386,2386,2395,2395,2404,2395,2376,2367,2349,2323,2323,2314,2306,2297,2297,2297,2297,2297,2297,2297,2306,2297,2297,2297,2289,2289,2289,2280,2280,2280,2280,2280,2289,2297,2297,2306,2297,2306,2297,2264,2247,2231,2215,2184,2169,2161,2154,2154,2161,2169,2176,2184,2207,2215,2223,2239,2256,2256,2264,2280,2289,2297,2306,2306,2314,2323,2332,2332,2332,2349,2395,2413,2442,2471,2491,0,0,0,0,0,2532,2532,2532,2511,2491,2471,2471,2452,2442,2432,2413,2404,2349,2223,0,0,0,1814,1762,1742,1733,1723,1709,1699,1699,1695,1695,1695,1704,1704,1704,1709,1709,1713,1718,1733,1737,1742,1752,1762,1767,1767,1767,1767,1767,1767,1762,1762,1762,1762,1767,1767,1772,1772,1793,1798,1803,1803,1814,1814,1819,1819,1824,1824,1824,1830,1835,1846,1857,1891,1909,1920,1951,1963,1963,1963,1969,1963,1963,1957,1951,1951,1944,1932,1926,1920,1920,1914,1914,1914,1914,1920,1920,1926,1926,1920,1920,1920,1920,1914,1914,1909,1903,1903,1897,1897,1897,1903,1903,1903,1909,1909,1909,1914,1914,1914,1914,1914,1914,1914,1914,1920,1920,1926,1926,1932,1932,1932,1932,1932,1932,1932,1926,1926,1926,1926,1926,1926,1932,1926,1926,1926,1920,1920,1920,1914,1914,1914,1909,1903,1903,1903,1903,1909,1914,1920,1926,1938,1957,1969,1982,1988,1988,1988,1988,1982,1969,1957,1951,1926,1920,1909,1903,1897,1891,1891,1891,1885,0,0,0,0,0,0,0,0,0,0,0,0,0,0,0,0,0,0,0,0,0,0,0,0,0,0,0,0,0,0,0,0,0,0,0,0,0,0,0,0,0,0,0,0,405
2376,2376,2376,2367,2367,2349,2349,2341,2332,2332,2332,2323,2332,2341,2349,2349,2376,2386,2386,2404,2404,2404,2404,2404,2386,2367,2341,2341,2332,2323,2314,2314,2306,2306,2306,2314,2314,2314,2314,2306,2306,2297,2297,2297,2289,2280,2280,2280,2280,2280,2289,2289,2289,2289,2289,2289,2272,2256,2239,2223,2200,2184,2176,2169,2169,2176,2176,2184,2192,2207,2215,2231,2239,2256,2256,2272,2280,2297,2306,2314,2314,2314,2323,2323,2323,2323,0,0,0,0,0,0,0,0,0,0,0,0,0,0,0,0,0,0,2452,2442,2432,2413,2404,2341,2223,0,0,0,1824,1767,1762,1752,1742,1733,1718,1713,1709,1704,1704,1704,1704,1704,1704,1709,1713,1718,1728,1733,1737,1747,1762,1767,1767,1767,1767,1767,1762,1762,1762,1757,1757,1762,1762,1762,1772,1793,1798,1798,1803,1814,1814,1819,1824,1824,1824,1830,1830,1835,1841,1863,1891,1909,1926,1957,1969,1969,1975,1975,1975,1969,1963,1963,1957,1957,1944,1938,1932,1926,1926,1926,1926,1926,1926,1932,1932,1932,1932,1932,1926,1920,1920,1914,1914,1909,1909,1903,1903,1903,1903,1903,1903,1909,1914,1914,1914,1914,1920,1920,1926,1926,1926,1926,1932,1932,1932,1938,1938,1938,1938,1932,1932,1926,1926,1926,1926,1920,1920,1926,1926,1932,1932,1932,1932,1932,1932,1926,1920,1920,1914,1914,1909,1903,1903,1903,1903,1914,1926,1926,1938,1957,1963,1969,1969,1969,1969,1963,1938,1926,1914,1903,1897,1891,1885,1885,1885,1880,1880,1880,1880,0,0,0,0,0,0,0,0,0,0,0,0,0,0,0,0,0,0,0,0,0,0,0,0,0,0,0,0,0,0,0,0,0,0,0,0,0,0,0,0,0,0,0,0,405
2386,2376,2376,2367,2358,2349,2341,2332,2332,2323,2323,2314,2323,2332,2341,2349,2367,2376,2386,2404,2413,2413,2413,2413,2413,2404,2376,2367,2358,2358,2341,2341,2341,2341,2332,2341,2332,2332,2341,2332,2323,2323,2314,2314,2306,2289,2289,2280,2280,2280,2280,2280,2272,2280,2280,2280,2264,2247,2239,2223,2207,2192,2184,2176,2176,2184,2184,2192,2200,2215,2223,2223,2239,2256,2256,2272,2289,2297,2306,2314,2323,2314,2314,2314,2314,2306,0,0,0,0,0,0,0,0,0,0,0,0,0,0,0,0,0,0,2442,2432,2423,2404,2386,2297,0,0,0,1909,1830,1777,1772,1767,1757,1747,1737,1728,1723,1718,1713,1713,1709,1699,1704,1709,1709,1713,1728,1733,1737,1747,1757,1762,1762,1767,1767,1767,1762,1757,1757,1757,1757,1757,1762,1767,1772,1793,1793,1798,1803,1814,1814,1819,1824,1824,1830,1830,1835,1835,1841,1863,1891,1909,1926,1951,1969,1969,1963,1963,1969,1963,1963,1963,1963,1963,1957,1951,1944,1944,1938,1938,1932,1932,1932,1938,1938,1938,1938,1938,1938,1932,1926,1920,1920,1909,1909,1903,1903,1903,1903,1909,1909,1914,1920,1926,1926,1926,1932,1932,1932,1932,1938,1938,1944,1944,1944,1938,1944,1938,1938,1932,1932,1926,1926,1926,1926,1920,1926,1926,1932,1938,1951,1944,1944,1944,1944,1932,1926,1920,1920,1914,1909,1903,1903,1903,1903,1914,1920,1926,1938,1951,1957,1957,1957,1957,1951,1944,1914,1903,1897,1891,1885,1880,1874,1874,1874,1874,1880,1874,1874,1874,0,0,0,0,0,0,0,0,0,0,0,0,0,0,0,0,0,0,0,0,0,0,0,0,0,0,0,0,0,0,0,0,0,0,0,0,0,0,0,0,0,0,0,405
2386,2376,2376,2358,2358,2341,2341,2332,2332,2323,2314,2314,2314,2323,2332,2332,2358,2376,2386,2395,2404,2413,2423,2423,2413,2404,2395,2386,2376,2367,2367,2358,2358,2358,2358,2349,2349,2349,2349,2341,2341,2332,2323,2314,2314,2297,2297,2289,2280,2280,2280,2280,2272,2272,2272,2272,2256,2247,2231,2223,2207,2200,2192,2192,2184,2184,2192,2200,2200,2215,2223,2223,2239,2256,2256,2272,2289,2297,2314,2323,2314,2314,2314,2314,2306,2297,0,0,0,0,0,0,0,0,0,0,0,0,0,0,0,0,0,0,2442,2423,2404,2386,2358,2223,2131,0,0,1903,1835,1793,1782,1777,1767,1757,1752,1742,1737,1728,1718,1718,1713,1704,1709,1709,1713,1713,1723,1728,1737,1742,1757,1757,1762,1767,1767,1762,1762,1757,1757,1757,1757,1757,1762,1767,1777,1788,1793,1793,1798,1808,1814,1819,1824,1824,1830,1830,1835,1835,1841,1846,1868,1885,1903,1920,1938,1944,1944,1957,1951,1957,1957,1963,1969,1969,1975,1969,1969,1969,1963,1957,1951,1951,1951,1957,1957,1951,1944,1944,1944,1938,1938,1932,1932,1920,1914,1909,1909,1909,1914,1914,1920,1926,1938,1944,1944,1951,1957,1957,1963,1963,1969,1969,1969,1963,1963,1963,1963,1957,1951,1944,1944,1944,1938,1938,1938,1938,1944,1944,1944,1951,1951,1951,1951,1951,1944,1938,1926,1920,1920,1914,1909,1897,1897,1897,1897,1897,1903,1909,1914,1932,1944,1944,1944,1938,1932,1920,1897,1885,1880,1868,1868,1863,1863,1863,1868,1863,1868,1868,1868,1868,1868,0,0,0,0,0,0,0,0,0,0,0,0,0,0,0,0,0,0,0,0,0,0,0,0,0,0,0,0,0,0,0,0,0,0,0,0,0,0,0,0,0,0,405
2395,2386,2376,2358,2349,2341,2341,2323,2323,2323,2314,2314,2314,2323,2323,2332,2349,2367,2376,2395,2404,2413,2423,2423,2423,2413,2404,2404,2395,2386,2376,2376,2376,2367,2367,2358,2358,2358,2349,2349,2341,2332,2323,2314,2306,2297,2289,2289,2289,2272,2272,2264,2264,2256,2256,2247,2247,2239,2231,2223,2207,2200,2200,2192,2192,2200,2200,2200,2207,2215,2223,2223,2239,2247,2256,2264,2289,2297,2314,2314,2314,2314,2314,2306,2297,2297,2289,0,0,0,0,0,0,0,0,0,0,0,0,2432,2432,2442,2432,2432,2432,2413,2386,2358,2323,2200,2117,0,0,1909,1852,1814,1808,1798,1793,1782,1772,1772,1762,1752,1742,1733,1728,1713,1713,1713,1718,1718,1728,1728,1737,1742,1757,1762,1767,1767,1767,1767,1762,1767,1767,1762,1762,1767,1772,1777,1782,1788,1793,1798,1803,1808,1814,1819,1824,1830,1830,1830,1830,1835,1841,1846,1863,1880,1891,1914,1926,1932,1938,1951,1951,1951,1957,1963,1969,1975,1982,1975,1975,1975,1975,1963,1957,1957,1963,1963,1957,1951,1951,1951,1944,1944,1938,1938,1932,1920,1914,1914,1909,1914,1914,1920,1926,1932,1951,1957,1957,1963,1969,1975,1982,1982,1982,1982,1988,1982,1982,1982,1975,1963,1963,1957,1957,1951,1951,1951,1951,1951,1951,1951,1951,1957,1951,1957,1951,1951,1944,1938,1932,1920,1914,1909,1903,1891,1891,1891,1891,1885,1897,1903,1909,1926,1932,1938,1938,1932,1920,1909,1897,1874,1863,1857,1857,1852,1852,1852,1857,1857,1863,1863,1863,1863,1863,1863,1863,0,0,0,0,0,0,0,0,0,0,0,0,0,0,0,0,0,0,0,0,0,0,0,0,0,0,0,0,0,0,0,0,0,0,0,0,0,0,0,0,405
2395,2386,2367,2367,2341,2341,2332,2323,2314,2314,2306,2297,2306,2314,2314,2314,2332,2358,2367,2386,2395,2404,2413,2423,2423,2413,2413,2404,2404,2386,2395,2386,2395,2376,2376,2367,2367,2358,2358,2349,2341,2332,2323,2314,2306,2297,2289,2289,2289,2272,2272,2264,2247,2247,2239,2239,2231,2223,2223,2215,2207,2200,2200,2200,2192,2200,2200,2207,2207,2215,2215,2223,2239,2247,2256,2264,2289,2297,2314,2323,2323,2314,2314,2306,2306,2297,2289,2289,2289,2272,0,0,0,0,0,0,0,2386,2404,2413,2423,2423,2432,2423,2423,2404,2376,2349,2297,2176,2103,2027,1969,1909,1863,1824,1819,1808,1803,1793,1788,1782,1772,1762,1752,1742,1733,1723,1718,1718,1718,1718,1728,1733,1737,1747,1757,1762,1767,1767,1767,1772,1767,1767,1767,1772,1772,1777,1777,1782,1788,1793,1793,1798,1803,1814,1814,1819,1824,1824,1830,1830,1830,1835,1841,1846,1863,1868,1880,1891,1914,1920,1926,1938,1944,1951,1951,1957,1969,1975,1982,1982,1982,1982,1982,1975,1963,1963,1969,1963,1957,1951,1951,1951,1951,1944,1938,1938,1932,1926,1920,1920,1914,1914,1920,1926,1932,1944,1957,1963,1969,1975,1988,1988,1994,1994,1994,1994,1994,1994,1994,1988,1988,1975,1975,1969,1969,1963,1963,1963,1963,1969,1957,1957,1957,1957,1957,1957,1951,1944,1944,1938,1926,1914,1903,1903,1897,1885,1885,1880,1880,1880,1891,1897,1909,1926,1926,1938,1932,1932,1920,1903,1885,1863,1852,1846,1841,1841,1841,1841,1846,1846,1852,1852,1857,1857,1857,1857,1857,1857,1857,1857,1857,0,0,0,0,0,0,0,0,0,0,0,0,0,0,0,0,0,0,0,0,0,0,0,0,0,0,0,0,0,0,0,0,0,0,0,0,0
2395,2386,2376,2367,2349,2341,2332,2323,2323,2314,2306,2306,2306,2306,2314,2314,2332,2349,2358,2386,2395,2404,2413,2423,2423,2423,2413,2413,2413,2413,2404,2413,2413,2404,2404,2395,2395,2376,2367,2358,2349,2332,2323,2314,2306,2297,2289,2289,2280,2272,2264,2256,2247,2239,2231,2231,2223,2215,2215,2207,2200,2200,2192,2200,2192,2200,2200,2200,2200,2207,2207,2215,2223,2231,2239,2256,2280,2289,2306,2306,2306,2306,2306,2297,2297,2289,2280,2280,2280,2272,2247,2239,2239,2231,0,0,0,2323,2376,2395,2404,2413,2423,2423,2413,2395,2376,2332,2289,2231,2095,2027,1969,1914,1880,1841,1830,1824,1819,1808,1798,1793,1782,1772,1762,1752,1742,1728,1723,1723,1723,1723,1733,1733,1737,1747,1762,1767,1767,1767,1772,1772,1772,1777,1777,1777,1777,1782,1782,1793,1793,1798,1798,1803,1803,1814,1819,1819,1824,1830,1830,1830,1830,1835,1841,1846,1863,1874,1885,1891,1914,1914,1920,1926,1932,1938,1944,1951,1963,1969,1975,1982,1982,1982,1982,1975,1969,1963,1969,1963,1957,1951,1951,1951,1951,1944,1944,1938,1938,1932,1926,1926,1920,1926,1932,1938,1944,1951,1969,1975,1982,1988,2001,2007,2007,2007,2007,2007,2007,2001,2001,1994,1988,1988,1982,1982,1982,1975,1994,1994,1994,1982,1975,1975,1963,1969,1963,1963,1951,1951,1944,1938,1926,1914,1903,1903,1891,1885,1880,1880,1880,1880,1891,1903,1914,1932,1951,1957,1957,1951,1932,1914,1897,1868,1852,1846,1841,1841,1835,1841,1841,1841,1846,1846,1852,1852,1852,1857,1857,1857,1852,1857,1857,1846,0,0,0,0,0,0,0,0,0,0,0,0,0,0,0,0,0,0,0,0,0,0,0,0,0,0,0,0,0,0,0,0,0,0,0,0
2404,2395,2376,2367,2349,2341,2332,2323,2323,2314,2306,2306,2306,2306,2306,2314,2323,2341,2358,2376,2386,2395,2404,2413,2413,2413,2413,2423,2413,2413,2413,2413,2413,2413,2413,2404,2404,2386,2376,2367,2349,2323,2314,2306,2306,2289,2289,2289,2280,2264,2264,2256,2247,2231,2223,2223,2207,2207,2200,2200,2192,2192,2192,2192,2184,2192,2192,2192,2192,2192,2200,2200,2200,2215,2223,2231,2264,2272,2280,2289,2297,2306,2297,2297,2297,2289,2280,2280,2280,2272,2247,2239,2239,2231,0,0,0,2306,2247,2314,2332,2358,2367,2367,2367,2358,2332,2297,2247,2200,2081,2027,1975,1926,1891,1857,1846,1841,1830,1819,1808,1803,1793,1777,1772,1757,1747,1733,1728,1728,1728,1728,1733,1737,1742,1747,1762,1767,1767,1772,1772,1772,1777,1782,1782,1782,1782,1793,1793,1798,1798,1808,1808,1803,1808,1814,1819,1819,1824,1830,1830,1830,1830,1835,1846,1852,1874,1880,1891,1897,1914,1920,1920,1926,1932,1938,1938,1951,1963,1963,1975,1982,1982,1982,1982,1975,1969,1963,1969,1963,1957,1951,1951,1951,1951,1944,1944,1944,1944,1944,1944,1944,1944,1951,1957,1969,1975,1982,2001,2007,2020,2027,2040,2040,2040,2034,2034,2027,2014,2007,2007,2007,2001,2001,2007,2007,2007,2007,2007,2001,1994,1994,1988,1982,1969,1969,1963,1963,1951,1951,1944,1938,1926,1909,1903,1897,1891,1885,1885,1880,1880,1880,1897,1909,1920,1944,1957,1969,1969,1969,1951,1938,1903,1885,1868,1857,1852,1841,1835,1835,1835,1835,1841,1841,1841,1846,1852,1852,1852,1852,1857,1857,1852,1852,1846,0,0,0,0,0,0,0,0,0,0,0,0,0,0,0,0,0,0,0,0,0,0,0,0,0,0,0,0,0,0,0,0,0,0,0
2404,2395,2376,2367,2349,2341,2332,2323,2314,2314,2306,2306,2306,2306,2306,2314,2332,2341,2349,2367,2376,2386,2395,2404,2404,2404,2413,2413,2413,2413,2413,2423,2423,2423,2423,2413,2413,2386,2386,2367,2349,2323,2306,2306,2297,2289,2289,2280,2280,2264,2256,2247,2239,2223,2215,2215,2207,2200,2192,2184,2184,2176,2169,2169,2169,2169,2161,2161,2161,2161,2161,2161,2161,2176,2184,2192,2215,2223,2231,2247,2264,2264,2272,2256,2239,2231,2215,2176,2154,2124,2103,2061,2040,2020,2014,2020,2088,2117,2161,2247,2280,2314,2323,2332,2341,2332,2314,2272,2223,2176,2081,2034,1988,1944,1920,1885,1868,1857,1852,1830,1819,1808,1803,1782,1772,1767,1757,1742,1742,1742,1737,1737,1742,1742,1747,1752,1762,1767,1772,1772,1777,1777,1782,1788,1793,1798,1798,1808,1808,1814,1819,1824,1824,1819,1824,1830,1830,1824,1830,1830,1830,1830,1835,1841,1852,1857,1880,1891,1897,1909,1920,1926,1926,1932,1932,1938,1944,1951,1957,1963,1969,1969,1975,1975,1975,1975,1969,1969,1969,1963,1957,1957,1951,1951,1951,1951,1951,1951,1951,1951,1944,1951,1951,1957,1975,1982,1988,2001,2020,2034,2040,2054,2061,2061,2061,2054,2047,2034,2020,2014,2014,2007,2007,2014,2014,2014,2020,2020,2020,2020,2007,2001,1994,1988,1969,1969,1963,1957,1951,1944,1938,1932,1926,1909,1909,1903,1891,1891,1885,1885,1885,1885,1903,1914,1926,1957,1969,1982,1994,1982,1975,1963,1926,1903,1885,1868,1863,1846,1835,1830,1830,1830,1835,1835,1841,1846,1852,1857,1857,1857,1857,1857,1857,1852,1852,1852,0,0,0,0,0,0,0,0,0,0,0,0,0,0,0,0,0,0,0,0,0,0,0,0,0,0,0,0,0,0,0,0,0,0
2395,2386,2376,2367,2349,2341,2332,2323,2314,2314,2314,2306,2306,2306,2314,2314,2323,2341,2349,2358,2376,2376,2386,2386,2386,2395,2386,2395,2404,2404,2404,2413,2423,2432,2432,2423,2413,2404,2386,2367,2349,2314,2306,2297,2289,2289,2280,2280,2280,2264,2264,2256,2247,2231,2223,2215,2207,2192,2184,2184,2176,2169,2161,2161,2161,2154,2154,2146,2146,2146,2139,2139,2146,2154,2154,2161,2184,2192,2200,2215,2223,2223,2215,2184,2169,2146,2131,2081,2061,2040,2027,1994,1982,1963,1957,1969,2020,2040,2088,2176,2223,2264,2280,2297,2306,2306,2289,2256,2215,2176,2088,2040,2001,1957,1932,1891,1880,1868,1857,1835,1819,1808,1798,1782,1777,1767,1757,1752,1747,1742,1747,1742,1747,1747,1752,1757,1767,1772,1777,1777,1782,1782,1782,1793,1793,1798,1803,1808,1814,1819,1824,1824,1830,1824,1830,1835,1835,1830,1830,1830,1835,1835,1841,1846,1857,1868,1891,1903,1909,1926,1932,1932,1932,1938,1944,1944,1944,1951,1957,1969,1969,1975,1975,1975,1982,1982,1975,1969,1975,1963,1963,1957,1957,1951,1951,1951,1944,1951,1951,1957,1951,1951,1957,1963,1982,1994,1994,2007,2040,2054,2061,2081,2088,2088,2088,2074,2068,2054,2034,2027,2014,2014,2014,2020,2020,2027,2027,2027,2027,2027,2014,2007,1994,1988,1969,1963,1951,1944,1951,1944,1944,1932,1926,1914,1914,1909,1903,1897,1897,1897,1897,1891,1903,1920,1932,1963,1982,1994,2007,2001,1994,1988,1957,1932,1909,1891,1880,1852,1835,1835,1830,1830,1835,1835,1835,1846,1852,1852,1857,1857,1857,1857,1857,1852,1852,1846,0,0,0,0,0,0,0,0,0,0,0,0,0,0,0,0,0,0,0,0,0,0,0,0,0,0,0,0,0,0,0,0,0,0
2395,2386,2376,2367,2349,2349,2341,2332,2323,2323,2314,2306,2314,2314,2323,2323,2341,2349,2358,2367,2367,2367,2376,2376,2376,2376,2376,2386,2395,2395,2404,2413,2423,2432,2423,2423,2413,2395,2376,2358,2341,2314,2297,2297,2289,2280,2280,2280,2280,2272,2264,2256,2247,2231,2223,2215,2207,2192,2184,2176,2169,2161,2154,2154,2139,2139,2139,2131,2131,2124,2124,2124,2124,2124,2131,2131,2146,2154,2161,2169,2169,2161,2146,2103,2081,2061,0,0,0,0,0,0,0,0,0,0,0,1988,2027,2081,2176,2215,2247,2264,2272,2280,2272,2247,2215,2176,2095,2061,2014,1975,1951,1903,1885,1868,1857,1830,1819,1814,1798,1782,1777,1767,1762,1752,1752,1752,1752,1747,1752,1752,1757,1762,1767,1772,1777,1777,1782,1782,1782,1793,1798,1798,1803,1814,1819,1819,1824,1830,1830,1835,1835,1835,1835,1835,1835,1835,1835,1835,1846,1852,1863,1874,1903,1909,1920,1938,1944,1944,1944,1944,1944,1944,1951,1951,1957,1957,1957,1963,1963,1969,1969,1975,1975,1975,1969,1969,1963,1963,1957,1957,1957,1957,1951,1951,1951,1957,1957,1957,1957,1963,1988,1994,2007,2020,2047,2061,2074,2095,2110,2110,2103,2095,2088,2074,2040,2027,2020,2047,2047,2054,2054,2047,2047,2040,2034,2027,2014,2001,1994,1982,1969,1957,1951,1944,1938,1938,1938,1938,1932,1926,1926,1926,1926,1914,1914,1914,1914,1914,1926,1938,1951,1975,2001,2014,2027,2034,2034,2034,2007,1982,1957,1932,1914,1874,1852,1846,1835,1835,1835,1835,1835,1846,1852,1857,1857,1857,1863,1857,1857,1852,1852,1852,0,0,0,0,0,0,0,0,0,0,0,0,0,0,0,0,0,0,0,0,0,0,0,0,0,0,0,0,0,0,0,0,0,0
2376,2367,2367,2358,2341,2341,2332,2323,2314,2314,2306,2306,2306,2306,2306,2323,2332,2349,2358,2358,2358,2358,2367,2367,2367,2358,2358,2376,2376,2386,2386,2404,2413,2423,2423,2413,2413,2386,2376,2358,2332,2306,2297,2289,2289,2280,2280,2280,2280,2272,2272,2264,2256,2239,2223,2215,2207,2184,2176,2169,2161,2154,2146,2139,2131,2124,2117,2117,2110,2103,2103,2103,2103,2110,2110,2110,2117,2131,2131,2131,2117,2103,2081,2054,2001,0,1874,1852,1830,1803,1798,1793,1788,1788,1788,1798,1819,1868,1914,1957,2068,2124,2169,2200,2223,2239,2239,2223,2207,2176,2110,2068,2034,1994,1963,1914,1897,1874,1863,1830,1819,1808,1798,1782,1777,1767,1767,1762,1762,1762,1762,1757,1762,1762,1767,1767,1772,1772,1777,1777,1782,1782,1782,1788,1793,1793,1798,1808,1814,1819,1819,1824,1830,1830,1830,1835,1835,1835,1835,1835,1841,1841,1846,1857,1868,1885,1909,1920,1932,1951,1957,1957,1951,1951,1951,1951,1951,1951,1957,1957,1957,1963,1963,1963,1969,1975,1975,1975,1975,1975,1969,1969,1963,1963,1957,1957,1957,1951,1951,1951,1957,1957,1963,1969,1994,2001,2014,2027,2061,2081,2095,2131,2161,2169,2169,2169,0,0,0,0,0,0,0,0,0,0,2054,2040,2034,2027,2007,1994,1988,1975,1969,1951,1944,1938,1938,1938,1938,1938,1938,1938,1938,1932,1932,1926,1926,1926,1926,1920,1932,1944,1957,1982,2001,2020,2034,2040,2054,2054,2027,2001,1975,1951,1909,1885,1857,1846,1841,1835,1835,1835,1846,1846,1846,1852,1857,1852,1857,1852,1852,1852,1852,1852,0,0,0,0,0,0,0,0,0,0,0,0,0,0,0,0,0,0,0,0,0,0,0,0,0,0,0,0,0,0,0,0,0,0
2367,2358,2349,2349,2341,2332,2323,2314,2306,2306,2297,2289,2289,2289,2297,2297,2289,2289,2306,2297,2297,2297,2297,2297,2306,2306,2306,2314,2323,2341,2349,2358,2376,2386,2395,2395,2386,2367,2358,2341,2323,2306,2297,2289,2289,2289,2280,2280,2280,2280,2272,2264,2264,2239,2231,2215,2207,2176,2169,2154,2146,2131,2124,2117,2110,2103,2095,2088,2081,2074,2074,2074,2074,2074,2074,2074,2081,2088,2081,2068,2014,1982,1957,1914,1880,1824,1798,1777,1762,1737,1733,1728,1728,1728,1737,1747,1762,1782,1846,1891,2007,2061,2117,2169,2200,2215,2223,2215,2200,2184,2131,2103,2068,2034,2001,1944,1914,1891,1868,1835,1819,1808,1803,1788,1782,1777,1777,1777,1777,1782,1782,1777,1782,1782,1782,1782,1782,1782,1782,1782,1782,1782,1782,1788,1788,1793,1798,1803,1808,1814,1814,1824,1830,1830,1830,1835,1835,1835,1835,1841,1841,1841,1846,1857,1874,1885,1914,1926,1938,1957,1963,1963,1957,1957,1957,1957,1951,1951,1951,1957,1957,1957,1963,1963,1969,1975,1975,1982,1975,1975,1975,1969,1963,1963,1963,1957,1951,1951,1944,1944,1944,1944,1951,1957,1982,1988,2001,2020,2054,2074,2095,2131,2169,2176,2184,2184,2176,0,0,0,0,0,0,0,0,0,0,0,0,2014,1994,1988,1975,1963,1957,1944,1938,1938,1938,1938,1938,1944,1944,1944,1944,1944,1938,1938,1938,1932,1932,1932,1938,1944,1957,1988,2007,2027,2034,2047,2054,2054,2040,2020,1988,1969,1926,1897,1868,1852,1846,1841,1841,1841,1846,1846,1852,1852,1857,1857,1857,1857,1857,1857,1852,1852,0,0,0,0,0,0,0,0,0,0,0,0,0,0,0,0,0,0,0,0,0,0,0,0,0,0,0,0,0,0,0,0,0,0
2341,2332,2332,2332,2323,2323,2306,2306,2289,2289,2280,2280,2272,2280,2280,2280,2280,2280,2280,2280,2280,2280,2280,2280,2280,2280,2280,2289,2297,2306,2314,2332,2341,2358,2376,2367,2367,2349,2341,2332,2323,2306,2297,2289,2289,2280,2289,2289,2289,2289,2289,2280,2272,2247,2231,2223,2200,2176,2154,2146,2139,2124,2110,2103,2103,2088,2088,2081,2074,2068,2068,2068,2068,2074,2074,2074,2074,2081,2068,2047,1988,1938,1909,1868,1819,1762,1742,1723,1709,1699,1695,1695,1699,1699,1709,1718,1728,1747,1798,1835,1891,2007,2068,2139,2176,2200,2215,2207,2200,2184,2139,2117,2081,2047,1982,1957,1926,1903,1880,1835,1819,1808,1803,1793,1788,1782,1782,1782,1788,1788,1793,1788,1793,1793,1793,1793,1788,1788,1788,1782,1782,1782,1782,1788,1782,1788,1793,1803,1803,1808,1814,1824,1824,1830,1830,1835,1835,1835,1835,1841,1841,1841,1852,1857,1874,1885,1914,1926,1938,1957,1963,1963,1957,1957,1957,1951,1951,1944,1951,1951,1957,1957,1963,0,1969,1982,1982,1982,1982,1982,1975,1975,1969,1969,1963,1957,1951,1944,1944,1938,1938,1944,1944,1957,1975,1975,1988,2001,2040,2061,2081,2131,2176,2184,2200,2215,0,0,0,0,2256,2264,0,2231,2200,0,0,0,0,2007,1969,1957,1944,1938,1932,1926,1926,1926,1926,1932,1938,1944,1944,1951,1951,1951,1951,1944,1944,1944,1938,1938,1944,1951,1957,1975,1988,2014,2020,2034,2047,2054,2047,2027,1994,1969,1938,1903,1874,1863,1852,1846,1846,1846,1846,1852,1857,1857,1857,1863,1863,1863,0,0,0,0,0,0,0,0,0,0,0,0,0,0,0,0,0,0,0,0,0,0,0,0,0,0,0,0,0,0,0,0,0,0,0,0,0,0
2332,2323,2323,2314,2314,2314,2306,2297,2289,2289,2280,2272,2272,2272,2272,2272,2272,2272,2272,2264,2264,2256,2256,2256,2256,2256,2256,2272,2272,2280,2289,2306,2314,2332,2341,2341,2341,2341,2332,2332,2314,2306,2297,2289,2289,2289,2289,2289,2289,2289,2289,2280,2272,2247,2231,2215,2200,2161,2146,2139,2124,2110,2103,2095,2088,2081,2074,2074,2074,2068,2068,2068,2074,2081,2081,2081,2081,2081,2074,2047,1963,1920,1874,1830,1788,1762,1723,1709,1699,1690,1690,1690,1690,1690,1690,1704,1709,1718,1762,1793,1846,1969,2027,2074,2161,2200,2207,2207,2200,2184,2146,2124,2095,2068,2001,1969,1938,1909,1885,1846,1824,1814,1808,1798,1793,1788,1788,1788,1798,1803,1803,1803,1803,1803,1803,1798,1793,1793,1793,1788,1788,1782,1782,1782,1782,1782,1788,1793,1798,1803,1803,1819,1824,1824,1830,1835,1835,1835,1835,1841,1841,1841,1852,1863,1874,1885,1909,1920,1932,1951,1957,1951,1951,1944,1944,1944,1938,1938,1938,1938,1944,1944,1957,1963,1969,1982,1975,1975,1975,1975,1975,1969,1963,1957,1957,1951,1938,1926,1926,1920,1920,1920,1920,1926,1944,1957,1963,1975,2007,2027,2054,2103,2146,2161,2176,2223,0,0,2280,0,0,2289,2256,2223,0,0,0,0,0,0,0,1944,1932,1932,1926,1920,1926,1926,1932,1938,1944,1951,1957,1969,1969,1969,1963,1963,1963,1963,1944,1944,1938,1938,1944,1963,1975,1994,2007,2034,2040,2047,2034,2020,1994,1975,1938,1909,1891,1880,1868,1863,1857,1857,1857,1857,1863,1863,1863,1863,1863,1863,1863,1863,0,0,0,0,0,0,0,0,0,0,0,0,0,0,0,0,0,0,0,0,0,0,0,0,0,0,0,0,0,0,0,0,0,0,0,0
2332,2332,2323,2323,2314,2314,2306,2306,2289,2289,2280,2272,2264,2264,2264,2264,2264,2256,2264,2247,2247,2247,2239,2231,2231,2231,2231,2239,2247,2256,2256,2272,2280,2297,2306,2314,2323,2323,2323,2323,2314,2297,2297,2297,2289,2289,2289,2289,2289,2289,2289,2280,2272,2239,2223,2207,2192,2154,2139,2124,2117,2095,2095,2088,2081,2074,2068,2068,2068,2068,2068,2068,2074,2081,2088,2088,2088,2088,2074,2047,1963,1897,1846,1803,1762,1733,1699,1695,1686,1686,1672,1672,1672,1672,1672,1672,1676,1686,1709,1733,1782,1903,2001,2027,2139,2192,2200,2207,2200,2192,2154,2131,2110,2081,2014,1982,1957,1920,1897,1852,1835,1824,1814,1803,1803,1798,1798,1798,1808,1814,1814,1814,1814,1814,1814,1803,1803,1798,1798,1788,1788,1788,1782,1782,1782,1782,1788,1793,1793,1798,1798,1814,1819,1819,1824,1830,1830,1835,1835,1841,1841,1841,1852,1863,1868,1885,1909,1920,1926,1938,1951,1951,1944,1944,1944,1938,1938,1932,1932,1932,1938,0,0,0,0,0,0,0,1969,1969,1969,1963,1957,1951,1944,1944,1932,1926,1920,1914,1909,1914,1914,1920,1926,1938,1951,1969,1988,2014,2034,2061,0,0,0,0,0,0,0,2231,2247,2247,2223,2200,0,0,0,0,0,0,0,1932,1926,1926,1920,1920,1926,1932,1938,1944,1957,1963,1963,1975,1975,1975,1975,1969,1969,1963,1951,1944,1938,1938,1938,1951,1969,1982,1994,2014,2027,2027,2027,2007,1994,1982,1932,1920,1903,1891,1885,1874,1868,1868,1863,1863,1863,1863,1863,1863,1863,1863,1863,0,0,0,0,0,0,0,0,0,0,0,0,0,0,0,0,0,0,0,0,0,0,0,0,0,0,0,0,0,0,0,0,0,0,0,0,0
2323,2323,2323,2323,2314,2306,2306,2297,2289,2272,2272,2264,2247,2247,2247,2247,2239,2231,2231,2223,2207,2207,2200,2192,2184,2176,2184,2184,2200,2200,2207,2231,2239,2256,2264,2280,2297,2297,2306,2314,2306,2306,2297,2297,2297,2297,2297,2297,2297,2297,2289,2280,2272,2231,2215,2192,2169,2124,2110,2095,2088,2074,2068,2068,2061,2061,2061,2061,2061,2068,2074,2074,2081,2103,2110,2103,2103,2103,2088,2047,2007,1891,1846,1798,1762,1728,1695,1686,1681,1676,1667,1663,1663,1663,1663,1663,1663,1667,1676,1704,1757,1874,0,2007,2131,2192,2200,2207,2200,2192,2161,2139,2124,2095,2027,1994,1969,1938,1909,1863,1846,1835,1824,1819,1819,1819,1814,1819,1830,1835,1835,1830,1835,1830,1830,1819,1814,1803,1803,1793,1793,1788,1788,1788,1782,1782,1788,1788,1793,1798,1798,1808,1814,1819,1824,1830,1830,1830,1835,1835,1846,1846,1857,1863,1874,1885,1903,1914,1926,1938,1951,1951,1944,1944,1938,1938,1932,1932,1932,1932,1932,0,0,0,0,0,0,0,1969,1969,1963,1963,1951,1944,1944,1938,1926,1920,1914,1909,1903,1909,1909,1914,1920,1932,1944,1957,1982,1994,0,2040,0,0,0,0,0,0,0,0,0,2215,2200,0,0,0,0,0,0,0,0,1920,1914,1914,1914,1914,1926,1938,1944,1951,1963,1969,1975,1982,1988,1982,1975,1975,1969,1963,1957,1938,1932,1932,1932,1938,1957,1975,1982,2001,2007,2014,2014,1994,1982,1969,1944,1926,1914,1909,1897,1885,1880,1885,1874,1874,1868,1868,1863,1863,1863,0,0,0,0,0,0,0,0,0,0,0,0,0,0,0,0,0,0,0,0,0,0,0,0,0,0,0,0,0,0,0,0,0,0,0,0,0,0,0
2323,2323,2323,2323,2314,2314,2306,2297,2280,2272,2264,2256,2239,2239,2239,2231,2223,2223,2215,2200,2192,2192,2184,2176,2169,2161,2161,2169,2176,2176,2200,2200,2223,2231,2247,2272,2289,2297,2297,2314,2314,2314,2314,2306,2314,2314,2306,2306,2306,2297,2297,2280,2264,2223,2200,2184,2154,2110,2095,2081,2074,2061,2061,2054,2054,2054,2054,2054,2061,2061,2074,2081,2088,2103,2110,2110,2103,2103,2081,2047,2014,0,0,1803,1757,1723,1686,1681,1676,1672,1658,1658,1654,1654,1650,1650,1654,1654,1663,1676,1728,1788,0,1982,2117,2184,2200,2200,2192,2184,2154,2139,2117,2095,2034,2001,1975,1944,1914,1868,1846,1841,1830,1824,1824,1824,1819,1824,1835,1835,1835,1835,1835,1830,1830,1819,1814,1808,1803,1793,1793,1793,1788,1788,1788,1788,1793,1793,1798,1798,1803,1808,1819,1819,1824,1830,1835,1835,1835,1846,1852,1852,1863,1868,1880,1897,1903,1914,1926,1938,1951,1951,1951,1951,1951,1944,1944,1938,1938,1938,1938,0,0,0,0,0,0,0,1963,1963,1963,1963,1951,1944,1938,1932,1926,1920,1909,1909,1903,1903,1903,1903,1909,1914,1914,1926,1951,1969,1982,2001,2054,2068,2095,2124,2139,2154,2176,2192,2207,2200,2169,2154,2131,2103,2034,1994,1969,1944,1932,1909,1891,1891,1897,1909,1932,1938,1951,1963,1975,1982,1988,1988,1988,1988,1982,1975,1969,1963,1957,1932,1932,1926,1926,1932,1957,1969,1975,1994,2001,2007,2001,1994,1982,1975,1951,1938,1926,1920,1909,1897,1897,1897,1885,1880,1885,1885,1885,1874,1868,1863,0,0,0,0,0,0,0,0,0,0,0,0,0,0,0,0,0,0,0,0,0,0,0,0,0,0,0,0,0,0,0,0,0,0,0,0,0,0
2323,2323,2323,2323,2323,2314,2306,2297,2289,2280,2264,2256,2239,2239,2231,2223,2207,2207,2207,2192,2184,2176,2176,2161,2154,2146,2146,2154,2161,2161,2176,2184,2207,2223,2239,2264,2280,2297,2306,2314,2323,2323,2323,2323,2323,2314,2314,2314,2314,2306,2297,2289,2264,2223,2192,2169,2146,2095,2081,2068,2061,2047,2047,2047,2047,2040,2047,2047,2054,2061,2074,2081,2088,2103,2110,2110,2103,2095,2074,2040,2014,1903,1852,0,1757,1718,1681,1672,1672,1667,1654,1650,1650,1650,1645,1645,1641,1645,1650,1658,1709,1767,0,1957,2103,2176,2192,2192,2184,2176,2154,2131,2117,2088,2034,2007,1975,1944,1920,1874,1857,1841,1835,1830,1830,1824,1830,1830,1835,1841,1841,1835,1835,1835,1830,1819,1814,1808,1808,1798,1793,1793,1793,1793,1793,1793,1793,1798,1798,1803,1803,1814,1819,1824,1830,1835,1835,1841,1841,1852,1863,1863,1880,1885,1903,1909,1914,1920,1932,1938,1957,1957,1957,1957,1957,1957,1957,1957,1957,1957,1957,1957,1951,1951,1951,1963,1963,1963,1963,1963,1963,1963,1951,1944,1938,1938,1920,1920,1909,1903,1897,1891,1891,1897,1891,1903,1909,1914,1920,1938,1951,1963,1988,1994,2007,2027,2054,2074,2103,2139,2146,2146,2131,2117,2095,2074,2027,1994,1969,1944,1926,1891,1880,1880,1885,1903,1932,1944,1963,1988,2014,2020,2027,2027,2014,2014,1994,1988,1975,1963,1951,1938,1932,1926,1932,0,0,0,1982,1994,2001,2007,2007,1994,1988,1982,1963,1951,1944,1932,1926,1914,1914,1909,1909,1903,1897,1891,0,0,0,0,0,0,0,0,0,0,0,0,0,0,0,0,0,0,0,0,0,0,0,0,0,0,0,0,0,0,0,0,0,0,0,0,0,0,0,0,0,0
2323,2332,2332,2332,2323,2323,2314,2306,2289,2280,2272,2256,2239,2231,2223,2215,2200,2200,2200,2192,2176,2169,2169,2154,2146,2131,2131,2139,2146,2146,2161,2169,2200,2215,2231,2264,2280,2289,2297,2323,2323,2332,2332,2332,2332,2332,2332,2332,2323,2314,2306,2289,2272,2223,2192,2161,2139,2088,2068,2040,2034,2027,2020,2020,2020,2020,2027,2034,2040,2047,2068,2074,2081,2095,2103,2103,2088,2081,2068,2034,2007,1909,1857,0,1757,1718,1672,1663,1658,1654,1645,1641,1641,1637,1632,1632,1628,1632,1637,1645,1695,1747,0,1932,2068,2146,2176,2169,2161,2154,2131,2117,2095,2074,2027,2001,1975,1944,1920,1874,1857,1846,1835,1830,1830,1830,1830,1830,1835,1841,1841,1835,1835,1830,1835,1819,1814,1808,1808,1798,1798,1793,1793,1798,1798,1798,1798,1808,1808,1808,1814,1824,1824,1830,1835,1841,1841,1846,1846,1863,1874,1885,1914,1914,1926,1944,0,0,0,0,0,0,1969,1969,1969,1975,1975,0,0,0,1982,1982,1982,1975,1975,0,0,0,1969,1969,1969,1969,1963,1957,1951,1951,1938,1926,1914,1909,1897,1891,1891,1891,1891,1897,1897,1903,1909,1914,1920,1932,1957,1963,1969,1982,0,2020,2040,2054,2081,2081,2074,2068,2061,2047,2027,1982,1957,1938,1920,1880,1868,1868,1874,1891,1926,1944,1963,2014,2027,2027,2034,2034,2027,2020,2001,1988,1982,0,0,0,0,0,0,0,0,0,1988,2001,2007,2007,2007,1994,1988,1982,1963,1951,1938,1932,1926,1914,1909,1909,1909,1903,1891,1885,0,0,0,0,0,0,0,0,0,0,0,0,0,0,0,0,0,0,0,0,0,0,0,0,0,0,0,0,0,0,0,0,0,0,0,0,0,0,0,0,0,0
2332,2332,2332,2332,2323,2323,2314,2306,2289,2280,2264,2256,2231,2215,2207,2200,2184,2176,2176,2169,2154,2146,2139,2131,2124,2117,2117,2124,2131,2139,2146,2161,2192,2200,2215,2247,2272,2289,2297,2323,2332,2332,2341,2341,2349,2349,2341,2341,2341,2323,2314,2297,2272,2215,2184,2154,2124,2068,2047,2027,2020,2014,2007,2007,2014,2014,2020,2027,2034,2040,2061,2068,2074,2088,2095,2095,2081,2074,2061,2034,2007,1909,1857,0,1757,1718,1667,1658,1654,1650,1641,1637,1637,1632,1628,1628,1628,1628,1632,1645,1690,1747,1863,1926,2054,2124,2161,2154,2146,2139,2117,2103,2088,2068,2020,1994,1969,1938,1920,1874,1857,1852,1841,1835,1835,1835,1835,1835,1841,1841,1841,1835,1835,1830,1830,1819,1814,1808,1808,1798,1798,1793,1798,1798,1798,1798,1803,1808,1814,1814,1819,1830,1830,1835,1835,1846,1846,1852,1852,1868,1880,1891,1920,1932,1944,1951,1969,1969,0,0,1975,1982,1982,1982,1982,1994,1994,2001,2001,2001,2001,2001,0,0,0,0,0,0,1975,0,0,0,1969,0,1963,0,0,1932,1920,1914,1903,1897,1897,1897,1891,1897,1897,1897,1897,1903,0,1914,1932,0,0,0,0,0,0,0,0,0,0,0,0,2027,2014,1982,1963,0,0,1874,1857,1863,1868,1891,1926,1944,1982,2034,2047,2054,2061,2061,2061,2047,2027,0,0,0,0,0,0,0,0,0,0,1932,1957,1969,1994,2001,1994,1988,1988,1969,1957,1944,1932,1926,1914,1903,1897,1891,1897,1885,1874,1868,1857,1814,0,0,0,0,0,0,0,0,0,0,0,0,0,0,0,0,0,0,0,0,0,0,0,0,0,0,0,0,0,0,0,0,0,0,0,0,0,0,0,0
2323,2332,2332,2341,2332,2323,2323,2314,2289,2280,2264,2247,2215,2207,2192,2184,2169,2169,2161,2154,2139,2131,2124,2117,2110,2110,2110,2110,2117,2131,2139,2146,2176,2192,2207,2239,2264,2280,2297,2314,2323,2341,2358,2358,2367,2367,2367,2367,2358,2341,2341,2323,2289,2223,2192,2154,2124,2068,2040,2020,2014,2007,2001,2001,2001,2001,2014,2020,2027,2034,2054,2061,2068,2074,2081,2081,2074,2068,2054,2027,2007,1914,1868,0,1767,1718,1663,1654,1645,1645,1637,1632,1637,1632,1628,1624,1624,1628,1632,1645,1695,1747,1857,1914,2040,2110,2146,2139,2131,2124,2103,2088,2074,2054,2034,1988,1963,1938,1914,1874,1857,1846,1841,1835,1835,1835,1835,1835,1841,1835,1835,1830,1830,1824,1824,1814,1814,1808,1803,1798,1793,1793,1793,1793,1798,1803,1803,1808,1814,1814,1819,1830,1835,1835,1841,1846,1852,1857,1857,1880,1885,1903,1938,1951,1963,1975,1988,1994,0,0,0,0,2001,2001,2007,2014,2020,2027,2027,2027,2027,2020,2020,0,0,0,0,0,1988,1988,0,0,1982,1975,1975,0,0,1963,1944,1932,1914,1903,1903,1897,1891,1885,1885,1885,1874,1868,1868,1868,1868,1868,1868,1880,1885,1891,1903,1909,1932,1951,1963,1969,1988,1988,1988,1969,1957,0,1914,1880,1857,1857,1863,1880,1920,1957,1988,2040,2061,2074,2074,2081,2074,2068,2040,0,0,0,0,0,0,0,0,0,0,0,0,0,1938,1963,1963,1957,1957,1951,1938,1920,1914,1909,1903,1891,1885,1885,1885,1874,1868,1863,1852,1808,1782,1752,1742,1728,0,0,0,0,0,0,0,0,0,0,0,0,0,0,0,0,0,0,0,0,0,0,0,0,0,0,0,0,0,0,0,0,0,0,0,0
2306,2306,2314,2314,2306,2306,2306,2297,2280,2272,2247,2239,2215,2200,2184,2176,2161,2154,2146,2139,2131,2124,2124,2117,2110,2110,2110,2110,2117,2124,2139,2146,2169,2184,2200,2231,2256,2272,2280,2314,2323,2332,2367,2367,2367,2367,2376,2376,2376,2358,2349,2332,2306,2231,2192,2161,2124,2088,2040,2020,2007,2001,1994,1994,1988,1994,2001,2007,2020,2027,2047,2054,2061,2068,2074,2074,2068,2061,2047,2020,2007,1914,1868,0,1767,1723,1663,1650,1641,1641,1637,1632,1632,1632,1628,1628,1628,1628,1632,1645,1690,1742,1846,1903,2027,2088,2131,2124,2117,2110,2088,2081,2068,2047,2020,1969,1951,1926,1909,1868,1846,1841,1835,1835,1830,1835,1835,1835,1841,1835,1835,1824,1824,1824,1819,1808,1803,1803,1798,1788,1782,1782,1782,1782,1793,1793,1798,1808,1814,1814,1819,1830,1835,1841,1841,1852,1857,1863,1868,1891,1903,1920,1957,1963,1988,2007,2014,2020,2047,2040,2047,2047,2040,2027,2027,2034,2040,2054,2054,2054,2054,2054,2061,2054,2020,2007,2020,2014,2014,2007,1994,2001,1988,1988,1982,1982,1982,1969,1963,1951,1932,1920,1909,1903,1885,1880,1880,1874,1863,1857,1857,1857,1857,0,0,0,1868,1868,1880,1891,1920,0,1944,1963,1982,1988,1988,1982,0,1957,1944,1903,1880,1885,1885,1903,1944,1969,2007,2068,2081,2095,2095,2095,2095,2081,2047,2027,2007,0,0,0,0,0,0,0,0,0,0,0,0,0,0,1938,1944,1938,1926,1909,1903,1897,1891,1880,1880,1880,1880,1874,1868,1857,1846,1808,1777,1752,1737,1728,0,0,0,0,0,0,0,0,0,0,0,0,0,0,0,0,0,0,0,0,0,0,0,0,0,0,0,0,0,0,0,0,0,0,0,0
2306,2306,2314,2314,2306,2306,2306,2289,2280,2264,2247,2231,2207,2192,2176,2169,2146,2146,2139,2131,2117,2117,2110,2110,2110,2110,2110,2110,2117,2124,2131,2146,2169,2184,2200,2223,2247,2256,2280,2297,2314,2332,2367,2376,2376,2386,2386,2386,2386,2367,2358,2341,2314,2239,2200,2169,2131,2095,2034,2014,2007,1994,1982,1982,1982,1982,1988,1994,2001,2007,2027,2034,2040,2047,2054,2054,2047,2047,2034,2020,2001,1914,1868,1819,1772,1728,1658,1641,1632,1632,1632,1632,1632,1628,1624,1624,1624,1628,1632,1650,1690,1737,1835,1891,1938,2047,2088,2095,2088,2088,2068,2054,2040,2020,2001,1951,1926,1909,1885,1857,1841,1835,1830,1830,1830,1830,1830,1830,1835,1835,1830,1824,1819,1819,1814,1808,1803,1798,1793,1782,1782,1777,1782,1782,1788,1788,1793,1803,1808,1814,1819,1841,1846,1852,1857,1868,1880,1891,1909,1932,1944,1963,1994,2014,2020,2047,2054,2054,2054,2054,2054,2054,2054,2054,2054,2054,2061,2074,2081,2081,2081,2081,2074,2068,2040,2034,2027,2027,2020,2020,2014,2014,2007,2007,2007,2001,1994,1982,1975,1963,1938,1926,1920,1909,1891,1885,1880,1868,1852,1857,1852,1857,1852,0,0,0,1857,1863,1874,1880,1897,1920,1944,1957,1982,1988,1994,1994,1988,0,1975,1944,1938,1932,1938,1944,1975,2001,2040,2088,2103,2110,2110,2110,2095,2081,2061,2040,2014,1982,1951,1885,1857,0,1803,0,1814,1835,0,0,1914,1932,1932,1932,1932,1926,1920,1897,1885,1880,1880,1868,1868,1868,1874,1874,1868,1863,1857,1808,1782,1757,1737,1728,0,0,0,0,0,0,0,0,0,0,0,0,0,0,0,0,0,0,0,0,0,0,0,0,0,0,0,0,0,0,0,0,0,0,0,0
2289,2289,2297,2297,2297,2297,2289,2289,2264,2256,2239,2231,2200,2184,2176,2161,2139,2131,2131,2124,2117,2110,2110,2110,2103,2103,2103,2110,2117,2124,2124,2131,2154,2169,2176,2192,2215,2223,2247,2272,2280,2306,2349,2358,2376,2376,2395,2395,2395,2376,2367,2349,2323,2247,2207,2169,2131,2095,2040,2014,2001,1994,1982,1975,1975,1975,1982,1988,1994,2007,2020,2027,2034,2040,2047,2047,2047,2047,2040,2020,2001,1920,1868,1819,1772,1728,1690,1641,1632,1628,1628,1628,1628,1628,1624,1624,1628,1628,1632,1654,1690,1733,1824,1874,1920,2027,2068,2074,2074,2068,2061,2034,2020,2001,1982,1926,1909,1891,1874,1846,1835,1830,1830,1824,1830,1830,1830,1830,1835,1830,1830,1819,1819,1819,1814,1808,1798,1793,1788,1782,1777,1777,1777,1777,1782,1782,1788,1793,1803,1808,1814,1835,1846,1852,1857,1874,1885,1897,1920,1938,1951,1969,2014,2027,2034,2061,2061,2061,2068,2061,2068,2061,2061,2061,2068,2068,2074,2088,2088,2095,2095,2095,2088,2068,2054,2040,2034,2027,2027,2020,2020,2014,2007,2007,2007,2001,2001,1994,1982,1969,1951,1938,1926,1920,1903,1891,1891,1885,1863,1868,1868,1868,1868,1863,1868,1868,1868,1880,1885,1891,1920,1938,1951,1969,1994,1994,2001,2007,2007,2014,2020,1994,1994,1988,1988,2001,2027,2040,2074,2103,2117,2124,2124,2117,2110,2095,2061,2040,2014,1988,1957,1891,1868,1841,1819,1814,1819,1830,1857,1868,1914,1932,1932,1920,1914,1909,1903,1880,1868,1863,1863,1857,1857,1863,1874,1885,1880,1874,1868,1819,1788,1762,1737,1728,1718,0,0,0,0,0,0,0,0,0,0,0,0,0,0,0,0,0,0,0,0,0,0,0,0,0,0,0,0,0,0,0,0,0,0,0
2289,2289,2297,2297,2289,2289,2289,2280,2272,2256,2247,2231,2200,2192,2176,2161,2139,2131,2124,2124,2110,2110,2110,2110,2110,2110,2110,2110,2117,2117,2124,2124,2146,2161,2169,2184,2200,2215,2231,2247,2264,2272,2297,2341,2358,2376,2386,2386,2395,2376,2358,2341,2314,2247,2207,2169,2131,2095,2034,2014,2001,1994,1982,1975,1975,1975,1975,1988,1994,2001,2014,2027,2034,2040,2047,2047,2047,2047,2034,2020,2001,1914,1863,1814,1767,1723,1690,1637,1628,1624,1628,1628,1632,1628,1624,1624,1628,1628,1632,1654,1686,1728,1808,1857,1903,2007,2040,2047,2054,2047,2040,2014,2001,1982,1957,1914,1891,1874,1863,1835,1824,1819,1819,1819,1819,1824,1824,1824,1830,1830,1824,1819,1819,1814,1814,1803,1798,1793,1788,1777,1772,1772,1772,1772,1777,1777,1777,1788,1798,1803,1808,1830,1835,1852,1857,1880,1891,1903,1932,1951,1963,1975,2027,2040,2054,2068,2068,2074,2074,2068,2068,2074,2068,2068,2068,2068,2081,2095,2095,2103,2103,2095,2095,2074,2061,2047,2027,2027,2020,2007,2007,2001,1994,2001,1994,1994,1988,1994,1988,1975,1957,1951,1938,1926,1909,1903,1891,1885,1874,1874,1874,1880,1880,1874,1880,1874,1874,1880,1885,1897,1932,1944,1957,1975,1994,2001,2007,2014,2020,2034,2034,2020,2020,2027,2034,2054,2061,2068,2095,2124,2131,2131,2117,2110,2103,2088,2047,2027,2007,1982,1957,1897,1880,1852,1835,1824,1830,1841,1863,1868,1909,1920,1920,1914,1909,1903,1897,1880,1868,1868,1863,1863,1863,1863,1874,1891,0,0,0,1835,0,0,0,1757,1742,1737,0,0,0,0,0,0,0,0,0,0,0,0,0,0,0,0,0,0,0,0,0,0,0,0,0,0,0,0,0,0,0,0,0,0
2289,2289,2297,2297,2289,2289,2289,2280,2264,2256,2247,2231,2200,2192,2169,2161,2139,2124,2124,2117,2117,2110,2110,2110,2103,2103,2103,2110,2110,2117,2124,2124,2139,2154,2161,2169,2192,2200,2207,2223,2223,2239,2264,2306,2332,2341,2367,2367,2367,2349,2341,2323,2297,2231,2192,2161,2124,2095,2034,2014,2001,1994,1982,1975,1969,1969,1975,1982,1988,1994,2014,2020,2027,2027,2034,2034,2040,2034,2027,2014,1988,1903,1852,1808,1762,1723,1686,1637,1628,1628,1628,1628,1628,1628,1624,1624,1628,1628,1628,1654,1686,1723,1798,1841,1880,1975,2014,2001,2001,1994,1988,1963,1951,1926,1914,1874,1857,1841,1830,1819,1803,1798,1798,1798,1798,1808,1814,1814,1814,1814,1814,1808,1808,1808,1803,1798,1793,1788,1782,1772,1772,1767,1767,1767,1772,1772,1772,1777,1788,1798,1808,1830,1841,1852,1863,1891,1909,1926,1951,1975,1994,2007,2047,2061,2068,2074,2081,2074,2081,2074,2074,2074,2074,2074,2074,2074,2081,2095,2103,2103,2103,2095,2088,2074,2054,2040,2034,2020,2014,2007,2007,2001,1994,1994,1994,1994,1988,1994,1988,1982,1963,1951,1944,1932,1914,1909,1897,1897,1891,1891,1897,0,1897,1897,1891,1891,1891,1891,1903,1909,1938,1951,1969,1988,2007,2014,2027,2034,2061,2074,2081,2103,2103,2103,2103,2117,2117,2117,2124,2131,2139,2131,2124,2110,2095,2081,2040,2027,2007,1982,1957,1909,1891,1874,1852,1846,1857,1863,1874,1891,1920,1926,1926,1920,1914,1909,1903,1880,1874,1874,1874,1863,1868,1874,0,0,0,1885,1885,0,0,0,0,1788,1782,0,0,0,0,0,0,0,0,0,0,0,0,0,0,0,0,0,0,0,0,0,0,0,0,0,0,0,0,0,0,0,0,0,0,0
2289,2289,2297,2297,2289,2289,2289,2280,2264,2256,2239,2231,2200,2184,2169,2154,2131,2124,2117,2117,2110,2110,2103,2103,2103,2103,2103,2110,2103,2110,2117,2110,2124,2139,2154,2161,2169,2169,2176,2176,2176,2184,2192,2223,2247,2264,2289,2297,2297,2289,2280,2264,2247,2192,2161,2139,2110,2081,2027,2014,2001,1994,1975,1969,1969,1969,1969,1975,1975,1982,1994,2001,2007,2007,2014,2007,2007,2001,1994,1975,1951,1874,1835,1793,1752,1718,1681,1637,1628,1628,1628,1624,1624,1624,1619,1624,1624,1628,1628,1654,1681,1709,1772,1803,1841,1920,1951,1969,1975,1969,1963,1938,1926,1909,1891,1874,1841,1830,1819,1803,1788,1788,1788,1782,1788,1788,1793,1793,1798,1798,1798,1798,1798,1798,1798,1793,1793,1788,1782,1777,1772,1772,1772,1767,1767,1772,1777,1777,1798,1803,1808,1830,1841,1857,1868,1897,1920,1938,1969,1994,2014,2034,2068,2081,2081,2088,2095,2095,2095,2095,2095,2095,2088,2088,2088,2088,2088,2095,2103,2095,2088,2088,2081,2074,2047,2034,2027,2020,2014,2007,2007,2007,1994,1994,1994,1988,1988,1982,1988,1982,1963,1957,1944,1938,1920,1920,1909,1909,1903,1903,1909,1909,1914,1914,1909,1909,1903,1903,1914,1926,1951,1963,1975,1988,2014,2020,2034,2047,2074,2088,2103,2124,2124,2139,2131,2139,2131,2131,2139,2139,2139,2131,2110,2103,2088,2074,2034,2020,2007,1982,1963,1926,1909,1891,1880,1874,1880,1891,1897,1909,1926,1932,1938,1926,1920,1914,1909,1891,1885,1885,1885,1880,1880,1885,0,1909,1909,1909,1914,1891,0,0,0,0,0,0,0,0,0,0,0,0,0,0,0,0,0,0,0,0,0,0,0,0,0,0,0,0,0,0,0,0,0,0,0,0,0,0,0,0
2289,2289,2297,2297,2289,2289,2280,2272,2256,2247,2239,2223,2192,2169,2161,2146,2124,2117,2117,2110,2103,2103,2103,2103,2103,2103,2103,2103,2103,2103,2110,2110,2124,2139,2154,2161,2161,2169,2169,2169,2161,2161,2169,2200,2215,2231,2239,2256,2256,2256,2239,2231,2215,2169,2146,2117,2095,2068,2027,2007,1994,1988,1975,1969,1969,1963,1969,1969,1969,1975,1988,1994,1994,2001,2001,2001,1994,1988,1982,1963,1938,1863,1819,1782,1742,1709,1681,1641,1632,1628,1624,1624,1624,1619,1619,1619,1624,1628,1632,1654,1676,1704,1757,1788,1819,1897,1920,1944,1944,1944,1938,1926,1903,1885,1874,1857,1824,1814,1808,1793,1782,1777,1772,1772,1777,1777,1782,1782,1782,1788,1788,1793,1793,1798,1793,1793,1793,1793,1788,1782,1777,1777,1777,1772,1772,1777,1782,1788,1803,1808,1819,1841,1846,1863,1874,1903,1920,1944,1975,2007,2020,2034,2074,2081,2088,2095,2103,2103,2103,2103,2095,2095,2088,2088,2088,2081,2081,2095,2095,2095,2088,2081,2068,2061,2040,2034,2020,2020,2014,2007,2007,2007,1994,1994,1988,1988,1982,1975,1975,1969,1957,1944,1938,1938,1920,1920,1909,1914,1914,1926,1932,1938,1938,1938,1938,1926,1926,1926,1932,1938,1963,1975,1988,2007,2027,2034,2040,2061,2095,2110,2124,2146,2146,2154,2154,2154,2154,2146,2146,2146,2146,2131,2110,2095,2081,2068,2040,2020,2007,1988,1969,1938,1926,1914,1909,1903,1909,1920,1926,1926,1938,1944,1944,1938,1932,1926,1920,1897,1897,1891,1891,1891,1897,1897,1909,1920,1926,1920,1926,1920,1903,1880,1868,1863,1897,1897,1897,1914,1926,0,0,0,0,0,0,0,0,0,0,0,0,0,0,0,0,0,0,0,0,0,0,0,0,0,0,0,0,0,0,0
2280,2289,2297,2289,2289,2280,2280,2272,2247,2239,2223,2215,2184,2169,2154,2139,2124,2117,2110,2110,2103,2103,2095,2095,2095,2095,2095,2103,2103,2103,2110,2110,2124,2146,2154,2161,2169,2169,2169,2161,2161,2154,2161,2176,2192,2200,2207,2223,2215,2223,2207,2192,2176,2161,2124,2103,2074,2054,2014,2001,1994,1982,1975,1969,1963,1963,1963,1963,1969,1975,1982,1988,1988,1988,1988,1988,1982,1975,1963,1944,1920,1885,1808,1772,1737,1704,1681,1645,1637,1632,1628,1624,1619,1619,1615,1615,1619,1628,1632,1654,1672,1695,1747,1772,1803,1868,1897,1914,1920,1920,1909,1903,1885,1868,1857,1841,1814,1803,1798,1782,1772,1767,1767,1767,1767,1767,1767,1772,1777,1777,1782,1782,1788,1793,1793,1793,1793,1793,1788,1782,1782,1782,1782,1777,1782,1788,1788,1798,1808,1814,1824,1846,1852,1868,1874,1903,1926,1944,1975,2007,2020,2034,2074,2081,2088,2103,2103,2103,2103,2103,2103,2095,2088,2088,2081,2081,2081,2081,2081,2081,2068,2061,2054,2047,2034,2027,2020,2020,2014,2014,2007,2001,1988,1988,1982,1982,1963,1957,1957,1951,1938,1932,1926,1932,1920,1920,1926,1932,1932,1944,1951,1963,1969,1975,1963,1951,1951,1944,1951,1957,1975,1988,2007,2020,2040,2047,2061,2088,2103,2117,2131,2154,2169,2169,2169,2176,2169,2161,2146,2146,2131,2117,2088,2074,2061,2054,2020,2014,1994,1988,1969,1944,1932,1920,1914,1914,1932,1938,1951,1951,1963,1963,1969,1951,1944,1938,1932,1920,1914,1909,1909,1903,1909,1914,1926,1932,1938,1938,1938,1932,1932,1926,1920,1920,1920,1920,1920,1926,0,0,0,0,0,0,0,0,0,0,0,0,0,0,0,0,0,0,0,0,0,0,0,0,0,0,0,0,0,0,0,0
2280,2280,2280,2280,2280,2272,2272,2264,2247,2231,2223,2207,2176,2161,2146,2139,2117,2110,2110,2103,2103,2095,2095,2095,2095,2095,2095,2095,2095,2103,2110,2117,2131,2146,2154,2161,2169,2169,2169,2161,2154,2146,2154,2161,2169,2169,2176,2184,2176,2176,2169,2161,2146,2124,2095,2074,2061,2040,2007,1994,1988,1975,1969,1963,1963,1963,1963,1957,1963,1969,1975,1982,1982,1982,1975,1975,1969,1957,1944,1926,1903,1863,1793,1762,1728,1699,1676,1650,1641,1632,1624,1619,1619,1615,1611,1611,1619,1628,1632,1650,1663,1681,1723,1742,1762,1793,1841,1857,1868,1868,1863,1857,1846,1841,1830,1819,1803,1793,1788,1777,1767,1762,1757,1757,1762,1762,1757,1762,1762,1757,1762,1767,1767,1777,1782,1788,1793,1793,1793,1788,1788,1788,1782,1788,1788,1788,1793,1803,1814,1819,1830,1852,1863,1868,1880,1909,1926,1938,1975,2001,2020,2034,2074,2081,2088,2103,2103,2095,2103,2095,2095,2095,2088,2088,2088,2081,2074,2074,2068,2074,2054,2054,2047,2040,2034,2034,2027,2027,2020,2014,2014,2001,1994,1982,1975,1969,1951,1951,1944,1938,1926,1920,1920,1920,1926,1920,1926,1938,1951,1963,1975,1982,2007,1994,1988,1975,1975,1969,1975,1969,1982,1994,2001,2014,2027,2034,2040,2054,2074,2088,2103,2124,2131,2139,2146,2154,2154,2146,2124,2124,2110,2095,2061,2047,2034,2020,2014,1994,1988,1975,1963,1957,1944,1938,1932,1932,1938,1944,1944,1951,1957,1957,1963,1951,1944,1938,1932,1920,1914,1909,1909,1909,1914,1914,1920,1926,1932,1926,1932,1926,1932,1932,1932,1932,1932,1932,1932,1938,1938,1932,1932,1926,1926,1920,1914,1909,0,0,0,0,0,0,0,0,0,0,0,0,0,0,0,0,0,0,0,0,0,0,0,0
