# .PCD v0.7 - Point Cloud Data file format
VERSION 0.7
FIELDS x y z
SIZE 4 4 4
TYPE F F F
COUNT 1 1 1
WIDTH 1611
HEIGHT 1
VIEWPOINT 0 0 0 1 0 0 0
POINTS 1611
DATA ascii
1322.918032 -77.67924918 2563
1347.120768 -78.31571591 2584
1377.858748 -79.31587792 2617
1459.447153 -83.19529419 2745
1499.948625 -84.68038323 2794
1549.087181 -86.62009136 2858
1608.73711 -89.10534241 2940
1639.407681 -89.95396472 2968
1654.756946 -89.95396472 2968
1670.106212 -89.95396472 2968
1677.505215 -89.52965356 2954
1684.759415 -89.10534241 2940
1691.86881 -88.68103125 2926
1683.081854 -87.43840573 2885
1698.001878 -87.43840573 2885
1705.203363 -87.04440251 2872
1711.671481 -86.62009136 2858
1718.598872 -86.22608815 2845
1733.312032 -86.22608815 2845
1748.025192 -86.22608815 2845
1754.683661 -85.83208493 2832
1761.207668 -85.43808172 2819
1775.786367 -85.43808172 2819
1774.487405 -84.68038323 2794
1788.936815 -84.68038323 2794
1787.249984 -83.92268474 2769
1801.570103 -83.92268474 2769
1808.02071 -83.55898946 2757
1814.347198 -83.19529419 2745
1811.889801 -82.4375957 2720
1818.57213 -82.10420836 2709
1832.581955 -82.10420836 2709
1830.232163 -81.37681781 2685
1836.562824 -81.04343047 2674
1842.087717 -80.6797352 2662
1925.097072 -77.37616978 2553
1929.94866 -77.04278245 2542
1966.974023 -72.58751533 2395
-686.1875393 -60.4277956 2404
-671.2326706 -60.20156841 2395
-658.8467237 -60.20156841 2395
-646.4607768 -60.20156841 2395
-634.0748298 -60.20156841 2395
-624.0250833 -60.4277956 2404
-611.5925921 -60.4277956 2404
-599.160101 -60.4277956 2404
-586.7276098 -60.4277956 2404
-572.1450953 -60.20156841 2395
-559.7591483 -60.20156841 2395
-545.3162666 -59.97534122 2386
-530.7430967 -59.72397768 2376
-516.4915637 -59.49775049 2367
-502.3331192 -59.2715233 2358
-490.1385209 -59.2715233 2358
-479.7681361 -59.49775049 2367
-467.5269936 -59.49775049 2367
-457.016976 -59.72397768 2376
-446.6010454 -59.97534122 2386
-437.5377155 -60.4277956 2404
-426.6967165 -60.65402279 2413
-417.4792375 -61.13161352 2432
-408.2317277 -61.6343406 2452
-397.0028597 -61.86056779 2461
-388.9599716 -62.61465842 2491
-377.5872978 -62.86602196 2501
-363.1951334 -62.61465842 2491
-348.9064007 -62.36329487 2481
-336.0756974 -62.36329487 2481
-324.547876 -62.61465842 2491
-312.9166229 -62.86602196 2501
-301.1819381 -63.1173855 2511
-287.048353 -62.86602196 2501
-276.306255 -63.36874904 2521
-263.2686883 -63.36874904 2521
-251.3229671 -63.64524894 2532
-237.193555 -63.36874904 2521
-224.1559883 -63.36874904 2521
-211.1184216 -63.36874904 2521
-196.5094083 -62.86602196 2501
-184.3092808 -63.1173855 2511
-171.32343 -63.1173855 2511
-158.9681549 -63.36874904 2521
-146.5673342 -63.64524894 2532
-134.0000241 -63.89661248 2542
-121.8522535 -64.42447592 2563
-109.0635638 -64.70097582 2574
-96.12389962 -64.95233936 2584
-82.76052307 -64.95233936 2584
-69.39714652 -64.95233936 2584
-56.03376997 -64.95233936 2584
-42.50526032 -64.70097582 2574
-29.06884065 -64.42447592 2563
-15.8140674 -64.42447592 2563
-2.5493086 -64.17311238 2553
10.69547912 -64.42447592 2563
23.95025237 -64.42447592 2563
37.20502563 -64.42447592 2563
50.26292101 -64.17311238 2553
63.46597842 -64.17311238 2553
76.33869528 -63.89661248 2542
89.13283981 -63.64524894 2532
100.9756959 -62.86602196 2501
112.9989166 -62.36329487 2481
125.8296199 -62.36329487 2481
137.5425454 -61.86056779 2461
150.269817 -61.86056779 2461
162.9970885 -61.86056779 2461
176.4383965 -62.11193133 2471
189.2173839 -62.11193133 2471
202.8138394 -62.36329487 2481
216.5137266 -62.61465842 2491
230.3170456 -62.86602196 2501
244.2237962 -63.1173855 2511
258.2339786 -63.36874904 2521
271.2715452 -63.36874904 2521
284.3091119 -63.36874904 2521
297.3466786 -63.36874904 2521
310.3842453 -63.36874904 2521
324.8330138 -63.64524894 2532
337.9274679 -63.64524894 2532
352.4082645 -63.89661248 2542
367.1362987 -64.17311238 2553
380.3393561 -64.17311238 2553
395.0839036 -64.42447592 2563
410.0912033 -64.70097582 2574
426.8571997 -65.22883926 2595
440.2774637 -65.22883926 2595
450.0261854 -64.70097582 2574
463.3378461 -64.70097582 2574
474.6125431 -64.42447592 2563
485.9638153 -64.17311238 2553
497.0161341 -63.89661248 2542
503.9408126 -63.1173855 2511
514.8680148 -62.86602196 2501
523.5814209 -62.36329487 2481
534.2500438 -62.11193133 2471
540.6090224 -61.38297706 2442
553.2380338 -61.38297706 2442
563.5498173 -61.13161352 2432
573.9950636 -60.90538633 2423
584.1051553 -60.65402279 2413
596.5841908 -60.65402279 2413
609.0632262 -60.65402279 2413
619.2240352 -60.4277956 2404
629.2917557 -60.20156841 2395
641.6777027 -60.20156841 2395
671.4584035 -60.65402279 2413
689.3227731 -61.13161352 2432
704.7861709 -61.38297706 2442
720.3530005 -61.6343406 2452
744.6929102 -62.61465842 2491
763.657829 -63.1173855 2511
776.6436798 -63.1173855 2511
796.2333618 -63.64524894 2532
805.8117788 -63.36874904 2521
829.2433078 -64.17311238 2553
845.7461943 -64.42447592 2563
866.0392119 -64.95233936 2584
1185.80495 -69.6025649 2769
1200.12507 -69.6025649 2769
1214.44519 -69.6025649 2769
1239.859255 -70.23097375 2794
1254.308664 -70.23097375 2794
1268.758073 -70.23097375 2794
1271.725669 -69.6025649 2769
1274.89913 -68.99929239 2745
1272.188966 -68.09438364 2709
1274.803896 -67.49111114 2685
1272.371 -66.6364751 2651
1253.577132 -64.95233936 2584
1262.037488 -64.70097582 2574
1269.898938 -64.42447592 2563
1278.14726 -64.17311238 2553
1291.350317 -64.17311238 2553
1337.256632 -65.78183905 2617
1356.46843 -66.05833895 2628
1382.049983 -66.6364751 2651
1438.406611 -68.67251979 2732
1478.587444 -69.90420115 2781
1527.327787 -71.51292782 2845
1578.356148 -73.19706355 2912
1631.719069 -74.95660835 2982
1654.873791 -75.30851731 2996
1670.367861 -75.30851731 2996
1677.984071 -74.95660835 2982
1685.455477 -74.60469939 2968
1684.759415 -73.90088147 2940
1691.86881 -73.54897251 2926
1683.081854 -72.51838199 2885
1690.35057 -72.19160938 2872
1696.89109 -71.83970042 2858
1711.671481 -71.83970042 2858
1718.598872 -71.51292782 2845
1733.312032 -71.51292782 2845
1740.037731 -71.18615521 2832
1746.628969 -70.85938261 2819
1753.710509 -70.55774636 2807
1760.037996 -70.23097375 2794
1766.231021 -69.90420115 2781
1772.929864 -69.6025649 2769
1779.504588 -69.30092865 2757
1793.762649 -69.30092865 2757
1800.151196 -68.99929239 2745
1805.754661 -68.67251979 2732
1811.889801 -68.37088354 2720
1818.57213 -68.09438364 2709
1824.464205 -67.79274739 2697
1830.232163 -67.49111114 2685
1836.562824 -67.21461124 2674
1842.087717 -66.91297499 2662
1925.097072 -64.17311238 2553
1966.974023 -60.20156841 2395
-696.0045644 -47.81562149 2395
-681.0496958 -47.63593857 2386
-668.7102931 -47.63593857 2386
-656.3708905 -47.63593857 2386
-646.4607768 -47.81562149 2395
-634.0748298 -47.81562149 2395
-621.6888829 -47.81562149 2395
-611.5925921 -47.99530441 2404
-599.160101 -47.99530441 2404
-586.7276098 -47.99530441 2404
-572.1450953 -47.81562149 2395
-557.6556693 -47.63593857 2386
-545.3162666 -47.63593857 2386
-530.7430967 -47.43629088 2376
-516.4915637 -47.25660796 2367
-502.3331192 -47.07692504 2358
-490.1385209 -47.07692504 2358
-477.9439227 -47.07692504 2358
-467.5269936 -47.25660796 2367
-455.2858511 -47.25660796 2367
-443.0447085 -47.25660796 2367
-434.2616428 -47.63593857 2386
-423.5137322 -47.81562149 2395
-417.4792375 -48.55431794 2432
-404.901942 -48.55431794 2432
-395.5510004 -48.95361332 2452
-388.9599716 -49.73223931 2491
-376.0775525 -49.73223931 2491
-361.7371039 -49.53259162 2481
-348.9064007 -49.53259162 2481
-336.0756974 -49.53259162 2481
-324.547876 -49.73223931 2491
-311.6654569 -49.73223931 2491
-299.982488 -49.93188699 2501
-288.1960873 -50.13153468 2511
-275.2102365 -50.13153468 2511
-263.2686883 -50.33118237 2521
-250.2311216 -50.33118237 2521
-237.193555 -50.33118237 2521
-223.2668332 -50.13153468 2511
-209.4435432 -49.93188699 2501
-195.7236849 -49.73223931 2491
-182.8412658 -49.73223931 2491
-170.6411383 -49.93188699 2501
-158.3375791 -50.13153468 2511
-145.9305883 -50.33118237 2521
-134.0000241 -50.75044252 2542
-121.3768252 -50.97005498 2553
-108.5974802 -51.16970267 2563
-96.12389962 -51.58896281 2584
-82.44024241 -51.38931512 2574
-69.12858171 -51.38931512 2574
-55.81692102 -51.38931512 2574
-42.50526032 -51.38931512 2574
-29.06884065 -51.16970267 2563
-15.8140674 -51.16970267 2563
-2.5493086 -50.97005498 2553
10.74138246 -51.38931512 2574
24.05304316 -51.38931512 2574
37.20502563 -51.16970267 2563
50.45979889 -51.16970267 2563
63.46597842 -50.97005498 2553
76.66903582 -50.97005498 2553
89.48486525 -50.75044252 2542
101.7831785 -50.33118237 2521
113.9098309 -49.93188699 2501
125.8296199 -49.53259162 2481
138.1014343 -49.33294393 2471
150.8804217 -49.33294393 2471
164.3217296 -49.53259162 2481
177.1524329 -49.53259162 2481
189.9831362 -49.53259162 2481
202.8138394 -49.53259162 2481
217.3829106 -49.93188699 2501
230.3170456 -49.93188699 2501
243.2511805 -49.93188699 2501
256.1853155 -49.93188699 2501
269.1194505 -49.93188699 2501
282.0535854 -49.93188699 2501
294.9877204 -49.93188699 2501
307.9218554 -49.93188699 2501
320.8559903 -49.93188699 2501
335.1247519 -50.13153468 2511
349.4969453 -50.33118237 2521
364.1163761 -50.55079483 2532
377.2108302 -50.55079483 2532
391.8467744 -50.75044252 2542
408.3386768 -51.16970267 2563
423.402864 -51.38931512 2574
436.7145247 -51.38931512 2574
448.1029966 -51.16970267 2563
461.3577698 -51.16970267 2563
472.7607579 -50.97005498 2553
485.9638153 -50.97005498 2553
497.0161341 -50.75044252 2542
503.9408126 -50.13153468 2511
514.8680148 -49.93188699 2501
525.6917853 -49.73223931 2491
534.2500438 -49.33294393 2471
542.8228185 -48.95361332 2452
553.2380338 -48.75396563 2442
563.5498173 -48.55431794 2432
573.9950636 -48.37463502 2423
584.1051553 -48.17498733 2413
594.3590529 -47.99530441 2404
606.7915441 -47.99530441 2404
619.2240352 -47.99530441 2404
626.9269851 -47.63593857 2386
641.6777027 -47.81562149 2395
656.5215088 -47.99530441 2404
671.4584035 -48.17498733 2413
689.3227731 -48.55431794 2432
783.1389077 -50.55079483 2532
796.2333618 -50.55079483 2532
805.8117788 -50.33118237 2521
822.42227 -50.55079483 2532
842.4463652 -50.97005498 2553
859.0009675 -51.16970267 2563
875.9993277 -51.38931512 2574
904.1673879 -52.24780019 2617
929.6241813 -52.92660233 2651
947.2483033 -53.14621479 2662
965.3472125 -53.38579201 2674
1066.518296 -53.60540447 2685
1185.80495 -55.28244506 2769
1216.594826 -56.04110628 2807
1236.3745 -56.2806835 2819
1262.490902 -56.79976749 2845
1277.204062 -56.79976749 2845
1291.917222 -56.79976749 2845
1306.630383 -56.79976749 2845
1309.267996 -56.2806835 2819
1306.001298 -55.52202228 2781
1308.988581 -55.04286783 2757
1311.24767 -54.54374861 2732
1291.417308 -53.14621479 2662
1299.790746 -52.92660233 2651
1313.500619 -52.92660233 2651
1321.202749 -52.6870251 2639
1340.920364 -52.92660233 2651
1360.251109 -53.14621479 2662
1380.211789 -53.38579201 2674
1412.287213 -54.08455892 2709
1464.205265 -55.52202228 2781
1498.791084 -56.2806835 2819
1541.822638 -57.33881625 2872
1585.944398 -58.41691377 2926
1639.379722 -59.8144476 2996
1671.444624 -60.41339066 3026
1678.730851 -60.11391913 3011
1685.861931 -59.8144476 2996
1685.455477 -59.25543407 2968
1684.759415 -58.69642054 2940
1691.86881 -58.41691377 2926
1683.081854 -57.59835825 2885
1698.001878 -57.59835825 2885
1696.89109 -57.05930949 2858
1703.885711 -56.79976749 2845
1710.745872 -56.5402255 2832
1717.471571 -56.2806835 2819
1732.05027 -56.2806835 2819
1739.193869 -56.04110628 2807
1737.466664 -55.52202228 2781
1744.289624 -55.28244506 2769
1758.609744 -55.28244506 2769
1765.246527 -55.04286783 2757
1771.759193 -54.8032906 2745
1785.955195 -54.8032906 2745
1800.151196 -54.8032906 2745
1805.754661 -54.54374861 2732
1804.562306 -54.08455892 2709
1818.57213 -54.08455892 2709
1824.464205 -53.8449817 2697
1830.232163 -53.60540447 2685
1836.562824 -53.38579201 2674
1966.974023 -47.81562149 2395
-693.3890984 -35.29653592 2386
-678.1953383 -35.14860409 2376
-665.9076515 -35.14860409 2376
-656.3708905 -35.29653592 2386
-644.0314878 -35.29653592 2386
-631.6920852 -35.29653592 2386
-621.6888829 -35.42967458 2395
-611.5925921 -35.56281323 2404
-599.160101 -35.56281323 2404
-586.7276098 -35.56281323 2404
-572.1450953 -35.42967458 2395
-557.6556693 -35.29653592 2386
-545.3162666 -35.29653592 2386
-530.7430967 -35.14860409 2376
-516.4915637 -35.01546544 2367
-502.3331192 -34.88232678 2358
-490.1385209 -34.88232678 2358
-477.9439227 -34.88232678 2358
-465.7493244 -34.88232678 2358
-453.5547262 -34.88232678 2358
-441.3601279 -34.88232678 2358
-432.4416024 -35.14860409 2376
-421.9222401 -35.29653592 2386
-412.6727332 -35.56281323 2404
-403.4035384 -35.84388371 2423
-392.3246464 -35.97702237 2432
-385.8370493 -36.55395652 2471
-376.0775525 -36.84982019 2491
-361.7371039 -36.70188836 2481
-347.5000871 -36.55395652 2471
-336.0756974 -36.70188836 2481
-323.2449941 -36.70188836 2481
-312.9166229 -36.99775203 2501
-298.7830378 -36.84982019 2491
-288.1960873 -37.14568387 2511
-276.306255 -37.2936157 2521
-263.2686883 -37.2936157 2521
-249.2385349 -37.14568387 2511
-235.3118132 -36.99775203 2501
-221.4885231 -36.84982019 2491
-207.7686648 -36.70188836 2481
-194.1522382 -36.55395652 2471
-181.3732508 -36.55395652 2471
-169.2765551 -36.70188836 2481
-157.0764276 -36.84982019 2491
-144.7728684 -36.99775203 2501
-133.4728801 -37.45634072 2532
-120.8538542 -37.60427256 2542
-108.5974802 -37.91492941 2563
-95.7519031 -38.07765443 2574
-82.44024241 -38.07765443 2574
-69.12858171 -38.07765443 2574
-55.81692102 -38.07765443 2574
-42.50526032 -38.07765443 2574
-29.06884065 -37.91492941 2563
-15.8140674 -37.91492941 2563
-2.55929414 -37.91492941 2563
10.78311277 -38.22558626 2584
24.14648932 -38.22558626 2584
37.36470385 -38.07765443 2574
50.67636455 -38.07765443 2574
63.98802524 -38.07765443 2574
76.9693454 -37.91492941 2563
89.87209322 -37.76699757 2553
101.7831785 -37.2936157 2521
114.365288 -37.14568387 2511
126.8439659 -36.99775203 2501
139.219212 -36.84982019 2491
151.4910264 -36.70188836 2481
164.3217296 -36.70188836 2481
177.1524329 -36.70188836 2481
189.9831362 -36.70188836 2481
202.8138394 -36.70188836 2481
217.3829106 -36.99775203 2501
230.3170456 -36.99775203 2501
242.2785649 -36.84982019 2491
256.1853155 -36.99775203 2501
268.0434031 -36.84982019 2491
280.9258222 -36.84982019 2491
293.8082413 -36.84982019 2491
306.6906604 -36.84982019 2491
319.5730795 -36.84982019 2491
332.4554986 -36.84982019 2491
346.7242603 -36.99775203 2501
361.0964536 -37.14568387 2511
375.5720786 -37.2936157 2521
390.3052844 -37.45634072 2532
404.9929444 -37.60427256 2542
419.9485283 -37.76699757 2553
433.1515857 -37.76699757 2553
446.3546431 -37.76699757 2553
459.5577005 -37.76699757 2553
472.7607579 -37.76699757 2553
483.8699642 -37.60427256 2542
497.0161341 -37.60427256 2542
505.9477453 -37.2936157 2521
516.9266634 -37.14568387 2511
527.8021498 -36.99775203 2501
538.5742044 -36.84982019 2491
544.8152351 -36.40602469 2461
555.5035458 -36.27288604 2452
565.8670452 -36.1249542 2442
573.9950636 -35.84388371 2423
586.5258149 -35.84388371 2423
599.0565662 -35.84388371 2423
611.5873175 -35.84388371 2423
621.5422617 -35.69595188 2413
631.6565264 -35.56281323 2404
646.5003326 -35.69595188 2413
661.7103227 -35.84388371 2423
676.7454775 -35.97702237 2432
692.1571595 -36.1249542 2442
707.6722732 -36.27288604 2452
725.9348549 -36.55395652 2471
750.6719781 -37.14568387 2511
770.0444536 -37.45634072 2532
783.1389077 -37.45634072 2532
796.2333618 -37.45634072 2532
805.8117788 -37.2936157 2521
842.4463652 -37.76699757 2553
925.4161503 -39.03921136 2639
947.2483033 -39.37945458 2662
965.3472125 -39.55697278 2674
1001.54603 -39.897216 2697
1043.389327 -39.897216 2697
1071.284858 -39.897216 2697
1085.232624 -39.897216 2697
1118.080894 -40.07473421 2709
1155.831187 -40.41497743 2732
1190.943867 -41.13984342 2781
1210.960436 -41.33215481 2794
1236.3745 -41.7019844 2819
1262.490902 -42.08660717 2845
1277.204062 -42.08660717 2845
1297.820535 -42.27891855 2858
1306.630383 -42.08660717 2845
1309.267996 -41.7019844 2819
1312.106302 -41.33215481 2794
1314.686029 -40.96232522 2769
1300.208616 -40.07473421 2709
1308.396875 -39.897216 2697
1316.461016 -39.7196978 2685
1336.292406 -39.897216 2697
1350.240172 -39.897216 2697
1375.821724 -40.23745923 2720
1389.888436 -40.23745923 2720
1410.149068 -40.41497743 2732
1437.311129 -40.78480702 2757
1491.056926 -41.89429578 2832
1519.526399 -42.27891855 2858
1563.296491 -43.07775046 2912
1601.1209 -43.69906417 2954
1647.587564 -44.54227563 3011
1671.444624 -44.76417339 3026
1687.093841 -44.76417339 3026
1677.984071 -44.11327331 2982
1685.455477 -43.90616874 2968
1684.759415 -43.4919596 2940
1691.86881 -43.28485503 2926
1683.081854 -42.67833451 2885
1698.001878 -42.67833451 2885
1696.89109 -42.27891855 2858
1703.885711 -42.08660717 2845
1702.892871 -41.7019844 2819
1717.471571 -41.7019844 2819
1716.689767 -41.33215481 2794
1731.139177 -41.33215481 2794
1729.969504 -40.96232522 2769
1729.171187 -40.60728881 2745
1743.367189 -40.60728881 2745
1749.239577 -40.41497743 2732
1763.368348 -40.41497743 2732
1769.689665 -40.23745923 2720
1791.62589 -40.41497743 2732
1797.823089 -40.23745923 2720
1804.562306 -40.07473421 2709
1818.57213 -40.07473421 2709
1824.464205 -39.897216 2697
1830.232163 -39.7196978 2685
1836.562824 -39.55697278 2674
-685.2520931 -22.68772852 2358
-673.0574948 -22.68772852 2358
-660.8628966 -22.68772852 2358
-651.1441315 -22.77432291 2367
-638.902989 -22.77432291 2367
-629.0445911 -22.86091729 2376
-616.7569043 -22.86091729 2376
-607.0132799 -22.95713327 2386
-594.6738772 -22.95713327 2386
-582.3344746 -22.95713327 2386
-569.9950719 -22.95713327 2386
-555.3184703 -22.86091729 2376
-540.9738488 -22.77432291 2367
-528.7327062 -22.77432291 2367
-512.5638712 -22.60113414 2349
-498.7115488 -22.52416136 2341
-486.6048675 -22.52416136 2341
-472.6739727 -22.43756697 2332
-460.6138357 -22.43756697 2332
-448.5536986 -22.43756697 2332
-434.808981 -22.35097259 2323
-422.7953882 -22.35097259 2323
-412.3732875 -22.43756697 2332
-403.2313853 -22.60113414 2349
-391.0833313 -22.60113414 2349
-380.3871366 -22.68772852 2358
-369.5978534 -22.77432291 2367
-362.9427684 -23.13032204 2404
-350.5102772 -23.13032204 2404
-339.3434683 -23.21691642 2413
-329.4381685 -23.39972679 2432
-318.1637548 -23.49594277 2442
-306.7859094 -23.59215875 2452
-295.1846873 -23.67875314 2461
-285.9006187 -23.96740108 2491
-274.114218 -24.06361707 2501
-262.2243857 -24.15983305 2511
-248.2459481 -24.06361707 2501
-234.3709422 -23.96740108 2491
-220.5993681 -23.8711851 2481
-207.7686648 -23.8711851 2481
-193.3665149 -23.67875314 2461
-181.3732508 -23.77496912 2471
-169.2765551 -23.8711851 2481
-156.4458518 -23.8711851 2481
-144.7728684 -24.06361707 2501
-133.4728801 -24.36188661 2532
-121.3768252 -24.56394017 2553
-108.5974802 -24.66015615 2563
-95.7519031 -24.76599373 2574
-82.76052307 -24.86220971 2584
-69.39714652 -24.86220971 2584
-56.03376997 -24.86220971 2584
-42.67039342 -24.86220971 2584
-29.19359963 -24.76599373 2574
-15.88193893 -24.76599373 2574
-2.570278235 -24.76599373 2574
10.74138246 -24.76599373 2574
24.05304316 -24.76599373 2574
37.20502563 -24.66015615 2563
50.45979889 -24.66015615 2563
63.71457214 -24.66015615 2563
76.66903582 -24.56394017 2553
89.87209322 -24.56394017 2553
101.7831785 -24.25604903 2521
114.8207452 -24.25604903 2521
127.3511389 -24.15983305 2511
139.219212 -23.96740108 2491
152.1016311 -23.96740108 2491
164.9840502 -23.96740108 2491
177.8664693 -23.96740108 2491
190.7488884 -23.96740108 2491
203.6313075 -23.96740108 2491
217.3829106 -24.06361707 2501
229.3961458 -23.96740108 2491
242.2785649 -23.96740108 2491
254.1366525 -23.8711851 2481
266.9673557 -23.8711851 2481
279.798059 -23.8711851 2481
291.4492831 -23.77496912 2471
304.2282705 -23.77496912 2471
317.0072579 -23.77496912 2471
331.120872 -23.8711851 2481
343.9515753 -23.8711851 2481
358.2203369 -23.96740108 2491
372.5925302 -24.06361707 2501
388.6096453 -24.25604903 2521
401.647212 -24.25604903 2521
418.1391144 -24.45810259 2542
431.2852843 -24.45810259 2542
444.4314543 -24.45810259 2542
457.5776242 -24.45810259 2542
470.7237942 -24.45810259 2542
483.8699642 -24.45810259 2542
495.0609172 -24.36188661 2532
508.1553714 -24.36188661 2532
518.985312 -24.25604903 2521
529.9125142 -24.15983305 2511
540.7362847 -24.06361707 2501
549.2428274 -23.8711851 2481
559.8080186 -23.77496912 2471
570.2697782 -23.67875314 2461
580.8650004 -23.59215875 2452
591.1250681 -23.49594277 2442
603.7540795 -23.49594277 2442
616.3830909 -23.49594277 2442
626.4362952 -23.39972679 2432
636.6488201 -23.31313241 2423
649.1795714 -23.31313241 2423
664.168182 -23.39972679 2432
679.5281481 -23.49594277 2442
692.1571595 -23.49594277 2442
786.2318734 -24.45810259 2542
802.837193 -24.56394017 2553
812.5242133 -24.45810259 2542
825.6703832 -24.45810259 2542
842.4463652 -24.56394017 2553
875.9993277 -24.76599373 2574
900.3669136 -25.07388487 2606
921.5587886 -25.28556004 2628
943.3340541 -25.50685679 2651
961.0150635 -25.61269437 2662
979.1760317 -25.72815355 2674
997.0897625 -25.83399113 2685
1043.389327 -25.94945031 2697
1057.337092 -25.94945031 2697
1071.284858 -25.94945031 2697
1080.404002 -25.83399113 2685
1099.180389 -25.94945031 2697
1118.080894 -26.06490949 2709
1136.687618 -26.17074707 2720
1155.831187 -26.28620625 2732
1185.80495 -26.64220538 2769
1210.960436 -26.88274533 2794
1236.3745 -27.12328529 2819
1256.72205 -27.24836607 2832
1277.204062 -27.37344684 2845
1297.820535 -27.49852762 2858
1306.630383 -27.37344684 2845
1315.305769 -27.24836607 2832
1312.106302 -26.88274533 2794
1320.383476 -26.75766456 2781
1305.488163 -26.17074707 2720
1314.21844 -26.06490949 2709
1328.228265 -26.06490949 2709
1342.23809 -26.06490949 2709
1361.755012 -26.17074707 2720
1381.891526 -26.28620625 2732
1408.795007 -26.5267462 2757
1429.246988 -26.64220538 2769
1456.600397 -26.88274533 2794
1497.901467 -27.37344684 2845
1533.881617 -27.75831077 2885
1563.296491 -28.01809392 2912
1593.532649 -28.28749867 2940
1624.058416 -28.55690342 2968
1647.140736 -28.69160579 2982
1654.756946 -28.55690342 2968
1654.350493 -28.28749867 2940
1661.604692 -28.15279629 2926
1668.714087 -28.01809392 2912
1675.678677 -27.88339155 2898
1675.497776 -27.63322999 2872
1682.110699 -27.49852762 2858
1696.89109 -27.49852762 2858
1696.099942 -27.24836607 2832
1695.643948 -27.00782611 2807
1702.240358 -26.88274533 2794
1701.329265 -26.64220538 2769
1708.214284 -26.5267462 2757
1699.356104 -26.17074707 2720
1706.493533 -26.06490949 2709
1712.88208 -25.94945031 2697
1726.829846 -25.94945031 2697
1740.777611 -25.94945031 2697
1754.725377 -25.94945031 2697
1776.542656 -26.06490949 2709
1790.552481 -26.06490949 2709
1804.562306 -26.06490949 2709
1810.51644 -25.94945031 2697
1824.464205 -25.94945031 2697
1830.232163 -25.83399113 2685
1836.562824 -25.72815355 2674
-689.7564394 -10.37742993 2332
-680.3117684 -10.41748005 2341
-668.2050871 -10.41748005 2341
-658.3405191 -10.45308015 2349
-646.1924651 -10.45308015 2349
-636.4737 -10.49313027 2358
-624.2791018 -10.49313027 2358
-612.0845035 -10.49313027 2358
-599.8899053 -10.49313027 2358
-589.9384189 -10.53318038 2367
-577.6972763 -10.53318038 2367
-565.4561338 -10.53318038 2367
-551.1115122 -10.49313027 2358
-538.916914 -10.49313027 2358
-524.7119252 -10.45308015 2349
-508.8543838 -10.37742993 2332
-494.8769448 -10.33737982 2323
-480.9925943 -10.2973297 2314
-469.0255458 -10.2973297 2314
-453.7006778 -10.22167948 2297
-441.8215462 -10.22167948 2297
-429.9424147 -10.22167948 2297
-418.0632831 -10.22167948 2297
-406.1841516 -10.22167948 2297
-394.30502 -10.22167948 2297
-382.4258884 -10.22167948 2297
-370.5467569 -10.22167948 2297
-358.6676253 -10.22167948 2297
-348.1472646 -10.2617296 2306
-336.2215887 -10.2617296 2306
-325.4209638 -10.2973297 2314
-315.8921912 -10.37742993 2332
-308.3921407 -10.53318038 2367
-298.5282137 -10.61773062 2386
-289.4273265 -10.73788097 2413
-283.6051501 -10.99598172 2471
-271.9221811 -11.04048184 2481
-260.1357805 -11.08498197 2491
-247.2533614 -11.08498197 2491
-233.4300713 -11.04048184 2481
-220.5993681 -11.04048184 2481
-206.0937864 -10.95148159 2461
-193.3665149 -10.95148159 2461
-181.3732508 -10.99598172 2471
-168.5942634 -10.99598172 2471
-156.4458518 -11.04048184 2481
-144.1940085 -11.08498197 2491
-132.8930216 -11.21848236 2521
-120.8538542 -11.31193263 2542
-108.5974802 -11.4053829 2563
-95.7519031 -11.45433304 2574
-82.44024241 -11.45433304 2574
-69.39714652 -11.49883317 2584
-56.03376997 -11.49883317 2584
-42.67039342 -11.49883317 2584
-29.30701687 -11.49883317 2584
-15.94364033 -11.49883317 2584
-2.570278235 -11.45433304 2574
10.74138246 -11.45433304 2574
24.05304316 -11.45433304 2574
37.20502563 -11.4053829 2563
50.45979889 -11.4053829 2563
63.46597842 -11.36088277 2553
76.66903582 -11.36088277 2553
89.48486525 -11.31193263 2542
102.2272939 -11.2674325 2532
114.8207452 -11.21848236 2521
127.3511389 -11.17398223 2511
139.7781008 -11.1294821 2501
152.1016311 -11.08498197 2491
164.9840502 -11.08498197 2491
177.8664693 -11.08498197 2491
190.7488884 -11.08498197 2491
203.6313075 -11.08498197 2491
216.5137266 -11.08498197 2491
229.3961458 -11.08498197 2491
241.3059492 -11.04048184 2481
254.1366525 -11.04048184 2481
265.8913083 -10.99598172 2471
278.6702957 -10.99598172 2471
290.269804 -10.95148159 2461
301.8890001 -10.91143147 2452
315.7243471 -10.95148159 2461
328.4516187 -10.95148159 2461
341.1788902 -10.95148159 2461
355.3442202 -10.99598172 2471
368.1232076 -10.99598172 2471
382.443685 -11.04048184 2481
398.4608001 -11.1294821 2501
414.6847786 -11.21848236 2521
427.7223453 -11.21848236 2521
442.6831008 -11.2674325 2532
455.7775549 -11.2674325 2532
468.872009 -11.2674325 2532
481.9664631 -11.2674325 2532
495.0609172 -11.2674325 2532
508.1553714 -11.2674325 2532
518.985312 -11.21848236 2521
532.0228787 -11.21848236 2521
542.898365 -11.17398223 2511
553.6704197 -11.1294821 2501
564.3390427 -11.08498197 2491
574.9042339 -11.04048184 2481
585.3659934 -10.99598172 2471
598.1449808 -10.99598172 2471
610.9239682 -10.99598172 2471
621.1788644 -10.95148159 2461
631.5879095 -10.91143147 2452
641.6411138 -10.86693134 2442
654.2701252 -10.86693134 2442
669.6300913 -10.91143147 2452
682.3108186 -10.91143147 2452
697.5424937 -10.95148159 2461
718.928072 -11.08498197 2491
734.7483092 -11.1294821 2501
750.6719781 -11.17398223 2511
770.0444536 -11.2674325 2532
786.2318734 -11.31193263 2542
792.7742121 -11.21848236 2521
805.8117788 -11.21848236 2521
818.8493455 -11.21848236 2521
835.5167241 -11.2674325 2532
848.6111782 -11.2674325 2532
865.1088931 -11.31193263 2542
889.3109884 -11.45433304 2574
909.9867033 -11.54778331 2595
927.3212165 -11.59673345 2606
944.7695045 -11.64568359 2617
970.7537996 -11.79698403 2651
988.5485839 -11.84593417 2662
1010.975469 -11.94828446 2685
1029.441561 -12.00168462 2697
1043.389327 -12.00168462 2697
1057.337092 -12.00168462 2697
1071.284858 -12.00168462 2697
1085.232624 -12.00168462 2697
1104.07107 -12.05508477 2709
1122.620905 -12.10403491 2720
1141.702416 -12.15743507 2732
1155.831187 -12.15743507 2732
1180.666034 -12.26868539 2757
1205.326046 -12.37548569 2781
1219.708224 -12.37548569 2781
1234.090403 -12.37548569 2781
1248.472582 -12.37548569 2781
1262.854761 -12.37548569 2781
1271.725669 -12.32208554 2769
1280.47246 -12.26868539 2757
1289.095132 -12.21528523 2745
1297.118899 -12.15743507 2732
1305.488163 -12.10403491 2720
1314.21844 -12.05508477 2709
1339.505212 -12.15743507 2732
1353.633984 -12.15743507 2732
1374.271143 -12.21528523 2745
1406.67655 -12.37548569 2781
1427.701578 -12.43333586 2794
1448.861067 -12.49118603 2807
1476.410996 -12.60243635 2832
1512.117052 -12.78043686 2872
1540.793388 -12.8961372 2898
1563.296491 -12.95843738 2912
1585.944398 -13.02073756 2926
1616.397763 -13.14533791 2954
1631.674626 -13.14533791 2954
1646.951489 -13.14533791 2954
1646.472633 -13.02073756 2926
1653.65443 -12.95843738 2912
1660.691423 -12.8961372 2898
1668.16183 -12.83828703 2885
1667.330308 -12.71813668 2858
1674.459391 -12.66028652 2845
1689.172551 -12.66028652 2845
1688.314172 -12.54458618 2819
1687.790948 -12.43333586 2794
1694.320127 -12.37548569 2781
1693.956223 -12.26868539 2757
1700.779184 -12.21528523 2745
1684.986549 -12.00168462 2697
1698.934314 -12.00168462 2697
1705.260803 -11.94828446 2685
1719.146509 -11.94828446 2685
1733.032216 -11.94828446 2685
1754.725377 -12.00168462 2697
1768.673143 -12.00168462 2697
1782.620908 -12.00168462 2697
1796.568674 -12.00168462 2697
1810.51644 -12.00168462 2697
1824.464205 -12.00168462 2697
1830.232163 -11.94828446 2685
1844.117869 -11.94828446 2685
-687.0944292 1.676212956 2323
-677.6963024 1.682707109 2332
-665.6361654 1.682707109 2332
-653.5760283 1.682707109 2332
-643.9917245 1.689201262 2341
-631.8850432 1.689201262 2341
-619.7783619 1.689201262 2341
-609.7483031 1.694973842 2349
-597.6002491 1.694973842 2349
-585.4521952 1.694973842 2349
-573.3041412 1.694973842 2349
-561.1560872 1.694973842 2349
-545.034795 1.682707109 2332
-532.9746579 1.682707109 2332
-518.9041304 1.676212956 2323
-504.9266913 1.669718804 2314
-485.716502 1.645185338 2280
-470.5994959 1.633640178 2264
-457.2695036 1.627867598 2256
-442.2445875 1.615600865 2239
-427.5878525 1.604055705 2223
-413.0966083 1.592510544 2207
-401.6829194 1.592510544 2207
-390.2692305 1.592510544 2207
-377.6539155 1.587459537 2200
-366.2764278 1.587459537 2200
-353.6083984 1.581686957 2192
-342.2722833 1.581686957 2192
-329.728372 1.575914377 2184
-319.6000531 1.581686957 2192
-310.3734084 1.592510544 2207
-301.1270759 1.604055705 2223
-297.0570684 1.645185338 2280
-289.5198183 1.669718804 2314
-280.7912852 1.689201262 2341
-278.0960253 1.748370208 2423
-269.7301442 1.775789964 2461
-257.0028726 1.775789964 2461
-244.2756011 1.775789964 2461
-232.4892004 1.783005689 2471
-218.821058 1.775789964 2461
-205.3400912 1.769295811 2452
-192.6593639 1.769295811 2452
-179.9786366 1.769295811 2452
-167.9119718 1.775789964 2461
-155.815276 1.783005689 2471
-143.6151485 1.790221414 2481
-132.3658775 1.81186859 2511
-120.378426 1.827021612 2532
-107.7076842 1.834237338 2542
-95.34270694 1.84939036 2563
-82.08793368 1.84939036 2563
-69.12858171 1.857327658 2574
-55.81692102 1.857327658 2574
-42.50526032 1.857327658 2574
-29.19359963 1.857327658 2574
-15.88193893 1.857327658 2574
-2.55929414 1.84939036 2563
10.69547912 1.84939036 2563
23.95025237 1.84939036 2563
37.05986361 1.842174635 2553
50.26292101 1.842174635 2553
63.19252532 1.834237338 2542
76.33869528 1.834237338 2542
89.13283981 1.827021612 2532
102.2272939 1.827021612 2532
114.8207452 1.819084315 2521
127.3511389 1.81186859 2511
139.7781008 1.804652864 2501
152.7122358 1.804652864 2501
165.6463708 1.804652864 2501
178.5805057 1.804652864 2501
191.5146407 1.804652864 2501
203.6313075 1.797437139 2491
216.5137266 1.797437139 2491
229.3961458 1.797437139 2491
241.3059492 1.790221414 2481
254.1366525 1.790221414 2481
265.8913083 1.783005689 2471
277.5425325 1.775789964 2461
289.2082729 1.769295811 2452
301.8890001 1.769295811 2452
313.2868166 1.762080086 2442
325.9158281 1.762080086 2442
338.5448395 1.762080086 2442
351.1738509 1.762080086 2442
365.2926366 1.769295811 2452
377.9733638 1.769295811 2452
392.0879765 1.775789964 2461
406.4601698 1.783005689 2471
420.9357948 1.790221414 2481
435.5148515 1.797437139 2491
448.3972707 1.797437139 2491
463.1314749 1.804652864 2501
476.0656099 1.804652864 2501
490.9549618 1.81186859 2511
503.9408126 1.81186859 2511
521.2498255 1.827021612 2532
534.3442796 1.827021612 2532
547.4387337 1.827021612 2532
558.098012 1.819084315 2521
602.1854939 1.834237338 2542
626.0054584 1.827021612 2532
649.3609787 1.819084315 2521
651.8884534 1.790221414 2481
664.7191567 1.790221414 2481
677.54986 1.790221414 2481
690.3805632 1.790221414 2481
703.2112665 1.790221414 2481
724.7002765 1.81186859 2511
737.6861273 1.81186859 2511
753.6615121 1.819084315 2521
770.0444536 1.827021612 2532
783.1389077 1.827021612 2532
792.7742121 1.819084315 2521
802.6153814 1.81186859 2511
815.6012322 1.81186859 2511
828.587083 1.81186859 2511
841.5729339 1.81186859 2511
898.7652873 1.84939036 2563
919.4927181 1.864543383 2584
936.8272313 1.872480681 2595
1006.83367 1.92948491 2674
1024.861176 1.937422207 2685
1043.389327 1.946081078 2697
1057.337092 1.946081078 2697
1076.05142 1.954739948 2709
1090.061245 1.954739948 2709
1113.444874 1.971336116 2732
1127.573645 1.971336116 2732
1147.135114 1.980716558 2745
1161.331116 1.980716558 2745
1185.80495 1.998034299 2769
1205.326046 2.006693169 2781
1219.708224 2.006693169 2781
1228.76531 1.998034299 2769
1237.698277 1.989375429 2757
1257.40555 1.998034299 2769
1260.703128 1.980716558 2745
1274.89913 1.980716558 2745
1282.990128 1.971336116 2732
1291.421451 1.962677246 2720
1305.488163 1.962677246 2720
1314.21844 1.954739948 2709
1333.621588 1.962677246 2720
1360.075141 1.980716558 2745
1374.271143 1.980716558 2745
1413.252168 2.016073612 2794
1434.344427 2.025454054 2807
1461.765066 2.043493367 2832
1489.965617 2.062254253 2858
1518.961593 2.081736711 2885
1548.236835 2.101219169 2912
1570.81234 2.111321184 2926
1585.944398 2.111321184 2926
1616.397763 2.131525214 2954
1631.674626 2.131525214 2954
1639.146032 2.121423199 2940
1646.472633 2.111321184 2926
1645.704169 2.091117154 2898
1653.241807 2.081736711 2885
1668.16183 2.081736711 2885
1667.330308 2.062254253 2858
1674.459391 2.05287381 2845
1689.172551 2.05287381 2845
1688.314172 2.034112925 2819
1679.937948 2.006693169 2781
1687.009145 1.998034299 2769
1686.583182 1.980716558 2745
1692.724492 1.971336116 2732
1684.986549 1.946081078 2697
1691.375096 1.937422207 2685
1698.274632 1.92948491 2674
1712.103451 1.92948491 2674
1733.032216 1.937422207 2685
1746.917923 1.937422207 2685
1768.673143 1.946081078 2697
1782.620908 1.946081078 2697
1796.568674 1.946081078 2697
1810.51644 1.946081078 2697
1824.464205 1.946081078 2697
1830.232163 1.937422207 2685
1844.117869 1.937422207 2685
-682.0661875 13.58962204 2306
-672.4653704 13.63676731 2314
-660.4983219 13.63676731 2314
-648.5312734 13.63676731 2314
-639.0400581 13.68980573 2323
-629.4557542 13.74284415 2332
-617.3956172 13.74284415 2332
-602.9992798 13.68980573 2323
-593.2753431 13.74284415 2332
-581.2152061 13.74284415 2332
-566.9585015 13.68980573 2323
-552.7948854 13.63676731 2314
-536.8545986 13.53658362 2297
-523.1470806 13.48943836 2289
-507.5119174 13.38925468 2272
-492.2707933 13.29496415 2256
-470.1650526 13.00619942 2207
-455.6334342 12.91780205 2192
-441.054273 12.82351152 2176
-426.8381213 12.73511415 2161
-411.4306867 12.60546468 2139
-398.8712606 12.55831942 2131
-387.8506122 12.55831942 2131
-375.5921367 12.51706731 2124
-362.2044372 12.4345631 2110
-351.2923921 12.4345631 2110
-339.2511231 12.393311 2103
-328.3752791 12.393311 2103
-316.2916389 12.34616573 2095
-306.6235911 12.393311 2103
-298.7010056 12.51706731 2124
-289.748455 12.60546468 2139
-277.6441284 12.55831942 2131
-271.3779109 12.78225942 2169
-265.6782131 13.05334468 2215
-262.7163855 13.48943836 2289
-263.4828389 14.16715152 2404
-251.0503478 14.16715152 2404
-239.5111847 14.22018994 2413
-227.9730201 14.27912152 2423
-216.2425083 14.33215994 2432
-203.6652128 14.33215994 2432
-191.0879172 14.33215994 2432
-179.9786366 14.45002309 2452
-167.9119718 14.50306151 2461
-155.815276 14.56199309 2471
-143.6151485 14.62092467 2481
-132.3658775 14.79771941 2511
-119.8554549 14.85665099 2521
-106.8178882 14.85665099 2521
-94.56151425 14.9804073 2542
-81.41534429 14.9804073 2542
-68.56459562 15.04523204 2553
-55.36153821 15.04523204 2553
-42.32361391 15.10416362 2563
-29.06884065 15.10416362 2563
-15.8140674 15.10416362 2563
-2.5493086 15.04523204 2553
10.6537488 15.04523204 2553
23.85680621 15.04523204 2553
37.05986361 15.04523204 2553
50.04635535 14.9804073 2542
63.19252532 14.9804073 2542
76.0383857 14.92147572 2532
89.13283981 14.92147572 2532
102.2272939 14.92147572 2532
114.8207452 14.85665099 2521
127.3511389 14.79771941 2511
140.3369897 14.79771941 2511
153.3228405 14.79771941 2511
166.3086913 14.79771941 2511
179.2945421 14.79771941 2511
192.2803929 14.79771941 2511
205.2662438 14.79771941 2511
217.3829106 14.73878783 2501
228.4752459 14.62092467 2481
241.3059492 14.62092467 2481
254.1366525 14.62092467 2481
265.8913083 14.56199309 2471
277.5425325 14.50306151 2461
289.2082729 14.45002309 2452
300.6578052 14.39109151 2442
313.2868166 14.39109151 2442
324.5812014 14.33215994 2432
335.9107887 14.27912152 2423
348.44154 14.27912152 2423
360.9722913 14.27912152 2423
374.8903837 14.33215994 2432
387.4676793 14.33215994 2432
401.6898966 14.39109151 2442
416.0155457 14.45002309 2452
430.2697911 14.50306151 2461
442.9970627 14.50306151 2461
459.4279046 14.62092467 2481
472.2586078 14.62092467 2481
487.044528 14.67985625 2491
501.9338798 14.73878783 2501
518.985312 14.85665099 2521
534.3442796 14.92147572 2532
549.600814 14.9804073 2542
562.746984 14.9804073 2542
580.6507292 15.10416362 2563
593.9055024 15.10416362 2563
607.1602757 15.10416362 2563
623.0777745 15.16898835 2574
636.3894351 15.16898835 2574
649.7010958 15.16898835 2574
660.1793687 15.10416362 2563
667.9163437 14.9804073 2542
681.0625136 14.9804073 2542
697.2127338 15.04523204 2553
707.3548536 14.9804073 2542
720.5010235 14.9804073 2542
736.821906 15.04523204 2553
750.0249634 15.04523204 2553
766.2175547 15.10416362 2563
779.472328 15.10416362 2563
792.7271013 15.10416362 2563
802.837193 15.04523204 2553
812.5242133 14.9804073 2542
818.8493455 14.85665099 2521
831.8869121 14.85665099 2521
841.5729339 14.79771941 2511
857.9620455 14.85665099 2521
874.8000865 14.92147572 2532
895.2585948 15.04523204 2553
912.0200606 15.10416362 2563
932.8560947 15.22791993 2584
958.3035434 15.42239414 2617
975.9224938 15.48721888 2628
998.1735451 15.62276151 2651
1016.082104 15.68758625 2662
1038.746882 15.82312888 2685
1057.337092 15.89384677 2697
1076.05142 15.96456467 2709
1094.487481 16.0293894 2720
1113.444874 16.1001073 2732
1132.939112 16.17671835 2745
1147.135114 16.17671835 2745
1166.407973 16.24743624 2757
1185.80495 16.31815414 2769
1200.12507 16.31815414 2769
1214.44519 16.31815414 2769
1223.440216 16.24743624 2757
1237.698277 16.24743624 2757
1246.507127 16.17671835 2745
1260.703128 16.17671835 2745
1268.861357 16.1001073 2732
1277.354739 16.0293894 2720
1291.421451 16.0293894 2720
1300.208616 15.96456467 2709
1314.21844 15.96456467 2709
1333.621588 16.0293894 2720
1360.075141 16.17671835 2745
1380.278885 16.24743624 2757
1413.252168 16.46548308 2794
1440.476288 16.61281203 2819
1468.475146 16.76603414 2845
1497.264259 16.9251494 2872
1533.177178 17.16087571 2912
1548.236835 17.16087571 2912
1578.328188 17.32588413 2940
1593.532649 17.32588413 2940
1616.397763 17.40838834 2954
1631.674626 17.40838834 2954
1639.146032 17.32588413 2940
1638.594774 17.16087571 2912
1645.704169 17.0783715 2898
1653.241807 17.00176045 2885
1660.644983 16.9251494 2872
1659.74623 16.76603414 2845
1674.459391 16.76603414 2845
1681.454012 16.68942308 2832
1681.127308 16.54209414 2807
1672.689025 16.31815414 2769
1679.698163 16.24743624 2757
1686.583182 16.17671835 2745
1685.289392 16.0293894 2720
1684.986549 15.89384677 2697
1691.375096 15.82312888 2685
1698.274632 15.75830414 2674
1712.103451 15.75830414 2674
1725.93227 15.75830414 2674
1746.917923 15.82312888 2685
1760.803629 15.82312888 2685
1774.689336 15.82312888 2685
1788.575043 15.82312888 2685
1810.51644 15.89384677 2697
1816.346456 15.82312888 2685
1830.232163 15.82312888 2685
1836.562824 15.75830414 2674
-669.6434729 25.05057865 2264
-662.584721 25.22761454 2280
-653.3624282 25.32719723 2289
-641.5246693 25.32719723 2289
-629.6869104 25.32719723 2289
-620.0085195 25.41571518 2297
-606.0113927 25.32719723 2289
-594.1736338 25.32719723 2289
-578.0109689 25.1390966 2272
-564.2672498 25.05057865 2264
-548.4097085 24.86247802 2247
-531.0557607 24.59692418 2223
-508.5744914 24.07688125 2176
-490.4646723 23.74493895 2146
-474.4521622 23.5015146 2124
-455.61233 23.10318384 2088
-440.5533887 22.88188898 2068
-422.7912432 22.50568771 2034
-408.218431 22.28439285 2014
-395.2351137 22.14055118 2001
-383.5403409 22.06309798 1994
-373.2281998 22.06309798 1994
-361.8240343 21.99670952 1988
-352.6039174 22.06309798 1994
-342.2917762 22.06309798 1994
-330.9806993 21.99670952 1988
-320.6995876 21.99670952 1988
-309.4815992 21.93032106 1982
-299.2315171 21.93032106 1982
-287.0859966 21.7864794 1969
-278.7313527 21.93032106 1982
-269.2940292 21.99670952 1988
-262.4004104 22.28439285 2014
-257.4020069 23.74493895 2146
-252.50155 24.34243508 2200
-256.5779226 25.90256388 2341
-247.1864281 26.1902472 2367
-237.7245285 26.50006001 2395
-227.0321492 26.69922539 2413
-214.5531137 26.69922539 2413
-202.0740783 26.69922539 2413
-190.3807662 26.80987282 2423
-179.2446291 27.02010294 2442
-167.2979093 27.13075038 2452
-155.1847002 27.23033307 2461
-142.4574287 27.23033307 2461
-131.3115894 27.56227536 2491
-118.9045985 27.67292279 2501
-106.3941759 27.78357023 2511
-93.78032157 27.89421766 2521
-80.7427549 27.89421766 2521
-68.00060952 28.01592983 2532
-55.12300436 28.12657727 2542
-42.15848081 28.24828944 2553
-28.95542341 28.24828944 2553
-15.752366 28.24828944 2553
-2.5493086 28.24828944 2553
10.6537488 28.24828944 2553
23.85680621 28.24828944 2553
37.20502563 28.35893687 2563
50.26292101 28.24828944 2553
63.46597842 28.24828944 2553
76.66903582 28.24828944 2553
89.48486525 28.12657727 2542
102.6310352 28.12657727 2542
115.321748 28.01592983 2532
128.4162021 28.01592983 2532
141.5106563 28.01592983 2532
153.9334452 27.89421766 2521
167.6995645 28.01592983 2532
180.7940186 28.01592983 2532
193.8884727 28.01592983 2532
205.2662438 27.78357023 2511
217.3829106 27.67292279 2501
229.3961458 27.56227536 2491
241.3059492 27.45162793 2481
253.1123209 27.3409805 2471
265.8913083 27.3409805 2471
276.5275456 27.13075038 2452
289.2082729 27.13075038 2452
299.4266103 26.90945551 2432
310.8492861 26.80987282 2423
322.0454108 26.69922539 2413
334.5244462 26.69922539 2413
347.0034817 26.69922539 2413
358.1417203 26.5996427 2404
370.5742115 26.5996427 2404
384.440588 26.69922539 2413
398.5645453 26.80987282 2423
412.6222704 26.90945551 2432
425.199566 26.90945551 2432
439.5769309 27.02010294 2442
455.7243342 27.23033307 2461
468.4516058 27.23033307 2461
483.1340942 27.3409805 2471
497.9200143 27.45162793 2481
516.9266634 27.78357023 2511
532.0228787 27.89421766 2521
547.4387337 28.01592983 2532
562.746984 28.12657727 2542
580.6507292 28.35893687 2563
596.4544531 28.48064905 2574
612.1350575 28.59129648 2584
625.498434 28.59129648 2584
641.5814235 28.71300866 2595
655.0016875 28.71300866 2595
665.5885637 28.59129648 2584
676.3244172 28.48064905 2574
689.6360779 28.48064905 2574
702.9477386 28.48064905 2574
713.1984617 28.35893687 2563
726.453235 28.35893687 2563
736.821906 28.24828944 2553
750.0249634 28.24828944 2553
766.2175547 28.35893687 2563
776.4310782 28.24828944 2553
786.2318734 28.12657727 2542
796.2333618 28.01592983 2532
805.8117788 27.89421766 2521
815.6012322 27.78357023 2511
825.287254 27.67292279 2501
838.2213889 27.67292279 2501
851.1555239 27.67292279 2501
867.5446355 27.78357023 2511
887.8945406 28.01592983 2532
904.547403 28.12657727 2542
925.2748338 28.35893687 2563
950.2474953 28.71300866 2595
971.8375823 28.95643301 2617
993.655219 29.19985736 2639
1011.883418 29.33263428 2651
1034.491309 29.58712337 2674
1052.632589 29.70883555 2685
1071.284858 29.84161247 2697
1090.061245 29.97438938 2709
1113.444874 30.22887848 2732
1127.573645 30.22887848 2732
1147.135114 30.37272014 2745
1161.331116 30.37272014 2745
1180.666034 30.50549706 2757
1194.924095 30.50549706 2757
1209.182156 30.50549706 2757
1218.115123 30.37272014 2745
1221.087891 30.09610156 2720
1240.603814 30.22887848 2732
1249.221315 30.09610156 2720
1258.179142 29.97438938 2709
1272.188966 29.97438938 2709
1280.501343 29.84161247 2697
1288.689603 29.70883555 2685
1302.575309 29.70883555 2685
1322.344641 29.84161247 2697
1342.23809 29.97438938 2709
1361.755012 30.09610156 2720
1400.606748 30.63827398 2769
1421.058729 30.7710509 2781
1448.861067 31.05873422 2807
1483.188307 31.47919446 2845
1518.961593 31.92178419 2885
1548.236835 32.22053226 2912
1570.81234 32.37543866 2926
1585.944398 32.37543866 2926
1608.73711 32.53034507 2940
1616.208516 32.37543866 2926
1631.340575 32.37543866 2926
1630.716914 32.06562585 2898
1630.939397 31.77794253 2872
1637.769526 31.62303612 2858
1645.03307 31.47919446 2845
1652.162153 31.3353528 2832
1659.156774 31.19151114 2819
1666.610668 31.05873422 2807
1673.341539 30.91489256 2794
1658.191179 30.37272014 2745
1657.155967 30.09610156 2720
1664.464058 29.97438938 2709
1671.038783 29.84161247 2697
1677.489389 29.70883555 2685
1676.886594 29.45434645 2662
1683.667184 29.33263428 2651
1697.377056 29.33263428 2651
1718.186875 29.45434645 2662
1731.953635 29.45434645 2662
1753.589909 29.58712337 2674
1767.418728 29.58712337 2674
1781.247547 29.58712337 2674
1795.076366 29.58712337 2674
1808.905186 29.58712337 2674
1822.734005 29.58712337 2674
1828.320956 29.45434645 2662
-669.6434729 36.75904789 2264
-660.2598624 36.88893852 2272
-650.7935064 37.01882914 2280
-639.0022918 37.01882914 2280
-627.2110772 37.01882914 2280
-613.2604947 36.88893852 2272
-599.3926575 36.75904789 2264
-587.6841883 36.75904789 2264
-567.5803133 36.22324904 2231
-552.0547519 35.96346779 2215
-534.9862399 35.59003223 2192
-516.2444889 35.08670604 2161
-499.9268552 34.72950682 2139
-474.0091941 33.67414546 2074
-455.6885174 33.12211029 2040
-439.4651497 32.69996574 2014
-423.5107044 32.2778212 1988
-408.0330435 31.87191299 1963
-394.0301042 31.56342274 1944
-382.7914295 31.46600477 1938
-371.6148138 31.3685868 1932
-360.5002571 31.27116883 1926
-351.631808 31.3685868 1932
-341.6403051 31.3685868 1932
-331.6488022 31.3685868 1932
-321.6572993 31.3685868 1932
-311.6657964 31.3685868 1932
-301.6742935 31.3685868 1932
-290.7769434 31.27116883 1926
-280.81647 31.27116883 1926
-270.8559966 31.27116883 1926
-260.8955233 31.27116883 1926
-254.1922546 31.67707704 1951
-247.9811062 32.18040323 1982
-245.5003707 34.72950682 2139
-251.7554414 37.29484673 2297
-245.3066834 38.13913582 2349
-234.9452856 38.43138973 2367
-225.3385816 38.88600693 2395
-213.7528742 39.03213389 2404
-201.320383 39.03213389 2404
-189.5950428 39.17826084 2413
-178.5106216 39.48675109 2432
-166.6156177 39.64911437 2442
-154.617182 39.81147766 2452
-141.9364547 39.81147766 2452
-130.2573012 40.1199679 2471
-118.4291702 40.44469447 2491
-105.9704635 40.60705776 2501
-93.03632854 40.60705776 2501
-80.7427549 40.93178433 2521
-67.70518823 40.93178433 2521
-54.90615541 41.11038394 2532
-42.15848081 41.45134684 2553
-28.95542341 41.45134684 2553
-15.752366 41.45134684 2553
-2.5493086 41.45134684 2553
10.6537488 41.45134684 2553
23.85680621 41.45134684 2553
37.05986361 41.45134684 2553
50.26292101 41.45134684 2553
63.46597842 41.45134684 2553
76.66903582 41.45134684 2553
89.87209322 41.45134684 2553
103.0751506 41.45134684 2553
115.7772052 41.27274723 2542
128.9233751 41.27274723 2542
142.0695451 41.27274723 2542
155.2157151 41.27274723 2542
167.6995645 41.11038394 2532
180.7940186 41.11038394 2532
193.8884727 41.11038394 2532
205.2662438 40.76942104 2511
217.3829106 40.60705776 2501
230.3170456 40.60705776 2501
241.3059492 40.28233119 2481
253.1123209 40.1199679 2471
264.8152609 39.95760462 2461
276.5275456 39.81147766 2452
288.0287938 39.64911437 2442
299.4266103 39.48675109 2432
310.8492861 39.34062413 2423
322.0454108 39.17826084 2413
333.276738 39.03213389 2404
345.7092292 39.03213389 2404
356.8009236 38.88600693 2395
369.1868705 38.88600693 2395
383.0067027 39.03213389 2404
395.4391939 39.03213389 2404
409.398659 39.17826084 2413
423.6260479 39.34062413 2423
437.7768616 39.48675109 2432
452.2059424 39.64911437 2442
466.7384548 39.81147766 2452
481.1788773 39.95760462 2461
495.9130816 40.1199679 2471
514.8680148 40.60705776 2501
529.9125142 40.76942104 2511
547.4387337 41.11038394 2532
562.746984 41.27274723 2542
583.1427924 41.79230974 2574
598.7716809 41.95467303 2584
612.1350575 41.95467303 2584
628.1611596 42.13327264 2595
644.3010365 42.31187226 2606
