# .PCD v0.7 - Point Cloud Data file format
VERSION 0.7
FIELDS x y z
SIZE 4 4 4
TYPE F F F
COUNT 1 1 1
WIDTH 807
HEIGHT 1
VIEWPOINT 0 0 0 1 0 0 0
POINTS 807
DATA ascii
-745.7254497 745.2080481 1868
-716.7570153 725.6602995 1819
-685.1844566 702.9210818 1762
-668.3982058 694.9424089 1742
-652.1973427 687.3626697 1723
-638.0597633 681.7775986 1709
-625.5397128 677.7882622 1699
-615.3011512 676.1925276 1695
-606.535314 676.1925276 1695
-599.1801423 677.7882622 1699
-590.3936188 677.7882622 1699
-585.0303271 681.7775986 1709
-579.2264522 685.3680014 1718
-573.6614687 689.3573379 1728
-570.9343294 696.9370771 1747
-578.3030489 717.282693 1798
-580.7137531 732.0432378 1835
-588.6563398 754.3835219 1891
-614.3870343 800.6598247 2007
-622.3656433 824.994777 2068
-730.5554459 739.5125708 1830
-704.541805 722.5401512 1788
-685.1844566 712.0334152 1762
-661.1079842 696.2733112 1723
-646.8980027 690.615838 1709
-634.3262363 686.5747857 1699
-622.2260828 682.9378386 1690
-613.4861035 682.9378386 1690
-604.7461243 682.9378386 1690
-596.006145 682.9378386 1690
-587.2661658 682.9378386 1690
-578.5261866 682.9378386 1690
-574.5063297 688.5953118 1704
-567.3538484 690.615838 1709
-561.4568849 694.2527851 1718
-566.7241225 712.0334152 1762
-567.4222122 724.5606773 1793
-574.6481244 745.9782545 1846
-602.7543949 795.6831978 1969
-610.0266726 819.1213011 2027
-719.776759 737.926098 1803
-694.2967899 721.1457486 1762
-673.9073003 709.2767209 1733
-651.8992833 695.3613092 1699
-641.5986627 693.7242019 1695
-629.4726512 690.0407106 1686
-620.7533583 690.0407106 1686
-606.951932 684.3108352 1672
-598.3050413 684.3108352 1672
-589.6581506 684.3108352 1672
-581.0112599 684.3108352 1672
-572.3643692 684.3108352 1672
-563.7174785 684.3108352 1672
-556.3985078 685.9479425 1676
-550.9990151 690.0407106 1686
-549.6773697 699.4540774 1709
-548.4342965 709.2767209 1733
-554.7253292 729.3312849 1782
-582.550337 778.8537795 1903
-602.2019595 818.9629074 2001
-599.5438691 829.6041046 2027
-717.7807059 745.1782244 1798
-694.2967899 730.258082 1762
-671.9629631 716.1668363 1728
-650.3644999 702.4900391 1695
-638.1919441 698.7600035 1686
-627.6058877 696.6877615 1681
-617.0715472 694.6155195 1676
-605.1368844 690.8854839 1667
-595.0844998 689.2276903 1663
-586.4841534 689.2276903 1663
-577.8838069 689.2276903 1663
-569.2834605 689.2276903 1663
-560.6831141 689.2276903 1663
-552.0827676 689.2276903 1663
-544.7896549 690.8854839 1667
-539.0633537 694.6155195 1676
-539.256804 706.2200747 1704
-546.9429873 728.18584 1757
-573.6727964 776.6763028 1874
-593.6282907 831.7979401 2007
-719.776759 756.5748348 1803
-692.3265947 737.2723154 1757
-670.0186258 723.0052359 1723
-646.911237 707.4792964 1686
-636.2993227 705.3811965 1681
-625.7391242 703.2830966 1676
-615.5988227 701.6046166 1672
-601.8697986 695.7299368 1658
-593.2953101 695.7299368 1658
-583.3101562 694.0514569 1654
-574.756354 694.0514569 1654
-564.8332591 692.3729769 1650
-556.3001432 692.3729769 1650
-549.0949475 694.0514569 1654
-540.5411453 694.0514569 1654
-534.8820747 697.8280367 1663
-530.3957767 703.2830966 1676
-537.9154707 725.1033358 1728
-547.3462966 750.280535 1788
-586.2338177 831.6868123 1982
-692.3265947 746.3587909 1757
-668.0742885 729.7919196 1718
-644.9927577 714.0746315 1681
-632.8926041 710.2515073 1672
-624.2457134 710.2515073 1672
-613.7579172 708.1275495 1667
-600.4177605 702.605259 1654
-590.4326066 700.9060928 1650
-581.8994907 700.9060928 1650
-573.3663749 700.9060928 1650
-563.1216431 698.7821349 1645
-554.6143852 698.7821349 1645
-544.7792073 697.0829686 1641
-537.5998694 698.7821349 1645
-530.7007957 700.9060928 1650
-524.699402 704.3044253 1658
-532.0008909 725.9687955 1709
-540.9177328 750.6067066 1767
-578.8393448 831.3171052 1957
-692.3265947 755.4452663 1757
-668.0742885 738.6767032 1718
-641.5394949 718.898398 1672
-629.4858856 715.0287296 1663
-619.0187756 712.8789138 1658
-608.9715627 711.1590612 1654
-597.1506747 707.2893928 1645
-587.2120651 705.5695402 1641
-578.7254935 705.5695402 1641
-568.8489428 703.8496875 1637
-558.6714417 701.6998718 1632
-550.2314144 701.6998718 1632
-540.463467 699.9800191 1628
-533.3513598 701.6998718 1632
-526.5195167 703.8496875 1637
-520.5853536 707.2893928 1645
-527.6427795 728.7875506 1695
-534.795291 751.1456348 1747
-571.4448718 830.6888188 1932
-692.3265947 764.5317418 1757
-668.0742885 747.5614869 1718
-639.6210155 725.369615 1667
-627.5932642 721.4534023 1658
-617.5253648 719.7128634 1654
-607.4988382 717.9723244 1650
-595.6986366 714.0561117 1641
-585.7807133 712.3155728 1637
-577.3148281 712.3155728 1637
-567.111469 710.1398991 1632
-557.3021489 708.3993601 1628
-548.882808 708.3993601 1628
-540.463467 708.3993601 1628
-532.0441261 708.3993601 1628
-524.9113325 710.1398991 1632
-520.5853536 715.7966507 1645
-526.0863111 735.3777141 1690
-534.795291 760.1803944 1747
-560.6707899 810.6560245 1863
-569.6701983 838.0695132 1926
-696.2669851 778.0212805 1767
-668.0742885 756.4462705 1718
-638.086232 732.2294225 1663
-626.079167 728.2666656 1654
-614.1651905 724.3039086 1645
-605.6579326 724.3039086 1645
-594.2465985 720.781458 1637
-583.9915236 718.5799263 1632
-577.3148281 720.781458 1637
-567.111469 718.5799263 1632
-557.3021489 716.818701 1628
-547.5342016 715.0574757 1624
-539.135547 715.0574757 1624
-532.0441261 716.818701 1628
-524.9113325 718.5799263 1632
-520.5853536 724.3039086 1645
-527.6427795 746.319225 1695
-534.795291 769.215154 1747
-558.8650869 817.64885 1857
-566.1208512 842.7463107 1914
-696.2669851 787.1594719 1767
-670.0186258 767.5584437 1723
-638.086232 740.8297689 1663
-624.5650699 735.0385561 1650
-612.6717798 731.0292549 1641
-604.1852082 731.0292549 1641
-594.2465985 729.2473432 1637
-583.9915236 727.0199536 1632
-575.5514963 727.0199536 1632
-567.111469 727.0199536 1632
-557.3021489 725.238042 1628
-548.882808 725.238042 1628
-540.463467 725.238042 1628
-532.0441261 725.238042 1628
-524.9113325 727.0199536 1632
-520.5853536 732.8111665 1645
-526.0863111 752.8576726 1690
-533.2646805 776.022524 1742
-555.5546313 822.352227 1846
-562.8672831 847.744468 1903
-726.164129 819.7314371 1819
-698.2371803 798.5509107 1772
-671.9629631 778.7223328 1728
-636.1677527 747.1768679 1658
-621.1583513 739.5158264 1641
-609.3116055 735.4599809 1632
-600.8715782 735.4599809 1632
-592.4315509 735.4599809 1632
-583.9915236 735.4599809 1632
-575.5514963 735.4599809 1632
-565.7214899 733.6573829 1628
-555.9328562 731.854785 1624
-547.5342016 731.854785 1624
-539.135547 731.854785 1624
-532.0441261 733.6573829 1628
-524.9113325 735.4599809 1632
-522.1676799 743.5716719 1650
-526.0863111 761.5976518 1690
-531.7340701 782.7781782 1737
-552.2441758 826.9418291 1835
-559.3179361 852.178201 1891
-726.164129 829.1385508 1819
-698.2371803 807.7149599 1772
-671.9629631 787.6588322 1728
-648.4460205 770.3376311 1690
-621.1583513 748.002398 1641
-609.3116055 743.9000082 1632
-599.3988537 742.0767239 1628
-590.9795128 742.0767239 1628
-582.5601718 742.0767239 1628
-574.1408308 742.0767239 1628
-565.7214899 742.0767239 1628
-555.9328562 740.2534396 1624
-547.5342016 740.2534396 1624
-540.463467 742.0767239 1628
-532.0441261 742.0767239 1628
-524.9113325 743.9000082 1632
-523.433541 753.9280721 1654
-526.0863111 770.3376311 1690
-530.5095817 789.9379377 1733
-548.9337202 831.4176563 1824
-724.1680759 836.2407013 1814
-696.2669851 814.5740458 1767
-670.0186258 794.2903684 1723
-648.4460205 779.0776103 1690
-619.6442542 754.6449989 1637
-607.8181947 750.4960648 1628
-597.9261293 748.6520942 1624
-590.9795128 750.4960648 1628
-582.5601718 750.4960648 1628
-575.5514963 752.3400355 1632
-565.7214899 750.4960648 1628
-555.9328562 748.6520942 1624
-547.5342016 748.6520942 1624
-540.463467 750.4960648 1628
-532.0441261 750.4960648 1628
-524.9113325 752.3400355 1632
-523.433541 762.4818742 1654
-524.8411364 777.2336396 1686
-528.9789713 796.5953317 1728
-544.1185121 833.4747452 1808
-721.7728121 842.8249716 1808
-694.2967899 821.3814159 1762
-670.0186258 803.2010099 1723
-646.911237 785.9529325 1686
-619.6442542 763.1108841 1637
-607.8181947 758.9154058 1628
-599.3988537 758.9154058 1628
-590.9795128 758.9154058 1628
-582.5601718 758.9154058 1628
-574.1408308 758.9154058 1628
-565.7214899 758.9154058 1628
-555.9328562 757.0507488 1624
-547.5342016 757.0507488 1624
-540.463467 758.9154058 1628
-532.0441261 758.9154058 1628
-523.6247851 758.9154058 1628
-523.433541 771.0356764 1654
-524.8411364 785.9529325 1686
-527.4483608 803.2010099 1723
-541.1090071 838.163329 1798
-715.7846527 845.1051603 1793
-690.3563995 825.7803909 1752
-668.0742885 809.7549723 1718
-644.9927577 792.3155462 1681
-619.6442542 771.5767693 1637
-607.8181947 767.3347468 1628
-599.3988537 767.3347468 1628
-590.9795128 767.3347468 1628
-581.12882 765.4494034 1624
-572.7301654 765.4494034 1624
-564.3315108 765.4494034 1624
-554.2212403 763.0927242 1619
-547.5342016 765.4494034 1624
-539.135547 765.4494034 1624
-532.0441261 767.3347468 1628
-523.6247851 767.3347468 1628
-523.433541 779.5894786 1654
-523.284668 792.3155462 1681
-523.1626516 805.5129498 1709
-533.284294 835.2071076 1772
-711.3933359 849.1362311 1782
-686.4160091 830.0759341 1742
-664.5744814 814.3511891 1709
-644.9927577 801.0089812 1681
-621.1583513 781.9486842 1641
-609.3116055 777.6601174 1632
-599.3988537 775.7540877 1628
-589.5274746 773.848058 1624
-581.12882 773.848058 1624
-572.7301654 773.848058 1624
-562.5940369 771.4655209 1619
-554.2212403 771.4655209 1619
-545.8484436 771.4655209 1619
-539.135547 773.848058 1624
-532.0441261 775.7540877 1628
-524.9113325 777.6601174 1632
-523.433541 788.1432808 1654
-521.7281996 798.6264441 1676
-521.6320411 811.968652 1704
-528.7700364 837.2235455 1757
-707.4012296 853.5352061 1772
-684.4458139 836.6764408 1737
-662.6301441 820.7810334 1704
-644.9927577 809.7024162 1681
-622.6724485 792.3619718 1645
-611.178369 788.5085398 1637
-600.8715782 786.1001447 1632
-590.9795128 784.1734287 1628
-581.12882 782.2467126 1624
-570.9668336 779.8383176 1619
-562.5940369 779.8383176 1619
-552.8519475 777.9116015 1615
-544.4998372 777.9116015 1615
-537.4756469 779.8383176 1619
-532.0441261 784.1734287 1628
-524.9113325 786.1001447 1632
-523.433541 796.6970829 1654
-520.4830249 805.3673051 1672
-518.8769423 816.4459223 1695
-525.7605314 841.4932309 1747
-703.4091233 857.8307494 1762
-680.8994626 841.2778292 1728
-660.6858069 827.1591619 1699
-643.0742783 815.9615982 1676
-624.5650699 803.3034827 1650
-612.6717798 798.9218274 1641
-600.8715782 794.540172 1632
-589.5274746 790.6453672 1624
-579.3396303 788.2111143 1619
-570.9668336 788.2111143 1619
-561.2040579 786.2637119 1615
-551.4826548 784.3163095 1611
-543.1512308 784.3163095 1611
-537.4756469 788.2111143 1619
-532.0441261 792.5927696 1628
-524.9113325 794.540172 1632
-522.1676799 803.3034827 1650
-517.6813819 809.6325405 1663
-514.591233 818.3958512 1681
-518.5377192 838.8435762 1723
-695.4249108 857.1026392 1742
-674.9888769 842.8339959 1713
-659.130337 833.9775967 1695
-643.0742783 824.6291753 1676
-626.079167 813.8046873 1654
-612.6717798 807.4083989 1641
-600.8715782 802.9801993 1632
-590.9795128 801.0121106 1628
-581.12882 799.0440218 1624
-570.9668336 796.5839109 1619
-562.5940369 796.5839109 1619
-552.8519475 794.6158222 1615
-544.4998372 794.6158222 1615
-537.4756469 796.5839109 1619
-532.0441261 801.0121106 1628
-524.9113325 802.9801993 1632
-520.5853536 809.3764876 1645
-516.1249135 815.772776 1658
-513.0606226 824.6291753 1676
-511.3149071 835.9456854 1699
-674.9888769 851.6929217 1713
-657.1859998 840.257465 1690
-643.0742783 833.2967523 1676
-627.5932642 824.3472645 1658
-616.031954 820.3697144 1650
-604.1852082 815.8949705 1641
-592.4315509 811.4202266 1632
-581.12882 807.4426765 1624
-572.7301654 807.4426765 1624
-562.5940369 804.9567076 1619
-552.8519475 802.9679326 1615
-543.1512308 800.9791575 1611
-537.4756469 804.9567076 1619
-530.7368924 807.4426765 1624
-524.9113325 811.4202266 1632
-520.5853536 817.8837455 1645
-516.1249135 824.3472645 1658
-513.0606226 833.2967523 1676
-510.1111051 842.7434339 1695
-674.9888769 860.5518474 1713
-657.1859998 848.9974443 1690
-643.0742783 841.9643293 1676
-629.4858856 835.4335798 1663
-617.5253648 830.9122916 1654
-605.6579326 826.3910034 1645
-594.2465985 822.3720806 1637
-582.5601718 817.8507925 1628
-574.1408308 817.8507925 1628
-564.3315108 815.8413311 1624
-552.8519475 811.3200429 1615
-544.4998372 811.3200429 1615
-539.135547 815.8413311 1624
-532.0441261 817.8507925 1628
-524.9113325 819.8602539 1632
-520.5853536 826.3910034 1645
-516.1249135 832.921753 1658
-511.8361342 839.9548679 1672
-508.6063526 848.9974443 1690
-674.9888769 869.4107731 1713
-657.1859998 857.7374235 1690
-644.9927577 853.1695911 1681
-629.4858856 844.0339262 1663
-619.0187756 841.4962415 1658
-605.6579326 834.8982614 1645
-594.2465985 830.8379659 1637
-583.9915236 828.3002812 1632
-575.5514963 828.3002812 1632
-565.7214899 826.2701334 1628
-555.9328562 824.2399857 1624
-545.8484436 821.702301 1619
-539.135547 824.2399857 1624
-532.0441261 826.2701334 1628
-524.9113325 828.3002812 1632
-520.5853536 834.8982614 1645
-514.8797388 839.4660938 1654
-510.3055238 846.064074 1667
-505.8977981 853.1695911 1681
-678.9292673 883.396784 1723
-660.6858069 871.0917795 1699
-644.9927577 861.8630261 1681
-630.9999827 854.6851067 1667
-620.8855391 852.6342727 1663
-607.4988382 845.9690619 1650
-597.1506747 843.4055193 1645
-587.2120651 841.3546852 1641
-578.7254935 841.3546852 1641
-568.8489428 839.3038511 1637
-558.6714417 836.7403085 1632
-547.5342016 832.6386403 1624
-540.463467 834.6894744 1628
-533.3513598 836.7403085 1632
-526.5195167 839.3038511 1637
-520.5853536 843.4055193 1645
-514.8797388 848.019896 1654
-510.3055238 854.6851067 1667
-505.8977981 861.8630261 1681
-680.8994626 894.8968261 1728
-660.6858069 879.878303 1699
-644.9927577 870.556461 1681
-630.9999827 863.3061395 1667
-620.8855391 861.2346191 1663
-608.9715627 856.5736981 1654
-597.1506747 851.9127772 1645
-588.6434168 851.9127772 1645
-580.1361589 851.9127772 1645
-570.2389219 849.8412567 1641
-560.3830576 847.7697363 1637
-548.882808 843.1088153 1628
-541.7913871 845.1803358 1632
-534.985402 847.7697363 1637
-526.5195167 847.7697363 1637
-522.1676799 854.5021777 1650
-514.8797388 856.5736981 1654
-510.3055238 863.3061395 1667
-680.8994626 903.8333256 1728
-662.6301441 891.280085 1704
-644.9927577 879.249896 1681
-630.9999827 871.9271723 1667
-620.8855391 869.8349655 1663
-608.9715627 865.1275003 1654
-598.9657224 863.0352935 1650
-590.4326066 863.0352935 1650
-581.8994907 863.0352935 1650
-571.628901 860.4200351 1645
-560.3830576 856.2356215 1637
-550.2314144 853.6203631 1632
-543.4512872 856.2356215 1637
-534.985402 856.2356215 1637
-527.8060641 858.3278283 1641
-522.1676799 863.0352935 1650
-516.1249135 867.2197071 1658
-510.3055238 871.9271723 1667
-682.8696578 915.4109415 1733
-662.6301441 900.0924664 1704
-644.9927577 887.943331 1681
-630.9999827 880.5482051 1667
-620.8855391 878.435312 1663
-608.9715627 873.6813025 1654
-598.9657224 871.5684094 1650
-590.4326066 871.5684094 1650
-581.8994907 871.5684094 1650
-571.628901 868.927293 1645
-561.7523504 866.8143999 1641
-550.2314144 862.0603903 1632
-543.4512872 864.7015067 1637
-536.2926357 866.8143999 1641
-527.8060641 866.8143999 1641
-523.433541 873.6813025 1654
-516.1249135 875.7941956 1658
-511.8361342 883.1893215 1672
-682.8696578 924.3732989 1733
-664.5744814 911.5718222 1709
-646.911237 899.3037403 1686
-629.4858856 887.0356584 1663
-620.8855391 887.0356584 1663
-608.9715627 882.2351046 1654
-600.4177605 882.2351046 1654
-591.8639583 882.2351046 1654
-583.3101562 882.2351046 1654
-573.3663749 880.1015252 1650
-563.1216431 877.4345509 1645
-553.2657788 875.3009714 1641
-544.7792073 875.3009714 1641
-536.2926357 875.3009714 1641
-529.0926115 877.4345509 1645
-524.699402 884.3686841 1658
-518.9265566 889.1692379 1667
-514.591233 896.636766 1681
-682.8696578 933.3356563 1733
-664.5744814 920.4100615 1709
-646.911237 908.0230332 1686
-629.4858856 895.6360049 1663
-620.8855391 895.6360049 1663
-610.4442871 892.9431726 1658
-600.4177605 890.7889068 1654
-591.8639583 890.7889068 1654
-583.3101562 890.7889068 1654
-573.3663749 888.634641 1650
-563.1216431 885.9418088 1645
-553.2657788 883.787543 1641
-544.7792073 883.787543 1641
-537.5998694 885.9418088 1645
-529.0926115 885.9418088 1645
-524.699402 892.9431726 1658
-520.4830249 900.4831029 1672
-514.591233 905.3302009 1681
-682.8696578 942.2980137 1733
-664.5744814 929.2483009 1709
-646.911237 916.7423261 1686
-629.4858856 904.2363513 1663
-620.8855391 904.2363513 1663
-610.4442871 901.5176611 1658
-600.4177605 899.342709 1654
-591.8639583 899.342709 1654
-581.8994907 897.1677569 1650
-573.3663749 897.1677569 1650
-563.1216431 894.4490667 1645
-553.2657788 892.2741145 1641
-544.7792073 892.2741145 1641
-537.5998694 894.4490667 1645
-529.0926115 894.4490667 1645
-526.2817283 904.2363513 1663
-520.4830249 909.1299936 1672
-516.1218435 916.7423261 1686
-664.5744814 938.0865402 1709
-648.4460205 927.6572575 1690
-629.4858856 912.8366977 1663
-620.8855391 912.8366977 1663
-610.4442871 910.0921496 1658
-601.8697986 910.0921496 1658
-590.4326066 905.7008727 1650
-581.8994907 905.7008727 1650
-571.628901 902.9563246 1645
-563.1216431 902.9563246 1645
-553.2657788 900.7606861 1641
-544.7792073 900.7606861 1641
-536.2926357 900.7606861 1641
-529.0926115 902.9563246 1645
-526.2817283 912.8366977 1663
-520.4830249 917.7768843 1672
-516.1218435 925.461619 1686
-666.1299512 949.1411044 1713
-650.3644999 939.1676427 1695
-630.9999827 923.653369 1667
-620.8855391 921.4370442 1663
-610.4442871 918.6666382 1658
-601.8697986 918.6666382 1658
-590.4326066 914.2339885 1650
-580.1361589 911.4635825 1645
-571.628901 911.4635825 1645
-563.1216431 911.4635825 1645
-553.2657788 909.2472577 1641
-544.7792073 909.2472577 1641
-536.2926357 909.2472577 1641
-527.8060641 909.2472577 1641
-526.2817283 921.4370442 1663
-521.7281996 928.6400998 1676
-516.1218435 934.1809119 1686
-668.0742885 960.7962941 1718
-651.8992833 950.1704911 1699
-630.9999827 932.2744018 1667
-622.3789499 932.2744018 1667
-612.2851927 930.0373906 1663
-601.8697986 927.2411267 1658
-590.4326066 922.7671043 1650
-580.1361589 919.9708404 1645
-570.2389219 917.7338292 1641
-561.7523504 917.7338292 1641
-553.2657788 917.7338292 1641
-543.4512872 915.4968181 1637
-536.2926357 917.7338292 1641
-527.8060641 917.7338292 1641
-526.2817283 930.0373906 1663
-521.7281996 937.3076769 1676
-516.1218435 942.9002048 1686
-670.0186258 972.5031996 1723
-653.8177627 961.7791365 1704
-632.8926041 943.7175564 1672
-622.3789499 940.8954346 1667
-612.2851927 938.6377371 1663
-603.6848463 938.6377371 1663
-590.4326066 931.3002202 1650
-580.1361589 928.4780983 1645
-570.2389219 926.2204008 1641
-561.7523504 926.2204008 1641
-551.9171724 923.9627033 1637
-543.4512872 923.9627033 1637
-534.985402 923.9627033 1637
-527.8060641 926.2204008 1641
-524.699402 935.8156152 1658
-520.4830249 943.7175564 1672
-516.1218435 951.6194977 1686
-671.9629631 984.261821 1728
-653.8177627 970.5915179 1704
-634.4067013 954.642831 1676
-622.3789499 949.5164673 1667
-612.2851927 947.2380835 1663
-601.8697986 944.3901037 1658
-590.4326066 939.833336 1650
-578.7254935 934.7069724 1641
-568.8489428 932.4285885 1637
-560.3830576 932.4285885 1637
-550.2314144 929.5806087 1632
-541.7913871 929.5806087 1632
-533.3513598 929.5806087 1632
-524.9113325 929.5806087 1632
-520.5853536 936.9853562 1645
-518.9265566 949.5164673 1667
-514.591233 957.4908108 1681
-655.736242 982.2777371 1709
-634.4067013 963.310408 1676
-624.2457134 961.0113379 1672
-612.2851927 955.8384299 1663
-603.6848463 955.8384299 1663
-590.4326066 948.3664518 1650
-578.7254935 943.1935439 1641
-568.8489428 940.8944737 1637
-558.6714417 938.020636 1632
-550.2314144 938.020636 1632
-540.463467 935.7215658 1628
-533.3513598 938.020636 1632
-524.9113325 938.020636 1632
-519.3194926 943.1935439 1641
-518.9265566 958.1375001 1667
-513.0606226 963.310408 1676
-655.736242 991.1159764 1709
-636.2993227 974.8776808 1681
-624.2457134 969.6582286 1672
-612.2851927 964.4387764 1663
-601.8697986 961.5390807 1658
-588.6434168 953.999872 1645
-578.7254935 951.6801155 1641
-568.8489428 949.3603589 1637
-558.6714417 946.4606633 1632
-550.2314144 946.4606633 1632
-541.7913871 946.4606633 1632
-532.0441261 944.1409068 1628
-524.9113325 946.4606633 1632
-519.3194926 951.6801155 1641
-517.6813819 964.4387764 1663
-513.0606226 971.9779851 1676
-653.8177627 997.0286622 1704
-634.4067013 980.6455621 1676
-622.3789499 975.3795657 1667
-612.2851927 973.0391228 1663
-601.8697986 970.1135692 1658
-588.6434168 962.5071299 1645
-577.3148281 957.8262442 1637
-567.111469 954.9006906 1632
-558.6714417 954.9006906 1632
-550.2314144 954.9006906 1632
-541.7913871 954.9006906 1632
-532.0441261 952.5602477 1628
-524.9113325 954.9006906 1632
-519.3194926 960.166687 1641
-517.6813819 973.0391228 1663
-511.8361342 978.3051193 1672
-646.911237 995.2159622 1686
-630.9999827 984.0005985 1667
-619.0187756 978.6880577 1658
-608.9715627 976.3269285 1654
-600.4177605 976.3269285 1654
-588.6434168 971.0143878 1645
-577.3148281 966.2921294 1637
-567.111469 963.3407179 1632
-558.6714417 963.3407179 1632
-550.2314144 963.3407179 1632
-540.463467 960.9795887 1628
-533.3513598 963.3407179 1632
-524.9113325 963.3407179 1632
-519.3194926 968.6532586 1641
-516.1249135 978.6880577 1658
-510.3055238 984.0005985 1667
-643.0742783 997.9807162 1676
-627.5932642 987.2625463 1658
-617.5253648 984.8807307 1654
-608.9715627 984.8807307 1654
-600.4177605 984.8807307 1654
-588.6434168 979.5216457 1645
-577.3148281 974.7580146 1637
-568.8489428 974.7580146 1637
-558.6714417 971.7807452 1632
-550.2314144 971.7807452 1632
-541.7913871 971.7807452 1632
-533.3513598 971.7807452 1632
-526.5195167 974.7580146 1637
-519.3194926 977.1398302 1641
-516.1249135 987.2625463 1658
-510.3055238 992.6216313 1667
-639.6210155 1001.242664 1667
-626.079167 993.4345329 1654
-616.031954 991.032031 1650
-607.4988382 991.032031 1650
-598.9657224 991.032031 1650
-588.6434168 988.0289036 1645
-577.3148281 983.2238998 1637
-568.8489428 983.2238998 1637
-560.3830576 983.2238998 1637
-551.9171724 983.2238998 1637
-541.7913871 980.2207725 1632
-533.3513598 980.2207725 1632
-526.5195167 983.2238998 1637
-519.3194926 985.6264017 1641
-516.1249135 995.8370348 1658
-510.3055238 1001.242664 1667
-633.0981857 999.5651468 1650
-622.6724485 996.5361615 1645
-612.6717798 994.1129733 1641
-605.6579326 996.5361615 1645
-597.1506747 996.5361615 1645
-587.2120651 994.1129733 1641
-578.7254935 994.1129733 1641
-568.8489428 991.6897851 1637
-560.3830576 991.6897851 1637
-551.9171724 991.6897851 1637
-543.4512872 991.6897851 1637
-534.985402 991.6897851 1637
-526.5195167 991.6897851 1637
-520.5853536 996.5361615 1645
-516.1249135 1004.411523 1658
-509.0810354 1007.440509 1663
-631.1797064 1005.043419 1645
-621.1583513 1002.599545 1641
-612.6717798 1002.599545 1641
-604.1852082 1002.599545 1641
-597.1506747 1005.043419 1645
-587.2120651 1002.599545 1641
-577.3148281 1000.15567 1637
-568.8489428 1000.15567 1637
-561.7523504 1002.599545 1641
-553.2657788 1002.599545 1641
-544.7792073 1002.599545 1641
-534.985402 1000.15567 1637
-527.8060641 1002.599545 1641
-520.5853536 1005.043419 1645
-516.1249135 1012.986012 1658
-509.0810354 1016.040855 1663
-628.1101394 1008.621555 1637
-619.6442542 1008.621555 1637
-611.178369 1008.621555 1637
-604.1852082 1011.086116 1641
-595.6986366 1011.086116 1641
-587.2120651 1011.086116 1641
-578.7254935 1011.086116 1641
-570.2389219 1011.086116 1641
-561.7523504 1011.086116 1641
-553.2657788 1011.086116 1641
-544.7792073 1011.086116 1641
-536.2926357 1011.086116 1641
-529.0926115 1013.550677 1645
-520.5853536 1013.550677 1645
-514.8797388 1019.095939 1654
-628.1101394 1017.087441 1637
-617.7516328 1013.980882 1632
-611.178369 1017.087441 1637
-604.1852082 1019.572688 1641
-595.6986366 1019.572688 1641
-587.2120651 1019.572688 1641
-578.7254935 1019.572688 1641
-570.2389219 1019.572688 1641
-561.7523504 1019.572688 1641
-554.6143852 1022.057935 1645
-544.7792073 1019.572688 1641
-537.5998694 1022.057935 1645
-529.0926115 1022.057935 1645
-522.1676799 1025.164494 1650
-514.8797388 1027.649742 1654
