# .PCD v0.7 - Point Cloud Data file format
VERSION 0.7
FIELDS x y z rgb
SIZE 4 4 4 4
TYPE F F F F
COUNT 1 1 1 1
WIDTH 1044
HEIGHT 1
VIEWPOINT 0 0 0 1 0 0 0
POINTS 1044
DATA ascii
-1118.042516 283.2079485 2095 1.651191459e-38
-1107.208045 283.2079485 2095 1.651191459e-38
-1096.373573 283.2079485 2095 1.651191459e-38
-1089.684359 284.2894109 2103 1.651191459e-38
-1078.808515 284.2894109 2103 1.651191459e-38
-1067.932671 284.2894109 2103 1.651191459e-38
-1057.056827 284.2894109 2103 1.651191459e-38
-1049.663278 285.2356904 2110 1.651191459e-38
-1035.305139 284.2894109 2103 1.651191459e-38
-1024.429295 284.2894109 2103 1.651191459e-38
-1013.553451 284.2894109 2103 1.651191459e-38
-1002.677607 284.2894109 2103 1.651191459e-38
-991.8017628 284.2894109 2103 1.651191459e-38
-980.9259188 284.2894109 2103 1.651191459e-38
-970.0500748 284.2894109 2103 1.651191459e-38
-962.3669173 285.2356904 2110 1.651191459e-38
-951.4548722 285.2356904 2110 1.651191459e-38
-943.6631113 286.18197 2117 1.651191459e-38
-932.7148651 286.18197 2117 1.651191459e-38
-921.766619 286.18197 2117 1.651191459e-38
-910.8183728 286.18197 2117 1.651191459e-38
-899.8701266 286.18197 2117 1.651191459e-38
-888.9218804 286.18197 2117 1.651191459e-38
-875.0705565 285.2356904 2110 1.651191459e-38
-864.1585114 285.2356904 2110 1.651191459e-38
-853.2464663 285.2356904 2110 1.651191459e-38
-839.5399469 284.2894109 2103 1.651191459e-38
-828.6641029 284.2894109 2103 1.651191459e-38
-817.7882589 284.2894109 2103 1.651191459e-38
-803.8428479 283.2079485 2095 1.651191459e-38
-796.0365709 284.2894109 2103 1.651191459e-38
-785.1607269 284.2894109 2103 1.651191459e-38
-774.2848829 284.2894109 2103 1.651191459e-38
-765.9501056 285.2356904 2110 1.651191459e-38
-757.5429261 286.18197 2117 1.651191459e-38
-749.0633444 287.1282495 2124 1.651191459e-38
-738.0788971 287.1282495 2124 1.651191459e-38
-732.2292977 289.1559914 2139 1.651191459e-38
-726.2245506 291.1837332 2154 1.651191459e-38
-717.4088159 292.1300128 2161 1.651191459e-38
-708.8474874 293.2114751 2169 1.651191459e-38
-702.4548715 295.239217 2184 1.651191459e-38
-691.160129 295.239217 2184 1.651191459e-38
-682.355736 296.3206793 2192 1.651191459e-38
-671.0196209 296.3206793 2192 1.651191459e-38
-659.6835059 296.3206793 2192 1.651191459e-38
-645.9811594 295.239217 2184 1.651191459e-38
-1628.623749 306.5339594 2184 1.651191459e-38
-1595.112949 302.3233281 2154 1.651191459e-38
-1561.912444 298.1126968 2124 1.651191459e-38
-1540.705307 296.1477355 2110 1.651191459e-38
-1524.718119 295.1652549 2103 1.651191459e-38
-1513.842275 295.1652549 2103 1.651191459e-38
-1502.966431 295.1652549 2103 1.651191459e-38
-1492.090587 295.1652549 2103 1.651191459e-38
-1481.214743 295.1652549 2103 1.651191459e-38
-1470.338899 295.1652549 2103 1.651191459e-38
-1464.320992 296.1477355 2110 1.651191459e-38
-1458.230682 297.1302161 2117 1.651191459e-38
-1447.282436 297.1302161 2117 1.651191459e-38
-1441.083524 298.1126968 2124 1.651191459e-38
-1440.198646 300.2180124 2139 1.651191459e-38
-1429.136625 300.2180124 2139 1.651191459e-38
-1412.770912 299.0951774 2131 1.651191459e-38
-1407.012583 300.2180124 2139 1.651191459e-38
-1390.729615 299.0951774 2131 1.651191459e-38
-1379.708967 299.0951774 2131 1.651191459e-38
-1368.688318 299.0951774 2131 1.651191459e-38
-1348.74822 297.1302161 2117 1.651191459e-38
-1337.799974 297.1302161 2117 1.651191459e-38
-1326.851728 297.1302161 2117 1.651191459e-38
-1315.903482 297.1302161 2117 1.651191459e-38
-1300.640315 296.1477355 2110 1.651191459e-38
-1285.449551 295.1652549 2103 1.651191459e-38
-1274.573707 295.1652549 2103 1.651191459e-38
-1258.890643 294.0424198 2095 1.651191459e-38
-1243.886056 293.0599392 2088 1.651191459e-38
-1233.087785 293.0599392 2088 1.651191459e-38
-1218.191801 292.0774586 2081 1.651191459e-38
-1207.429732 292.0774586 2081 1.651191459e-38
-1196.667663 292.0774586 2081 1.651191459e-38
-1185.905594 292.0774586 2081 1.651191459e-38
-1175.143525 292.0774586 2081 1.651191459e-38
-1164.381456 292.0774586 2081 1.651191459e-38
-1157.499894 293.0599392 2088 1.651191459e-38
-1146.701624 293.0599392 2088 1.651191459e-38
-1135.903353 293.0599392 2088 1.651191459e-38
-1128.876987 294.0424198 2095 1.651191459e-38
-1118.042516 294.0424198 2095 1.651191459e-38
-1111.436047 295.1652549 2103 1.651191459e-38
-1100.560203 295.1652549 2103 1.651191459e-38
-1089.684359 295.1652549 2103 1.651191459e-38
-1078.808515 295.1652549 2103 1.651191459e-38
-1067.932671 295.1652549 2103 1.651191459e-38
-1060.575323 296.1477355 2110 1.651191459e-38
-1046.180983 295.1652549 2103 1.651191459e-38
-1035.305139 295.1652549 2103 1.651191459e-38
-1024.429295 295.1652549 2103 1.651191459e-38
-1013.553451 295.1652549 2103 1.651191459e-38
-1002.677607 295.1652549 2103 1.651191459e-38
-991.8017628 295.1652549 2103 1.651191459e-38
-980.9259188 295.1652549 2103 1.651191459e-38
-970.0500748 295.1652549 2103 1.651191459e-38
-959.1742308 295.1652549 2103 1.651191459e-38
-951.4548722 296.1477355 2110 1.651191459e-38
-940.5428271 296.1477355 2110 1.651191459e-38
-929.630782 296.1477355 2110 1.651191459e-38
-918.7187369 296.1477355 2110 1.651191459e-38
-907.8066918 296.1477355 2110 1.651191459e-38
-896.8946467 296.1477355 2110 1.651191459e-38
-885.9826016 296.1477355 2110 1.651191459e-38
-875.0705565 296.1477355 2110 1.651191459e-38
-864.1585114 296.1477355 2110 1.651191459e-38
-850.4157909 295.1652549 2103 1.651191459e-38
-839.5399469 295.1652549 2103 1.651191459e-38
-828.6641029 295.1652549 2103 1.651191459e-38
-814.6773192 294.0424198 2095 1.651191459e-38
-803.8428479 294.0424198 2095 1.651191459e-38
-793.0083766 294.0424198 2095 1.651191459e-38
-782.1739053 294.0424198 2095 1.651191459e-38
-771.339434 294.0424198 2095 1.651191459e-38
-763.4090389 295.1652549 2103 1.651191459e-38
-755.0380605 296.1477355 2110 1.651191459e-38
-746.5946799 297.1302161 2117 1.651191459e-38
-738.0788971 298.1126968 2124 1.651191459e-38
-732.2292977 300.2180124 2139 1.651191459e-38
-723.5273378 301.2004931 2146 1.651191459e-38
-715.0849558 302.3233281 2154 1.651191459e-38
-706.2330199 303.3058087 2161 1.651191459e-38
-699.8817767 305.4111244 2176 1.651191459e-38
-691.160129 306.5339594 2184 1.651191459e-38
-679.8653866 306.5339594 2184 1.651191459e-38
-671.0196209 307.6567944 2192 1.651191459e-38
-659.6835059 307.6567944 2192 1.651191459e-38
-648.3473908 307.6567944 2192 1.651191459e-38
-1640.555058 320.1571172 2200 1.651191459e-38
-1611.404724 316.6644941 2176 1.651191459e-38
-1567.059989 310.1158258 2131 1.651191459e-38
-1545.816652 308.0784623 2117 1.651191459e-38
-1524.718119 306.0410989 2103 1.651191459e-38
-1513.842275 306.0410989 2103 1.651191459e-38
-1497.249012 304.8768912 2095 1.651191459e-38
-1486.414541 304.8768912 2095 1.651191459e-38
-1475.580069 304.8768912 2095 1.651191459e-38
-1470.338899 306.0410989 2103 1.651191459e-38
-1459.463055 306.0410989 2103 1.651191459e-38
-1453.408946 307.0597806 2110 1.651191459e-38
-1447.282436 308.0784623 2117 1.651191459e-38
-1441.083524 309.0971441 2124 1.651191459e-38
-1434.812209 310.1158258 2131 1.651191459e-38
-1423.79156 310.1158258 2131 1.651191459e-38
-1412.770912 310.1158258 2131 1.651191459e-38
-1401.750264 310.1158258 2131 1.651191459e-38
-1390.729615 310.1158258 2131 1.651191459e-38
-1379.708967 310.1158258 2131 1.651191459e-38
-1364.192393 309.0971441 2124 1.651191459e-38
-1353.207945 309.0971441 2124 1.651191459e-38
-1337.799974 308.0784623 2117 1.651191459e-38
-1326.851728 308.0784623 2117 1.651191459e-38
-1315.903482 308.0784623 2117 1.651191459e-38
-1300.640315 307.0597806 2110 1.651191459e-38
-1285.449551 306.0410989 2103 1.651191459e-38
-1274.573707 306.0410989 2103 1.651191459e-38
-1258.890643 304.8768912 2095 1.651191459e-38
-1243.886056 303.8582094 2088 1.651191459e-38
-1233.087785 303.8582094 2088 1.651191459e-38
-1218.191801 302.8395277 2081 1.651191459e-38
-1207.429732 302.8395277 2081 1.651191459e-38
-1196.667663 302.8395277 2081 1.651191459e-38
-1185.905594 302.8395277 2081 1.651191459e-38
-1175.143525 302.8395277 2081 1.651191459e-38
-1164.381456 302.8395277 2081 1.651191459e-38
-1157.499894 303.8582094 2088 1.651191459e-38
-1146.701624 303.8582094 2088 1.651191459e-38
-1135.903353 303.8582094 2088 1.651191459e-38
-1128.876987 304.8768912 2095 1.651191459e-38
-1118.042516 304.8768912 2095 1.651191459e-38
-1111.436047 306.0410989 2103 1.651191459e-38
-1100.560203 306.0410989 2103 1.651191459e-38
-1089.684359 306.0410989 2103 1.651191459e-38
-1078.808515 306.0410989 2103 1.651191459e-38
-1071.487368 307.0597806 2110 1.651191459e-38
-1060.575323 307.0597806 2110 1.651191459e-38
-1046.180983 306.0410989 2103 1.651191459e-38
-1035.305139 306.0410989 2103 1.651191459e-38
-1024.429295 306.0410989 2103 1.651191459e-38
-1013.553451 306.0410989 2103 1.651191459e-38
-1002.677607 306.0410989 2103 1.651191459e-38
-991.8017628 306.0410989 2103 1.651191459e-38
-980.9259188 306.0410989 2103 1.651191459e-38
-970.0500748 306.0410989 2103 1.651191459e-38
-959.1742308 306.0410989 2103 1.651191459e-38
-951.4548722 307.0597806 2110 1.651191459e-38
-940.5428271 307.0597806 2110 1.651191459e-38
-929.630782 307.0597806 2110 1.651191459e-38
-918.7187369 307.0597806 2110 1.651191459e-38
-907.8066918 307.0597806 2110 1.651191459e-38
-896.8946467 307.0597806 2110 1.651191459e-38
-885.9826016 307.0597806 2110 1.651191459e-38
-875.0705565 307.0597806 2110 1.651191459e-38
-861.2916348 306.0410989 2103 1.651191459e-38
-847.1807332 304.8768912 2095 1.651191459e-38
-836.3462618 304.8768912 2095 1.651191459e-38
-825.5117905 304.8768912 2095 1.651191459e-38
-814.6773192 304.8768912 2095 1.651191459e-38
-801.1569768 303.8582094 2088 1.651191459e-38
-793.0083766 304.8768912 2095 1.651191459e-38
-782.1739053 304.8768912 2095 1.651191459e-38
-771.339434 304.8768912 2095 1.651191459e-38
-760.5049627 304.8768912 2095 1.651191459e-38
-755.0380605 307.0597806 2110 1.651191459e-38
-744.1260154 307.0597806 2110 1.651191459e-38
-735.6464337 308.0784623 2117 1.651191459e-38
-729.4907122 310.1158258 2131 1.651191459e-38
-721.1672766 311.2800335 2139 1.651191459e-38
-712.4291156 312.2987152 2146 1.651191459e-38
-703.9453609 313.4629229 2154 1.651191459e-38
-697.6303188 315.6458124 2169 1.651191459e-38
-691.160129 317.8287018 2184 1.651191459e-38
-679.8653866 317.8287018 2184 1.651191459e-38
-668.5706442 317.8287018 2184 1.651191459e-38
-659.6835059 318.9929095 2192 1.651191459e-38
-648.3473908 318.9929095 2192 1.651191459e-38
-1645.775006 332.5894878 2207 1.651191459e-38
-1617.329007 329.1234442 2184 1.651191459e-38
-1572.942899 322.3420546 2139 1.651191459e-38
-1545.816652 319.0267085 2117 1.651191459e-38
-1524.718119 316.9169429 2103 1.651191459e-38
-1513.842275 316.9169429 2103 1.651191459e-38
-1497.249012 315.7113625 2095 1.651191459e-38
-1486.414541 315.7113625 2095 1.651191459e-38
-1475.580069 315.7113625 2095 1.651191459e-38
-1464.745598 315.7113625 2095 1.651191459e-38
-1459.463055 316.9169429 2103 1.651191459e-38
-1453.408946 317.9718257 2110 1.651191459e-38
-1447.282436 319.0267085 2117 1.651191459e-38
-1436.33419 319.0267085 2117 1.651191459e-38
-1434.812209 321.1364742 2131 1.651191459e-38
-1423.79156 321.1364742 2131 1.651191459e-38
-1412.770912 321.1364742 2131 1.651191459e-38
-1401.750264 321.1364742 2131 1.651191459e-38
-1386.161287 320.0815914 2124 1.651191459e-38
-1375.17684 320.0815914 2124 1.651191459e-38
-1364.192393 320.0815914 2124 1.651191459e-38
-1353.207945 320.0815914 2124 1.651191459e-38
-1337.799974 319.0267085 2117 1.651191459e-38
-1326.851728 319.0267085 2117 1.651191459e-38
-1315.903482 319.0267085 2117 1.651191459e-38
-1296.325395 316.9169429 2103 1.651191459e-38
-1285.449551 316.9169429 2103 1.651191459e-38
-1274.573707 316.9169429 2103 1.651191459e-38
-1258.890643 315.7113625 2095 1.651191459e-38
-1243.886056 314.6564796 2088 1.651191459e-38
-1233.087785 314.6564796 2088 1.651191459e-38
-1222.289515 314.6564796 2088 1.651191459e-38
-1207.429732 313.6015968 2081 1.651191459e-38
-1196.667663 313.6015968 2081 1.651191459e-38
-1185.905594 313.6015968 2081 1.651191459e-38
-1175.143525 313.6015968 2081 1.651191459e-38
-1164.381456 313.6015968 2081 1.651191459e-38
-1157.499894 314.6564796 2088 1.651191459e-38
-1146.701624 314.6564796 2088 1.651191459e-38
-1139.711459 315.7113625 2095 1.651191459e-38
-1128.876987 315.7113625 2095 1.651191459e-38
-1122.311891 316.9169429 2103 1.651191459e-38
-1111.436047 316.9169429 2103 1.651191459e-38
-1100.560203 316.9169429 2103 1.651191459e-38
-1089.684359 316.9169429 2103 1.651191459e-38
-1082.399413 317.9718257 2110 1.651191459e-38
-1071.487368 317.9718257 2110 1.651191459e-38
-1057.056827 316.9169429 2103 1.651191459e-38
-1046.180983 316.9169429 2103 1.651191459e-38
-1035.305139 316.9169429 2103 1.651191459e-38
-1024.429295 316.9169429 2103 1.651191459e-38
-1013.553451 316.9169429 2103 1.651191459e-38
-1002.677607 316.9169429 2103 1.651191459e-38
-991.8017628 316.9169429 2103 1.651191459e-38
-980.9259188 316.9169429 2103 1.651191459e-38
-970.0500748 316.9169429 2103 1.651191459e-38
-959.1742308 316.9169429 2103 1.651191459e-38
-948.2983868 316.9169429 2103 1.651191459e-38
-937.4225428 316.9169429 2103 1.651191459e-38
-929.630782 317.9718257 2110 1.651191459e-38
-918.7187369 317.9718257 2110 1.651191459e-38
-907.8066918 317.9718257 2110 1.651191459e-38
-893.9191668 316.9169429 2103 1.651191459e-38
-883.0433228 316.9169429 2103 1.651191459e-38
-872.1674788 316.9169429 2103 1.651191459e-38
-858.0152045 315.7113625 2095 1.651191459e-38
-847.1807332 315.7113625 2095 1.651191459e-38
-833.5517875 314.6564796 2088 1.651191459e-38
-822.7535173 314.6564796 2088 1.651191459e-38
-811.955247 314.6564796 2088 1.651191459e-38
-801.1569768 314.6564796 2088 1.651191459e-38
-790.3587066 314.6564796 2088 1.651191459e-38
-779.5604364 314.6564796 2088 1.651191459e-38
-768.7621662 314.6564796 2088 1.651191459e-38
-757.963896 314.6564796 2088 1.651191459e-38
-749.6704914 315.7113625 2095 1.651191459e-38
-741.6573509 316.9169429 2103 1.651191459e-38
-733.2139703 317.9718257 2110 1.651191459e-38
-722.3019252 317.9718257 2110 1.651191459e-38
-716.1100026 320.0815914 2124 1.651191459e-38
-707.4494154 321.1364742 2131 1.651191459e-38
-699.0432345 322.3420546 2139 1.651191459e-38
-695.057224 325.6574006 2161 1.651191459e-38
-686.4131501 326.862981 2169 1.651191459e-38
-677.3750372 327.9178638 2176 1.651191459e-38
-668.5706442 329.1234442 2184 1.651191459e-38
-659.6835059 330.3290246 2192 1.651191459e-38
-648.3473908 330.3290246 2192 1.651191459e-38
-1623.253289 341.6651397 2192 1.651191459e-38
-1578.090445 334.4951596 2146 1.651191459e-38
-1550.927996 331.0660386 2124 1.651191459e-38
-1524.718119 327.7927868 2103 1.651191459e-38
-1513.842275 327.7927868 2103 1.651191459e-38
-1497.249012 326.5458338 2095 1.651191459e-38
-1486.414541 326.5458338 2095 1.651191459e-38
-1475.580069 326.5458338 2095 1.651191459e-38
-1464.745598 326.5458338 2095 1.651191459e-38
-1459.463055 327.7927868 2103 1.651191459e-38
-1453.408946 328.8838708 2110 1.651191459e-38
-1447.282436 329.9749547 2117 1.651191459e-38
-1436.33419 329.9749547 2117 1.651191459e-38
-1430.099076 331.0660386 2124 1.651191459e-38
-1419.114629 331.0660386 2124 1.651191459e-38
-1408.130182 331.0660386 2124 1.651191459e-38
-1397.145734 331.0660386 2124 1.651191459e-38
-1386.161287 331.0660386 2124 1.651191459e-38
-1375.17684 331.0660386 2124 1.651191459e-38
-1364.192393 331.0660386 2124 1.651191459e-38
-1353.207945 331.0660386 2124 1.651191459e-38
-1342.223498 331.0660386 2124 1.651191459e-38
-1326.851728 329.9749547 2117 1.651191459e-38
-1315.903482 329.9749547 2117 1.651191459e-38
-1300.640315 328.8838708 2110 1.651191459e-38
-1285.449551 327.7927868 2103 1.651191459e-38
-1274.573707 327.7927868 2103 1.651191459e-38
-1258.890643 326.5458338 2095 1.651191459e-38
-1243.886056 325.4547499 2088 1.651191459e-38
-1233.087785 325.4547499 2088 1.651191459e-38
-1222.289515 325.4547499 2088 1.651191459e-38
-1211.491245 325.4547499 2088 1.651191459e-38
-1200.692975 325.4547499 2088 1.651191459e-38
-1189.894705 325.4547499 2088 1.651191459e-38
-1179.096434 325.4547499 2088 1.651191459e-38
-1168.298164 325.4547499 2088 1.651191459e-38
-1157.499894 325.4547499 2088 1.651191459e-38
-1150.54593 326.5458338 2095 1.651191459e-38
-1139.711459 326.5458338 2095 1.651191459e-38
-1133.187735 327.7927868 2103 1.651191459e-38
-1122.311891 327.7927868 2103 1.651191459e-38
-1111.436047 327.7927868 2103 1.651191459e-38
-1104.223503 328.8838708 2110 1.651191459e-38
-1093.311458 328.8838708 2110 1.651191459e-38
-1082.399413 328.8838708 2110 1.651191459e-38
-1067.932671 327.7927868 2103 1.651191459e-38
-1057.056827 327.7927868 2103 1.651191459e-38
-1046.180983 327.7927868 2103 1.651191459e-38
-1031.366745 326.5458338 2095 1.651191459e-38
-1020.532274 326.5458338 2095 1.651191459e-38
-1009.697803 326.5458338 2095 1.651191459e-38
-995.5258407 325.4547499 2088 1.651191459e-38
-984.7275705 325.4547499 2088 1.651191459e-38
-977.1943889 326.5458338 2095 1.651191459e-38
-966.3599176 326.5458338 2095 1.651191459e-38
-955.5254463 326.5458338 2095 1.651191459e-38
-944.690975 326.5458338 2095 1.651191459e-38
-933.8565037 326.5458338 2095 1.651191459e-38
-923.0220323 326.5458338 2095 1.651191459e-38
-912.187561 326.5458338 2095 1.651191459e-38
-901.3530897 326.5458338 2095 1.651191459e-38
-890.5186184 326.5458338 2095 1.651191459e-38
-879.6841471 326.5458338 2095 1.651191459e-38
-868.8496758 326.5458338 2095 1.651191459e-38
-858.0152045 326.5458338 2095 1.651191459e-38
-844.3500577 325.4547499 2088 1.651191459e-38
-833.5517875 325.4547499 2088 1.651191459e-38
-819.995244 324.3636659 2081 1.651191459e-38
-809.2331748 324.3636659 2081 1.651191459e-38
-798.4711057 324.3636659 2081 1.651191459e-38
-787.7090366 324.3636659 2081 1.651191459e-38
-776.9469675 324.3636659 2081 1.651191459e-38
-766.1848984 324.3636659 2081 1.651191459e-38
-757.963896 325.4547499 2088 1.651191459e-38
-749.6704914 326.5458338 2095 1.651191459e-38
-738.83602 326.5458338 2095 1.651191459e-38
-730.7815069 327.7927868 2103 1.651191459e-38
-722.3019252 328.8838708 2110 1.651191459e-38
-713.7499413 329.9749547 2117 1.651191459e-38
-705.1255553 331.0660386 2124 1.651191459e-38
-699.0432345 333.4040756 2139 1.651191459e-38
-695.057224 336.8331966 2161 1.651191459e-38
-686.4131501 338.0801496 2169 1.651191459e-38
-677.3750372 339.1712336 2176 1.651191459e-38
-668.5706442 340.4181866 2184 1.651191459e-38
-659.6835059 341.6651397 2192 1.651191459e-38
-650.7136221 342.9120928 2200 1.651191459e-38
-1629.177571 354.2895805 2200 1.651191459e-38
-1583.973354 346.8817075 2154 1.651191459e-38
-1556.039341 343.177771 2131 1.651191459e-38
-1529.793262 339.7959159 2110 1.651191459e-38
-1513.842275 338.6686308 2103 1.651191459e-38
-1497.249012 337.3803051 2095 1.651191459e-38
-1486.414541 337.3803051 2095 1.651191459e-38
-1475.580069 337.3803051 2095 1.651191459e-38
-1470.338899 338.6686308 2103 1.651191459e-38
-1459.463055 338.6686308 2103 1.651191459e-38
-1448.587211 338.6686308 2103 1.651191459e-38
-1442.496901 339.7959159 2110 1.651191459e-38
-1431.584856 339.7959159 2110 1.651191459e-38
-1425.385944 340.9232009 2117 1.651191459e-38
-1409.760766 339.7959159 2110 1.651191459e-38
-1398.848721 339.7959159 2110 1.651191459e-38
-1392.541205 340.9232009 2117 1.651191459e-38
-1381.592959 340.9232009 2117 1.651191459e-38
-1370.644713 340.9232009 2117 1.651191459e-38
-1359.696467 340.9232009 2117 1.651191459e-38
-1348.74822 340.9232009 2117 1.651191459e-38
-1337.799974 340.9232009 2117 1.651191459e-38
-1322.464405 339.7959159 2110 1.651191459e-38
-1311.55236 339.7959159 2110 1.651191459e-38
-1300.640315 339.7959159 2110 1.651191459e-38
-1285.449551 338.6686308 2103 1.651191459e-38
-1274.573707 338.6686308 2103 1.651191459e-38
-1258.890643 337.3803051 2095 1.651191459e-38
-1248.056172 337.3803051 2095 1.651191459e-38
-1237.2217 337.3803051 2095 1.651191459e-38
-1226.387229 337.3803051 2095 1.651191459e-38
-1211.491245 336.2530201 2088 1.651191459e-38
-1200.692975 336.2530201 2088 1.651191459e-38
-1189.894705 336.2530201 2088 1.651191459e-38
-1183.049344 337.3803051 2095 1.651191459e-38
-1172.214873 337.3803051 2095 1.651191459e-38
-1165.815267 338.6686308 2103 1.651191459e-38
-1154.939423 338.6686308 2103 1.651191459e-38
-1144.063579 338.6686308 2103 1.651191459e-38
-1136.959639 339.7959159 2110 1.651191459e-38
-1129.783297 340.9232009 2117 1.651191459e-38
-1118.83505 340.9232009 2117 1.651191459e-38
-1107.886804 340.9232009 2117 1.651191459e-38
-1096.938558 340.9232009 2117 1.651191459e-38
-1082.399413 339.7959159 2110 1.651191459e-38
-1071.487368 339.7959159 2110 1.651191459e-38
-1057.056827 338.6686308 2103 1.651191459e-38
-1042.201217 337.3803051 2095 1.651191459e-38
-1031.366745 337.3803051 2095 1.651191459e-38
-1020.532274 337.3803051 2095 1.651191459e-38
-1009.697803 337.3803051 2095 1.651191459e-38
-998.8633315 337.3803051 2095 1.651191459e-38
-984.7275705 336.2530201 2088 1.651191459e-38
-973.9293003 336.2530201 2088 1.651191459e-38
-963.13103 336.2530201 2088 1.651191459e-38
-952.3327598 336.2530201 2088 1.651191459e-38
-941.5344896 336.2530201 2088 1.651191459e-38
-930.7362194 336.2530201 2088 1.651191459e-38
-919.9379492 336.2530201 2088 1.651191459e-38
-909.139679 336.2530201 2088 1.651191459e-38
-898.3414088 336.2530201 2088 1.651191459e-38
-887.5431385 336.2530201 2088 1.651191459e-38
-876.7448683 336.2530201 2088 1.651191459e-38
-865.9465981 336.2530201 2088 1.651191459e-38
-852.2814513 335.125735 2081 1.651191459e-38
-841.5193822 335.125735 2081 1.651191459e-38
-830.7573131 335.125735 2081 1.651191459e-38
-819.995244 335.125735 2081 1.651191459e-38
-806.5111027 333.99845 2074 1.651191459e-38
-798.4711057 335.125735 2081 1.651191459e-38
-787.7090366 335.125735 2081 1.651191459e-38
-776.9469675 335.125735 2081 1.651191459e-38
-766.1848984 335.125735 2081 1.651191459e-38
-755.4228293 335.125735 2081 1.651191459e-38
-747.1656257 336.2530201 2088 1.651191459e-38
-738.83602 337.3803051 2095 1.651191459e-38
-728.0015487 337.3803051 2095 1.651191459e-38
-719.9056629 338.6686308 2103 1.651191459e-38
-713.7499413 340.9232009 2117 1.651191459e-38
-705.1255553 342.0504859 2124 1.651191459e-38
-699.0432345 344.4660967 2139 1.651191459e-38
-692.8057661 346.8817075 2154 1.651191459e-38
-686.4131501 349.2973183 2169 1.651191459e-38
-677.3750372 350.4246033 2176 1.651191459e-38
-668.5706442 351.712929 2184 1.651191459e-38
-659.6835059 353.0012548 2192 1.651191459e-38
-650.7136221 354.2895805 2200 1.651191459e-38
-1595.003809 360.5144869 2169 1.651191459e-38
-1561.880878 355.5281178 2139 1.651191459e-38
-1534.868406 351.8714471 2117 1.651191459e-38
-1523.920159 351.8714471 2117 1.651191459e-38
-1502.966431 349.5444748 2103 1.651191459e-38
-1492.090587 349.5444748 2103 1.651191459e-38
-1481.214743 349.5444748 2103 1.651191459e-38
-1470.338899 349.5444748 2103 1.651191459e-38
-1459.463055 349.5444748 2103 1.651191459e-38
-1448.587211 349.5444748 2103 1.651191459e-38
-1437.711367 349.5444748 2103 1.651191459e-38
-1426.835523 349.5444748 2103 1.651191459e-38
-1415.959679 349.5444748 2103 1.651191459e-38
-1405.083835 349.5444748 2103 1.651191459e-38
-1394.207991 349.5444748 2103 1.651191459e-38
-1387.936676 350.707961 2110 1.651191459e-38
-1377.024631 350.707961 2110 1.651191459e-38
-1366.112586 350.707961 2110 1.651191459e-38
-1355.200541 350.707961 2110 1.651191459e-38
-1348.74822 351.8714471 2117 1.651191459e-38
-1337.799974 351.8714471 2117 1.651191459e-38
-1322.464405 350.707961 2110 1.651191459e-38
-1311.55236 350.707961 2110 1.651191459e-38
-1300.640315 350.707961 2110 1.651191459e-38
-1285.449551 349.5444748 2103 1.651191459e-38
-1274.573707 349.5444748 2103 1.651191459e-38
-1258.890643 348.2147764 2095 1.651191459e-38
-1248.056172 348.2147764 2095 1.651191459e-38
-1237.2217 348.2147764 2095 1.651191459e-38
-1222.289515 347.0512903 2088 1.651191459e-38
-1211.491245 347.0512903 2088 1.651191459e-38
-1200.692975 347.0512903 2088 1.651191459e-38
-1193.883815 348.2147764 2095 1.651191459e-38
-1183.049344 348.2147764 2095 1.651191459e-38
-1172.214873 348.2147764 2095 1.651191459e-38
-1165.815267 349.5444748 2103 1.651191459e-38
-1154.939423 349.5444748 2103 1.651191459e-38
-1147.871684 350.707961 2110 1.651191459e-38
-1136.959639 350.707961 2110 1.651191459e-38
-1129.783297 351.8714471 2117 1.651191459e-38
-1118.83505 351.8714471 2117 1.651191459e-38
-1104.223503 350.707961 2110 1.651191459e-38
-1096.938558 351.8714471 2117 1.651191459e-38
-1082.399413 350.707961 2110 1.651191459e-38
-1071.487368 350.707961 2110 1.651191459e-38
-1057.056827 349.5444748 2103 1.651191459e-38
-1046.180983 349.5444748 2103 1.651191459e-38
-1031.366745 348.2147764 2095 1.651191459e-38
-1020.532274 348.2147764 2095 1.651191459e-38
-1006.324111 347.0512903 2088 1.651191459e-38
-995.5258407 347.0512903 2088 1.651191459e-38
-984.7275705 347.0512903 2088 1.651191459e-38
-973.9293003 347.0512903 2088 1.651191459e-38
-959.9021425 345.8878042 2081 1.651191459e-38
-949.1400734 345.8878042 2081 1.651191459e-38
-938.3780043 345.8878042 2081 1.651191459e-38
-927.6159351 345.8878042 2081 1.651191459e-38
-916.853866 345.8878042 2081 1.651191459e-38
-906.0917969 345.8878042 2081 1.651191459e-38
-895.3297278 345.8878042 2081 1.651191459e-38
-884.5676587 345.8878042 2081 1.651191459e-38
-873.8055896 345.8878042 2081 1.651191459e-38
-863.0435204 345.8878042 2081 1.651191459e-38
-852.2814513 345.8878042 2081 1.651191459e-38
-838.6887067 344.724318 2074 1.651191459e-38
-827.9628387 344.724318 2074 1.651191459e-38
-817.2369707 344.724318 2074 1.651191459e-38
-806.5111027 344.724318 2074 1.651191459e-38
-795.7852346 344.724318 2074 1.651191459e-38
-785.0593666 344.724318 2074 1.651191459e-38
-774.3334986 344.724318 2074 1.651191459e-38
-763.6076306 344.724318 2074 1.651191459e-38
-755.4228293 345.8878042 2081 1.651191459e-38
-747.1656257 347.0512903 2088 1.651191459e-38
-738.83602 348.2147764 2095 1.651191459e-38
-728.0015487 348.2147764 2095 1.651191459e-38
-719.9056629 349.5444748 2103 1.651191459e-38
-713.7499413 351.8714471 2117 1.651191459e-38
-705.1255553 353.0349332 2124 1.651191459e-38
-699.0432345 355.5281178 2139 1.651191459e-38
-695.057224 359.1847885 2161 1.651191459e-38
-686.4131501 360.5144869 2169 1.651191459e-38
-679.8653866 363.0076714 2184 1.651191459e-38
-668.5706442 363.0076714 2184 1.651191459e-38
-662.0911099 365.6670683 2200 1.651191459e-38
-650.7136221 365.6670683 2200 1.651191459e-38
-1595.003809 371.7316555 2169 1.651191459e-38
-1561.880878 366.5901388 2139 1.651191459e-38
-1539.943549 364.0193805 2124 1.651191459e-38
-1523.920159 362.8196933 2117 1.651191459e-38
-1507.969172 361.6200061 2110 1.651191459e-38
-1492.090587 360.4203188 2103 1.651191459e-38
-1486.145082 361.6200061 2110 1.651191459e-38
-1470.338899 360.4203188 2103 1.651191459e-38
-1459.463055 360.4203188 2103 1.651191459e-38
-1448.587211 360.4203188 2103 1.651191459e-38
-1437.711367 360.4203188 2103 1.651191459e-38
-1421.407713 359.0492477 2095 1.651191459e-38
-1410.573241 359.0492477 2095 1.651191459e-38
-1399.73877 359.0492477 2095 1.651191459e-38
-1388.904299 359.0492477 2095 1.651191459e-38
-1383.332147 360.4203188 2103 1.651191459e-38
-1372.456303 360.4203188 2103 1.651191459e-38
-1366.112586 361.6200061 2110 1.651191459e-38
-1355.200541 361.6200061 2110 1.651191459e-38
-1348.74822 362.8196933 2117 1.651191459e-38
-1337.799974 362.8196933 2117 1.651191459e-38
-1326.851728 362.8196933 2117 1.651191459e-38
-1311.55236 361.6200061 2110 1.651191459e-38
-1296.325395 360.4203188 2103 1.651191459e-38
-1285.449551 360.4203188 2103 1.651191459e-38
-1274.573707 360.4203188 2103 1.651191459e-38
-1258.890643 359.0492477 2095 1.651191459e-38
-1248.056172 359.0492477 2095 1.651191459e-38
-1233.087785 357.8495605 2088 1.651191459e-38
-1222.289515 357.8495605 2088 1.651191459e-38
-1211.491245 357.8495605 2088 1.651191459e-38
-1200.692975 357.8495605 2088 1.651191459e-38
-1189.894705 357.8495605 2088 1.651191459e-38
-1183.049344 359.0492477 2095 1.651191459e-38
-1172.214873 359.0492477 2095 1.651191459e-38
-1165.815267 360.4203188 2103 1.651191459e-38
-1154.939423 360.4203188 2103 1.651191459e-38
-1147.871684 361.6200061 2110 1.651191459e-38
-1136.959639 361.6200061 2110 1.651191459e-38
-1129.783297 362.8196933 2117 1.651191459e-38
-1118.83505 362.8196933 2117 1.651191459e-38
-1107.886804 362.8196933 2117 1.651191459e-38
-1093.311458 361.6200061 2110 1.651191459e-38
-1078.808515 360.4203188 2103 1.651191459e-38
-1067.932671 360.4203188 2103 1.651191459e-38
-1057.056827 360.4203188 2103 1.651191459e-38
-1046.180983 360.4203188 2103 1.651191459e-38
-1027.920651 357.8495605 2088 1.651191459e-38
-1020.532274 359.0492477 2095 1.651191459e-38
-1006.324111 357.8495605 2088 1.651191459e-38
-995.5258407 357.8495605 2088 1.651191459e-38
-981.4262807 356.6498733 2081 1.651191459e-38
-970.6642116 356.6498733 2081 1.651191459e-38
-959.9021425 356.6498733 2081 1.651191459e-38
-949.1400734 356.6498733 2081 1.651191459e-38
-935.2215189 355.450186 2074 1.651191459e-38
-924.4956509 355.450186 2074 1.651191459e-38
-913.7697829 355.450186 2074 1.651191459e-38
-903.0439148 355.450186 2074 1.651191459e-38
-892.3180468 355.450186 2074 1.651191459e-38
-881.5921788 355.450186 2074 1.651191459e-38
-870.8663108 355.450186 2074 1.651191459e-38
-860.1404428 355.450186 2074 1.651191459e-38
-846.957252 354.4218827 2068 1.651191459e-38
-836.2624135 354.4218827 2068 1.651191459e-38
-825.5675749 354.4218827 2068 1.651191459e-38
-814.8727364 354.4218827 2068 1.651191459e-38
-806.5111027 355.450186 2074 1.651191459e-38
-795.7852346 355.450186 2074 1.651191459e-38
-785.0593666 355.450186 2074 1.651191459e-38
-774.3334986 355.450186 2074 1.651191459e-38
-766.1848984 356.6498733 2081 1.651191459e-38
-757.963896 357.8495605 2088 1.651191459e-38
-749.6704914 359.0492477 2095 1.651191459e-38
-741.6573509 360.4203188 2103 1.651191459e-38
-730.7815069 360.4203188 2103 1.651191459e-38
-722.3019252 361.6200061 2110 1.651191459e-38
-716.1100026 364.0193805 2124 1.651191459e-38
-707.4494154 365.2190677 2131 1.651191459e-38
-701.3308935 367.7898261 2146 1.651191459e-38
-697.6303188 371.7316555 2169 1.651191459e-38
-688.628407 372.9313427 2176 1.651191459e-38
-679.8653866 374.3024139 2184 1.651191459e-38
-671.0196209 375.673485 2192 1.651191459e-38
-662.0911099 377.0445561 2200 1.651191459e-38
-652.7840746 378.2442433 2207 1.651191459e-38
-1595.003809 382.9488241 2169 1.651191459e-38
-1566.992222 378.8880482 2146 1.651191459e-38
-1539.943549 375.0038278 2124 1.651191459e-38
-1523.920159 373.7679395 2117 1.651191459e-38
-1507.969172 372.5320511 2110 1.651191459e-38
-1497.057127 372.5320511 2110 1.651191459e-38
-1481.214743 371.2961628 2103 1.651191459e-38
-1470.338899 371.2961628 2103 1.651191459e-38
-1453.911127 369.883719 2095 1.651191459e-38
-1443.076655 369.883719 2095 1.651191459e-38
-1432.242184 369.883719 2095 1.651191459e-38
-1416.658379 368.6478307 2088 1.651191459e-38
-1405.860109 368.6478307 2088 1.651191459e-38
-1390.384907 367.4119424 2081 1.651191459e-38
-1384.263568 368.6478307 2088 1.651191459e-38
-1373.465298 368.6478307 2088 1.651191459e-38
-1372.456303 371.2961628 2103 1.651191459e-38
-1366.112586 372.5320511 2110 1.651191459e-38
-1355.200541 372.5320511 2110 1.651191459e-38
-1348.74822 373.7679395 2117 1.651191459e-38
-1337.799974 373.7679395 2117 1.651191459e-38
-1326.851728 373.7679395 2117 1.651191459e-38
-1311.55236 372.5320511 2110 1.651191459e-38
-1296.325395 371.2961628 2103 1.651191459e-38
-1285.449551 371.2961628 2103 1.651191459e-38
-1274.573707 371.2961628 2103 1.651191459e-38
-1258.890643 369.883719 2095 1.651191459e-38
-1248.056172 369.883719 2095 1.651191459e-38
-1237.2217 369.883719 2095 1.651191459e-38
-1226.387229 369.883719 2095 1.651191459e-38
-1211.491245 368.6478307 2088 1.651191459e-38
-1204.718286 369.883719 2095 1.651191459e-38
-1193.883815 369.883719 2095 1.651191459e-38
-1183.049344 369.883719 2095 1.651191459e-38
-1172.214873 369.883719 2095 1.651191459e-38
-1165.815267 371.2961628 2103 1.651191459e-38
-1154.939423 371.2961628 2103 1.651191459e-38
-1144.063579 371.2961628 2103 1.651191459e-38
-1128.876987 369.883719 2095 1.651191459e-38
-1122.311891 371.2961628 2103 1.651191459e-38
-1111.436047 371.2961628 2103 1.651191459e-38
-1100.560203 371.2961628 2103 1.651191459e-38
-1085.539102 369.883719 2095 1.651191459e-38
-1074.704631 369.883719 2095 1.651191459e-38
-1067.932671 371.2961628 2103 1.651191459e-38
-1057.056827 371.2961628 2103 1.651191459e-38
-1042.201217 369.883719 2095 1.651191459e-38
-1027.920651 368.6478307 2088 1.651191459e-38
-1017.122381 368.6478307 2088 1.651191459e-38
-1006.324111 368.6478307 2088 1.651191459e-38
-992.1883498 367.4119424 2081 1.651191459e-38
-978.124991 366.1760541 2074 1.651191459e-38
-967.399123 366.1760541 2074 1.651191459e-38
-953.905637 365.1167212 2068 1.651191459e-38
-943.2107985 365.1167212 2068 1.651191459e-38
-932.51596 365.1167212 2068 1.651191459e-38
-921.8211215 365.1167212 2068 1.651191459e-38
-908.0421998 363.8808329 2061 1.651191459e-38
-897.3835624 363.8808329 2061 1.651191459e-38
-886.724925 363.8808329 2061 1.651191459e-38
-876.0662876 363.8808329 2061 1.651191459e-38
-865.4076502 363.8808329 2061 1.651191459e-38
-854.7490128 363.8808329 2061 1.651191459e-38
-846.957252 365.1167212 2068 1.651191459e-38
-836.2624135 365.1167212 2068 1.651191459e-38
-825.5675749 365.1167212 2068 1.651191459e-38
-817.2369707 366.1760541 2074 1.651191459e-38
-806.5111027 366.1760541 2074 1.651191459e-38
-795.7852346 366.1760541 2074 1.651191459e-38
-787.7090366 367.4119424 2081 1.651191459e-38
-776.9469675 367.4119424 2081 1.651191459e-38
-768.7621662 368.6478307 2088 1.651191459e-38
-760.5049627 369.883719 2095 1.651191459e-38
-752.5331949 371.2961628 2103 1.651191459e-38
-744.1260154 372.5320511 2110 1.651191459e-38
-735.6464337 373.7679395 2117 1.651191459e-38
-727.0944498 375.0038278 2124 1.651191459e-38
-721.1672766 377.6521599 2139 1.651191459e-38
-712.4291156 378.8880482 2146 1.651191459e-38
-706.2330199 381.5363803 2161 1.651191459e-38
-699.8817767 384.1847125 2176 1.651191459e-38
-693.6918511 387.0096001 2192 1.651191459e-38
-682.355736 387.0096001 2192 1.651191459e-38
-675.6114523 389.6579322 2207 1.651191459e-38
-666.6053675 391.070376 2215 1.651191459e-38
-655.1503059 391.070376 2215 1.651191459e-38
-1646.209882 403.979254 2223 1.651191459e-38
-1595.003809 394.1659928 2169 1.651191459e-38
-1566.992222 389.9862704 2146 1.651191459e-38
-1539.943549 385.9882751 2124 1.651191459e-38
-1523.920159 384.7161857 2117 1.651191459e-38
-1502.966431 382.1720068 2103 1.651191459e-38
-1492.090587 382.1720068 2103 1.651191459e-38
-1475.580069 380.7181903 2095 1.651191459e-38
-1464.745598 380.7181903 2095 1.651191459e-38
-1444.195253 378.1740115 2081 1.651191459e-38
-1433.433184 378.1740115 2081 1.651191459e-38
-1417.88558 376.9019221 2074 1.651191459e-38
-1407.159712 376.9019221 2074 1.651191459e-38
-1396.433844 376.9019221 2074 1.651191459e-38
-1385.707976 376.9019221 2074 1.651191459e-38
-1379.622838 378.1740115 2081 1.651191459e-38
-1373.465298 379.4461009 2088 1.651191459e-38
-1372.456303 382.1720068 2103 1.651191459e-38
-1361.580459 382.1720068 2103 1.651191459e-38
-1355.200541 383.4440962 2110 1.651191459e-38
-1344.288495 383.4440962 2110 1.651191459e-38
-1337.799974 384.7161857 2117 1.651191459e-38
-1322.464405 383.4440962 2110 1.651191459e-38
-1311.55236 383.4440962 2110 1.651191459e-38
-1296.325395 382.1720068 2103 1.651191459e-38
-1280.559586 380.7181903 2095 1.651191459e-38
-1269.725114 380.7181903 2095 1.651191459e-38
-1258.890643 380.7181903 2095 1.651191459e-38
-1248.056172 380.7181903 2095 1.651191459e-38
-1237.2217 380.7181903 2095 1.651191459e-38
-1226.387229 380.7181903 2095 1.651191459e-38
-1215.552758 380.7181903 2095 1.651191459e-38
-1204.718286 380.7181903 2095 1.651191459e-38
-1193.883815 380.7181903 2095 1.651191459e-38
-1179.096434 379.4461009 2088 1.651191459e-38
-1168.298164 379.4461009 2088 1.651191459e-38
-1161.380401 380.7181903 2095 1.651191459e-38
-1150.54593 380.7181903 2095 1.651191459e-38
-1135.903353 379.4461009 2088 1.651191459e-38
-1125.105083 379.4461009 2088 1.651191459e-38
-1114.306813 379.4461009 2088 1.651191459e-38
-1103.508543 379.4461009 2088 1.651191459e-38
-1092.710273 379.4461009 2088 1.651191459e-38
-1078.284903 378.1740115 2081 1.651191459e-38
-1067.522834 378.1740115 2081 1.651191459e-38
-1060.315462 379.4461009 2088 1.651191459e-38
-1053.035688 380.7181903 2095 1.651191459e-38
-1038.718922 379.4461009 2088 1.651191459e-38
-1027.920651 379.4461009 2088 1.651191459e-38
-1013.712488 378.1740115 2081 1.651191459e-38
-1002.950419 378.1740115 2081 1.651191459e-38
-992.1883498 378.1740115 2081 1.651191459e-38
-978.124991 376.9019221 2074 1.651191459e-38
-967.399123 376.9019221 2074 1.651191459e-38
-953.905637 375.8115597 2068 1.651191459e-38
-943.2107985 375.8115597 2068 1.651191459e-38
-929.3594747 374.5394703 2061 1.651191459e-38
-918.7008372 374.5394703 2061 1.651191459e-38
-908.0421998 374.5394703 2061 1.651191459e-38
-897.3835624 374.5394703 2061 1.651191459e-38
-886.724925 374.5394703 2061 1.651191459e-38
-873.0908077 373.2673809 2054 1.651191459e-38
-865.4076502 374.5394703 2061 1.651191459e-38
-854.7490128 374.5394703 2061 1.651191459e-38
-846.957252 375.8115597 2068 1.651191459e-38
-836.2624135 375.8115597 2068 1.651191459e-38
-825.5675749 375.8115597 2068 1.651191459e-38
-817.2369707 376.9019221 2074 1.651191459e-38
-809.2331748 378.1740115 2081 1.651191459e-38
-798.4711057 378.1740115 2081 1.651191459e-38
-790.3587066 379.4461009 2088 1.651191459e-38
-779.5604364 379.4461009 2088 1.651191459e-38
-771.339434 380.7181903 2095 1.651191459e-38
-760.5049627 380.7181903 2095 1.651191459e-38
-755.0380605 383.4440962 2110 1.651191459e-38
-746.5946799 384.7161857 2117 1.651191459e-38
-738.0788971 385.9882751 2124 1.651191459e-38
-729.4907122 387.2603645 2131 1.651191459e-38
-723.5273378 389.9862704 2146 1.651191459e-38
-715.0849558 391.4400869 2154 1.651191459e-38
-708.8474874 394.1659928 2169 1.651191459e-38
-705.0279662 398.3457151 2192 1.651191459e-38
-693.6918511 398.3457151 2192 1.651191459e-38
-687.0251412 401.071621 2207 1.651191459e-38
-675.6114523 401.071621 2207 1.651191459e-38
-666.6053675 402.5254375 2215 1.651191459e-38
-1652.134164 416.9708774 2231 1.651191459e-38
-1600.151355 406.6914519 2176 1.651191459e-38
-1566.992222 401.0844926 2146 1.651191459e-38
-1545.018693 398.2810129 2131 1.651191459e-38
-1523.920159 395.6644318 2117 1.651191459e-38
-1502.966431 393.0478508 2103 1.651191459e-38
-1492.090587 393.0478508 2103 1.651191459e-38
-1475.580069 391.5526617 2095 1.651191459e-38
-1459.85146 390.2443711 2088 1.651191459e-38
-1444.195253 388.9360806 2081 1.651191459e-38
-1433.433184 388.9360806 2081 1.651191459e-38
-1417.88558 387.6277901 2074 1.651191459e-38
-1407.159712 387.6277901 2074 1.651191459e-38
-1396.433844 387.6277901 2074 1.651191459e-38
-1385.707976 387.6277901 2074 1.651191459e-38
-1379.622838 388.9360806 2081 1.651191459e-38
-1373.465298 390.2443711 2088 1.651191459e-38
-1372.456303 393.0478508 2103 1.651191459e-38
-1366.112586 394.3561413 2110 1.651191459e-38
-1359.696467 395.6644318 2117 1.651191459e-38
-1353.207945 396.9727224 2124 1.651191459e-38
-1337.799974 395.6644318 2117 1.651191459e-38
-1326.851728 395.6644318 2117 1.651191459e-38
-1315.903482 395.6644318 2117 1.651191459e-38
-1296.325395 393.0478508 2103 1.651191459e-38
-1280.559586 391.5526617 2095 1.651191459e-38
-1269.725114 391.5526617 2095 1.651191459e-38
-1258.890643 391.5526617 2095 1.651191459e-38
-1248.056172 391.5526617 2095 1.651191459e-38
-1233.087785 390.2443711 2088 1.651191459e-38
-1226.387229 391.5526617 2095 1.651191459e-38
-1211.491245 390.2443711 2088 1.651191459e-38
-1200.692975 390.2443711 2088 1.651191459e-38
-1189.894705 390.2443711 2088 1.651191459e-38
-1175.143525 388.9360806 2081 1.651191459e-38
-1164.381456 388.9360806 2081 1.651191459e-38
-1153.619387 388.9360806 2081 1.651191459e-38
-1146.701624 390.2443711 2088 1.651191459e-38
-1132.095248 388.9360806 2081 1.651191459e-38
-1117.561275 387.6277901 2074 1.651191459e-38
-1110.57111 388.9360806 2081 1.651191459e-38
-1099.809041 388.9360806 2081 1.651191459e-38
-1085.383671 387.6277901 2074 1.651191459e-38
-1071.548861 386.5063982 2068 1.651191459e-38
-1063.931935 387.6277901 2074 1.651191459e-38
-1056.760765 388.9360806 2081 1.651191459e-38
-1049.517192 390.2443711 2088 1.651191459e-38
-1038.718922 390.2443711 2088 1.651191459e-38
-1027.920651 390.2443711 2088 1.651191459e-38
-1013.712488 388.9360806 2081 1.651191459e-38
-1002.950419 388.9360806 2081 1.651191459e-38
-992.1883498 388.9360806 2081 1.651191459e-38
-978.124991 387.6277901 2074 1.651191459e-38
-964.6004755 386.5063982 2068 1.651191459e-38
-953.905637 386.5063982 2068 1.651191459e-38
-940.0181121 385.1981077 2061 1.651191459e-38
-929.3594747 385.1981077 2061 1.651191459e-38
-915.580553 383.8898172 2054 1.651191459e-38
-904.9581167 383.8898172 2054 1.651191459e-38
-894.3356804 383.8898172 2054 1.651191459e-38
-883.7132441 383.8898172 2054 1.651191459e-38
-873.0908077 383.8898172 2054 1.651191459e-38
-862.4683714 383.8898172 2054 1.651191459e-38
-854.7490128 385.1981077 2061 1.651191459e-38
-846.957252 386.5063982 2068 1.651191459e-38
-836.2624135 386.5063982 2068 1.651191459e-38
-825.5675749 386.5063982 2068 1.651191459e-38
-819.995244 388.9360806 2081 1.651191459e-38
-809.2331748 388.9360806 2081 1.651191459e-38
-798.4711057 388.9360806 2081 1.651191459e-38
-793.0083766 391.5526617 2095 1.651191459e-38
-782.1739053 391.5526617 2095 1.651191459e-38
-771.339434 391.5526617 2095 1.651191459e-38
-763.4090389 393.0478508 2103 1.651191459e-38
-757.5429261 395.6644318 2117 1.651191459e-38
-749.0633444 396.9727224 2124 1.651191459e-38
-740.5113605 398.2810129 2131 1.651191459e-38
-732.2292977 399.776202 2139 1.651191459e-38
-728.5846118 403.8879722 2161 1.651191459e-38
-717.4088159 403.8879722 2161 1.651191459e-38
-711.1351464 406.6914519 2176 1.651191459e-38
-705.0279662 409.6818302 2192 1.651191459e-38
-696.2235732 411.1770194 2200 1.651191459e-38
-687.0251412 412.4853099 2207 1.651191459e-38
-678.060429 413.9804991 2215 1.651191459e-38
-669.0129715 415.4756882 2223 1.651191459e-38
-1688.280297 434.8470019 2264 1.651191459e-38
-1652.134164 428.5086843 2231 1.651191459e-38
-1600.151355 417.9448216 2176 1.651191459e-38
-1572.833759 413.7192766 2154 1.651191459e-38
-1545.018693 409.3016613 2131 1.651191459e-38
-1528.959102 407.9571697 2124 1.651191459e-38
-1507.969172 405.2681864 2110 1.651191459e-38
-1492.090587 403.9236948 2103 1.651191459e-38
-1475.580069 402.387133 2095 1.651191459e-38
-1459.85146 401.0426414 2088 1.651191459e-38
-1444.195253 399.6981497 2081 1.651191459e-38
-1428.611448 398.3536581 2074 1.651191459e-38
-1417.88558 398.3536581 2074 1.651191459e-38
-1407.159712 398.3536581 2074 1.651191459e-38
-1392.394016 397.2012367 2068 1.651191459e-38
-1385.707976 398.3536581 2074 1.651191459e-38
-1379.622838 399.6981497 2081 1.651191459e-38
-1373.465298 401.0426414 2088 1.651191459e-38
-1377.024631 405.2681864 2110 1.651191459e-38
-1370.644713 406.612678 2117 1.651191459e-38
-1364.192393 407.9571697 2124 1.651191459e-38
-1353.207945 407.9571697 2124 1.651191459e-38
-1342.223498 407.9571697 2124 1.651191459e-38
-1331.239051 407.9571697 2124 1.651191459e-38
-1315.903482 406.612678 2117 1.651191459e-38
-1300.640315 405.2681864 2110 1.651191459e-38
-1285.449551 403.9236948 2103 1.651191459e-38
-1274.573707 403.9236948 2103 1.651191459e-38
-1258.890643 402.387133 2095 1.651191459e-38
-1248.056172 402.387133 2095 1.651191459e-38
-1237.2217 402.387133 2095 1.651191459e-38
-1222.289515 401.0426414 2088 1.651191459e-38
-1215.552758 402.387133 2095 1.651191459e-38
-1200.692975 401.0426414 2088 1.651191459e-38
-1185.905594 399.6981497 2081 1.651191459e-38
-1175.143525 399.6981497 2081 1.651191459e-38
-1160.464747 398.3536581 2074 1.651191459e-38
-1149.738879 398.3536581 2074 1.651191459e-38
-1135.717892 397.2012367 2068 1.651191459e-38
-1121.214948 395.8567451 2061 1.651191459e-38
-1106.784407 394.5122535 2054 1.651191459e-38
-1096.16197 394.5122535 2054 1.651191459e-38
-1085.539534 394.5122535 2054 1.651191459e-38
-1074.917098 394.5122535 2054 1.651191459e-38
-1064.294661 394.5122535 2054 1.651191459e-38
-1057.263124 395.8567451 2061 1.651191459e-38
-1050.159184 397.2012367 2068 1.651191459e-38
-1042.480199 398.3536581 2074 1.651191459e-38
-1031.754331 398.3536581 2074 1.651191459e-38
-1021.028463 398.3536581 2074 1.651191459e-38
-1013.712488 399.6981497 2081 1.651191459e-38
-1002.950419 399.6981497 2081 1.651191459e-38
-992.1883498 399.6981497 2081 1.651191459e-38
-978.124991 398.3536581 2074 1.651191459e-38
-964.6004755 397.2012367 2068 1.651191459e-38
-953.905637 397.2012367 2068 1.651191459e-38
-940.0181121 395.8567451 2061 1.651191459e-38
-929.3594747 395.8567451 2061 1.651191459e-38
-918.7008372 395.8567451 2061 1.651191459e-38
-904.9581167 394.5122535 2054 1.651191459e-38
-894.3356804 394.5122535 2054 1.651191459e-38
-883.7132441 394.5122535 2054 1.651191459e-38
-873.0908077 394.5122535 2054 1.651191459e-38
-862.4683714 394.5122535 2054 1.651191459e-38
-854.7490128 395.8567451 2061 1.651191459e-38
-846.957252 397.2012367 2068 1.651191459e-38
-836.2624135 397.2012367 2068 1.651191459e-38
-825.5675749 397.2012367 2068 1.651191459e-38
-819.995244 399.6981497 2081 1.651191459e-38
-811.955247 401.0426414 2088 1.651191459e-38
-801.1569768 401.0426414 2088 1.651191459e-38
-790.3587066 401.0426414 2088 1.651191459e-38
-779.5604364 401.0426414 2088 1.651191459e-38
-771.339434 402.387133 2095 1.651191459e-38
-763.4090389 403.9236948 2103 1.651191459e-38
-757.5429261 406.612678 2117 1.651191459e-38
-749.0633444 407.9571697 2124 1.651191459e-38
-740.5113605 409.3016613 2131 1.651191459e-38
-732.2292977 410.8382231 2139 1.651191459e-38
-728.5846118 415.0637682 2161 1.651191459e-38
-720.064656 416.60033 2169 1.651191459e-38
-713.7496139 419.4813835 2184 1.651191459e-38
-707.601061 422.5545072 2200 1.651191459e-38
-698.43883 423.8989988 2207 1.651191459e-38
-689.5154906 425.4355606 2215 1.651191459e-38
-678.060429 425.4355606 2215 1.651191459e-38
-669.0129715 426.9721225 2223 1.651191459e-38
-1688.280297 446.5554712 2264 1.651191459e-38
-1658.058446 441.6244258 2239 1.651191459e-38
-1606.034264 430.7761259 2184 1.651191459e-38
-1583.78664 427.8174987 2169 1.651191459e-38
-1566.769308 426.2395641 2161 1.651191459e-38
-1544.795778 423.2809369 2146 1.651191459e-38
-1528.694815 421.9002442 2139 1.651191459e-38
-1511.956747 420.3223097 2131 1.651191459e-38
-1506.570772 421.9002442 2139 1.651191459e-38
-1489.915451 420.3223097 2131 1.651191459e-38
-1474.036865 418.9416169 2124 1.651191459e-38
-1463.052418 418.9416169 2124 1.651191459e-38
-1452.067971 418.9416169 2124 1.651191459e-38
-1436.33419 417.5609242 2117 1.651191459e-38
-1420.672811 416.1802315 2110 1.651191459e-38
-1405.083835 414.7995388 2103 1.651191459e-38
-1398.848721 416.1802315 2110 1.651191459e-38
-1392.541205 417.5609242 2117 1.651191459e-38
-1390.729615 420.3223097 2131 1.651191459e-38
-1384.888541 421.9002442 2139 1.651191459e-38
-1373.82652 421.9002442 2139 1.651191459e-38
-1367.224223 423.2809369 2146 1.651191459e-38
-1356.126001 423.2809369 2146 1.651191459e-38
-1340.640456 421.9002442 2139 1.651191459e-38
-1324.605725 420.3223097 2131 1.651191459e-38
-1304.955236 417.5609242 2117 1.651191459e-38
-1289.72827 416.1802315 2110 1.651191459e-38
-1274.573707 414.7995388 2103 1.651191459e-38
-1258.890643 413.2216043 2095 1.651191459e-38
-1248.056172 413.2216043 2095 1.651191459e-38
-1233.087785 411.8409116 2088 1.651191459e-38
-1222.289515 411.8409116 2088 1.651191459e-38
-1211.491245 411.8409116 2088 1.651191459e-38
-1196.667663 410.4602189 2081 1.651191459e-38
-1185.905594 410.4602189 2081 1.651191459e-38
-1167.802407 407.8960752 2068 1.651191459e-38
-1153.19086 406.5153825 2061 1.651191459e-38
-1142.532223 406.5153825 2061 1.651191459e-38
-1128.029279 405.1346898 2054 1.651191459e-38
-1113.598738 403.7539971 2047 1.651191459e-38
-1096.007538 401.1898535 2034 1.651191459e-38
-1085.488533 401.1898535 2034 1.651191459e-38
