1416,1419,1423,1426,1429,1432,1436,1439,1439,1442,1446,1449,1453,1456,1463,1470,1477,1484,1487,1487,1487,1487,1484,1484,1484,1484,1484,1484,1487,1487,1487,1484,1487,1487,1491,1491,1491,1495,1498,1502,1505,1509,1509,1517,1520,1520,1520,1524,1524,1524,1528,1528,1524,1520,1520,1520,1520,1517,1520,1520,1520,1520,1520,1520,1524,1524,1524,1524,1524,1524,1524,1524,1528,1532,1535,1535,1535,1539,1539,1539,1539,1539,1539,1535,1532,1528,1528,1524,1524,1524,1524,1524,1524,1524,1528,1528,1528,1528,1532,1532,1535,1535,1535,1535,1535,1535,1535,1535,1535,1535,1535,1535,1535,1535,1532,1535,1535,1535,1539,1543,1543,1543,1547,1551,1551,1555,1555,1555,1555,1555,1555,1555,1551,1547,1547,1547,1547,1543,1543,1543,1543,1543,1547,1547,1551,1555,1555,1555,1555,1555,1555,1551,1551,1551,1551,1551,1551,1547,1547,1547,1547,1547,1547,1547,1547,1547,1551,1551,1551,1555,1555,1558,1558,1562,1566,1570,1570,1570,1566,1566,1562,1558,1555,1547,1547,1547,1547,1543,1543,1539,1539,1535,1535,1532,1528,1520,1517,1513,1513,1509,1509,1509,1509,1509,1517,1517,1513,1509,1509,1509,1509,1502,1498,1495,1495,1491,1487,1484,1484,1480,1480,1480,1477,1473,1473,1473,1470,1470,1470,1470,1470,1470,1470,1470,1470,1470,1473,1473,1473,1470,1466,1466,1463,1453,1449,1446,1442,1432,1429,1426,1419,1416,1413,1413,1410,1406,1406,1403,1403,1403,1397,1400,1400,1400,1400,1400,1400,1400,1397,1397,1397,1397,1397,1400,1400,1400,1400,1400,1400,1397,1388,1385,1381,1381,1375,1369,1366,1363,1360,1357,1354,1351,1345,1343,1343,1343,1340,1340,1340,1337,1337,1337,1334,1334,1334,1331,1331,1328,1325,1320,1317,1314,1314,1314,1311,1311,1309,1306,1306,1303
1416,1419,1423,1426,1429,1432,1439,1442,1442,1446,1449,1453,1456,1463,1466,1470,1477,1484,1487,1487,1487,1487,1487,1484,1487,1487,1487,1487,1487,1487,1487,1487,1487,1487,1491,1491,1491,1495,1498,1502,1505,1505,1509,1513,1517,1520,1520,1520,1524,1524,1524,1528,1524,1520,1520,1520,1520,1520,1524,1524,1524,1524,1524,1524,1524,1524,1524,1524,1524,1528,1528,1528,1532,1535,1535,1539,1539,1539,1539,1543,1539,1539,1539,1535,1532,1532,1528,1528,1524,1520,1520,1520,1520,1520,1524,1524,1528,1528,1532,1532,1535,1535,1535,1535,1535,1539,1539,1535,1535,1539,1535,1535,1535,1535,1535,1539,1539,1539,1539,1543,1547,1547,1551,1555,1555,1558,1558,1562,1562,1558,1558,1555,1555,1551,1551,1551,1551,1547,1547,1547,1547,1547,1547,1551,1551,1555,1555,1558,1558,1558,1555,1555,1551,1551,1551,1551,1551,1551,1551,1551,1551,1547,1551,1551,1551,1551,1551,1555,1555,1558,1558,1562,1562,1570,1574,1578,1578,1574,1570,1570,1566,1562,1555,1551,1547,1547,1547,1547,1543,1539,1539,1539,1535,1532,1528,1520,1517,1513,1513,1509,1509,1509,1509,1509,1517,1517,1513,1509,1509,1509,1509,1505,1502,1498,1498,1491,1491,1487,1484,1484,1480,1480,1480,1477,1473,1473,1473,1470,1470,1470,1470,1470,1470,1470,1473,1473,1473,1473,1473,1470,1466,1463,1463,1456,1453,1446,1442,1436,1429,1426,1423,1419,1416,1413,1413,1410,1406,1406,1406,1403,1400,1400,1400,1400,1400,1403,1400,1400,1400,1400,1400,1400,1400,1400,1400,1400,1400,1400,1400,1397,1388,1388,1385,1381,1375,1372,1369,1366,1363,1360,1357,1354,1351,1348,1345,1345,1343,1340,1340,1340,1337,1337,1337,1334,1334,1331,1331,1328,1328,1323,1320,1317,1317,1317,1314,1311,1311,1306,1306,1300
1419,1423,1426,1429,1432,1432,1439,1442,1446,1446,1453,1456,1459,1463,1470,1473,1477,1484,1487,1487,1487,1491,1487,1487,1484,1487,1487,1487,1487,1491,1491,1491,1491,1491,1491,1491,1495,1495,1498,1502,1505,1505,1509,1513,1517,1517,1520,1520,1520,1524,1524,1524,1524,1524,1524,1524,1524,1524,1524,1524,1524,1528,1528,1528,1528,1528,1528,1528,1528,1528,1528,1532,1532,1535,1539,1539,1539,1539,1539,1539,1539,1539,1539,1535,1535,1532,1528,1528,1524,1520,1520,1517,1517,1520,1520,1520,1524,1524,1528,1532,1535,1535,1535,1535,1539,1539,1539,1539,1539,1539,1535,1535,1535,1535,1535,1539,1539,1539,1543,1547,1551,1551,1555,1558,1558,1562,1562,1562,1562,1562,1558,1558,1558,1555,1555,1551,1551,1547,1547,1547,1547,1547,1551,1555,1555,1558,1562,1562,1562,1562,1562,1562,1558,1558,1558,1558,1555,1555,1555,1555,1555,1555,1555,1555,1555,1558,1558,1558,1562,1566,1566,1570,1570,1574,1578,1582,1582,1578,1574,1570,1570,1562,1558,1551,1551,1551,1551,1547,1543,1543,1543,1539,1535,1535,1532,1524,1520,1517,1513,1513,1513,1513,1513,1513,1520,1520,1517,1513,1513,1513,1509,1505,1502,1502,1498,1491,1491,1487,1484,1484,1480,1480,1480,1477,1473,1473,1473,1473,1473,1473,1473,1473,1473,1473,1473,1473,1473,1473,1473,1470,1466,1463,1459,1456,1449,1446,1442,1436,1432,1429,1426,1423,1419,1416,1416,1413,1410,1410,1406,1406,1406,1403,1403,1400,1403,1403,1403,1403,1400,1403,1403,1403,1400,1406,1403,1406,1403,1403,1400,1400,1394,1391,1388,1385,1378,1372,1369,1366,1363,1363,1360,1357,1351,1351,1348,1348,1343,1343,1340,1340,1337,1337,1334,1334,1334,1331,1331,1328,1328,1325,1323,1320,1320,1317,1314,1314,1311,1309,1306,1303
1423,1426,1429,1432,1436,1436,1442,1446,1449,1453,1456,1459,1463,1470,1473,1477,1480,1487,1491,1491,1495,1495,1491,1491,1491,1491,1491,1491,1491,1491,1491,1491,1491,1491,1491,1491,1495,1495,1498,1502,1502,1505,1505,1513,1513,1517,1517,1520,1520,1524,1524,1524,1524,1524,1524,1524,1524,1524,1524,1524,1528,1528,1528,1528,1528,1528,1528,1528,1528,1528,1528,1532,1532,1539,1539,1539,1539,1539,1539,1539,1535,1535,1535,1535,1532,1528,1528,1520,1517,1513,1509,1509,1505,1509,1509,1509,1517,1517,1520,1524,1532,1532,1532,1535,1535,1535,1535,1535,1535,1535,1535,1535,1535,1535,1535,1539,1539,1543,1543,1551,1555,1555,1558,1562,1562,1562,1566,1566,1566,1566,1566,1562,1562,1558,1558,1558,1555,1555,1555,1555,1555,1555,1555,1555,1558,1558,1562,1562,1566,1566,1566,1562,1562,1562,1558,1558,1558,1558,1555,1555,1555,1555,1555,1555,1558,1558,1558,1562,1562,1570,1570,1570,1578,1578,1582,1582,1582,1582,1578,1574,1570,1566,1558,1555,1551,1551,1551,1551,1547,1547,1543,1543,1539,1535,1532,1524,1520,1517,1513,1513,1517,1517,1513,1517,1520,1520,1517,1513,1513,1513,1513,1505,1502,1502,1498,1495,1491,1487,1487,1484,1484,1480,1480,1477,1477,1473,1473,1473,1473,1473,1473,1473,1473,1473,1477,1473,1473,1473,1473,1470,1466,1463,1463,1453,1449,1446,1442,1439,1436,1432,1429,1426,1423,1423,1423,1419,1416,1413,1413,1410,1406,1406,1403,1403,1403,1403,1403,1400,1400,1403,1403,1403,1403,1406,1406,1406,1406,1403,1403,1400,1394,1391,1388,1385,1378,1372,1369,1369,1366,1363,1363,1360,1354,1354,1351,1351,1345,1343,1343,1340,1340,1337,1334,1334,1334,1331,1331,1328,1328,1325,1325,1323,1323,1320,1317,1314,1314,1309,1306,1303
1423,1426,1429,1432,1436,1439,1446,1449,1453,1453,1459,1463,1466,1470,1473,1477,1480,1487,1491,1495,1495,1498,1495,1491,1491,1491,1491,1491,1491,1491,1495,1495,1495,1495,1495,1495,1495,1495,1498,1502,1502,1502,1505,1509,1513,1513,1517,1520,1520,1520,1524,1524,1524,1524,1524,1528,1528,1528,1528,1528,1528,1528,1528,1528,1528,1528,1528,1528,1528,1528,1528,1532,1532,1535,1535,1539,1539,1535,1535,1535,1535,1535,1535,1532,1532,1528,1524,1517,1513,1509,1505,1502,1502,1502,1505,1505,1513,1513,1520,1524,1528,1532,1532,1532,1535,1535,1535,1535,1535,1535,1535,1535,1535,1535,1535,1539,1539,1543,1547,1555,1555,1558,1562,1562,1562,1566,1570,1570,1570,1566,1566,1566,1566,1562,1562,1562,1562,1558,1558,1558,1558,1558,1558,1558,1558,1562,1562,1562,1566,1570,1566,1566,1566,1562,1562,1562,1558,1558,1558,1558,1558,1558,1558,1558,1558,1558,1558,1562,1562,1570,1570,1574,1578,1582,1586,1586,1586,1582,1582,1574,1574,1566,1562,1555,1555,1555,1555,1551,1551,1547,1547,1547,1543,1539,1535,1528,1524,1520,1520,1517,1520,1520,1520,1520,1524,1520,1520,1517,1517,1513,1513,1509,1502,1502,1498,1495,1491,1487,1487,1484,1484,1484,1484,1480,1477,1477,1477,1477,1477,1473,1473,1473,1473,1473,1477,1477,1473,1473,1473,1470,1466,1463,1459,1453,1449,1446,1442,1439,1436,1432,1432,1429,1426,1426,1423,1423,1419,1416,1416,1413,1410,1406,1406,1406,1403,1403,1403,1403,1403,1403,1403,1406,1406,1406,1406,1406,1406,1406,1403,1403,1394,1394,1391,1385,1378,1372,1372,1369,1366,1366,1363,1363,1357,1354,1354,1351,1348,1345,1343,1340,1340,1337,1337,1334,1334,1331,1331,1331,1328,1328,1325,1325,1325,1323,1320,1317,1314,1311,1309,1306
1426,1429,1429,1436,1439,1439,1446,1449,1453,1456,1459,1463,1466,1470,1473,1477,1480,1487,1491,1495,1495,1498,1498,1495,1491,1495,1495,1491,1491,1495,1495,1498,1498,1498,1498,1498,1498,1498,1498,1502,1502,1502,1502,1509,1509,1513,1513,1517,1520,1520,1520,1524,1524,1524,1528,1528,1528,1528,1528,1528,1524,1524,1528,1524,1524,1524,1524,1528,1528,1528,1528,1532,1532,1535,1535,1535,1535,1535,1535,1535,1532,1532,1532,1532,1528,1524,1520,1513,1505,1505,1498,1495,1495,1498,1498,1502,1509,1513,1517,1524,1528,1528,1532,1532,1535,1535,1535,1535,1535,1535,1532,1532,1532,1535,1535,1539,1539,1543,1547,1551,1555,1558,1562,1566,1566,1566,1570,1570,1570,1570,1566,1566,1566,1566,1566,1566,1566,1562,1562,1562,1562,1558,1558,1562,1562,1562,1566,1566,1570,1570,1570,1570,1566,1566,1566,1562,1558,1558,1558,1558,1558,1558,1558,1558,1558,1558,1562,1562,1566,1570,1578,1582,1578,1586,1590,1595,1590,1586,1586,1578,1574,1570,1566,1562,1562,1558,1558,1558,1555,1555,1551,1551,1547,1543,1543,1535,1532,1528,1528,1524,1524,1524,1520,1520,1524,1524,1520,1517,1517,1513,1513,1509,1502,1502,1498,1491,1491,1487,1487,1484,1484,1484,1484,1480,1480,1477,1477,1477,1477,1473,1473,1473,1473,1473,1477,1477,1473,1473,1473,1470,1466,1463,1459,1449,1446,1442,1442,1439,1436,1432,1432,1432,1429,1429,1426,1426,1423,1419,1419,1416,1413,1410,1410,1406,1406,1406,1403,1403,1403,1403,1406,1406,1406,1410,1410,1406,1406,1406,1403,1403,1394,1391,1391,1385,1378,1375,1372,1369,1369,1369,1366,1366,1363,1360,1357,1357,1351,1348,1345,1345,1343,1340,1337,1337,1334,1334,1331,1331,1331,1331,1331,1331,1328,1325,1325,1323,1320,1314,1311,1309
1429,1429,1432,1436,1439,1442,1449,1453,1453,1456,1463,1466,1470,1473,1473,1477,1480,1487,1491,1495,1498,1498,1498,1495,1495,1495,1495,1491,1491,1495,1498,1498,1498,1498,1498,1498,1502,1498,1498,1502,1502,1502,1505,1509,1509,1513,1513,1517,1520,1520,1520,1524,1528,1528,1528,1528,1528,1528,1528,1524,1524,1524,1524,1524,1524,1524,1524,1528,1528,1528,1532,1532,1532,1535,1535,1535,1535,1535,1535,1535,1532,1532,1535,1532,1528,1524,1520,1517,1502,1498,1495,1491,1491,1491,1495,1498,1505,1509,1513,1517,1524,1528,1528,1532,1532,1535,1535,1535,1532,1535,1535,1532,1532,1532,1535,1539,1539,1543,1543,1555,1555,1558,1562,1562,1566,1566,1570,1570,1570,1570,1570,1570,1570,1570,1570,1570,1570,1566,1566,1566,1570,1566,1566,1566,1566,1570,1570,1574,1574,1574,1574,1574,1570,1570,1570,1566,1566,1562,1562,1562,1562,1562,1562,1562,1562,1566,1566,1566,1570,1574,1578,1582,1586,1590,1595,1595,1595,1590,1586,1582,1578,1574,1570,1566,1562,1562,1562,1558,1558,1558,1555,1551,1551,1547,1543,1539,1535,1532,1532,1528,1524,1524,1524,1524,1524,1524,1524,1520,1517,1517,1517,1509,1505,1502,1498,1491,1491,1487,1487,1484,1487,1484,1487,1484,1480,1480,1480,1477,1477,1477,1477,1473,1473,1473,1477,1477,1473,1473,1473,1466,1466,1463,1456,1449,1446,1446,1442,1442,1436,1436,1432,1432,1432,1432,1429,1429,1423,1423,1423,1423,1416,1416,1413,1413,1410,1406,1406,1403,1403,1406,1406,1406,1410,1410,1410,1410,1406,1406,1403,1400,1394,1391,1388,1385,1378,1375,1372,1372,1369,1369,1369,1369,1366,1363,1360,1360,1354,1351,1348,1348,1345,1343,1340,1337,1337,1334,1334,1334,1334,1334,1334,1334,1331,1328,1328,1325,1323,1317,1314,1311
1429,1432,1436,1439,1442,1446,1449,1453,1456,1459,1466,1466,1470,1473,1477,1480,1484,1487,1491,1495,1498,1498,1498,1498,1498,1495,1495,1495,1495,1498,1498,1498,1498,1498,1502,1502,1502,1502,1498,1498,1502,1502,1505,1509,1509,1513,1513,1517,1520,1520,1520,1524,1528,1528,1528,1528,1528,1528,1524,1524,1524,1524,1524,1524,1524,1524,1528,1528,1528,1528,1528,1532,1532,1532,1535,1535,1535,1535,1535,1535,1535,1535,1535,1535,1532,1524,1520,1513,1498,1495,1487,1480,1477,1477,1477,1484,1498,1502,1509,1513,1524,1524,1524,0,0,0,0,0,0,0,0,0,0,0,0,0,0,0,0,0,0,0,0,0,0,856,853,0,0,0,836,1574,1574,1574,1574,1574,1574,1570,1574,1574,1574,1570,1570,1570,1570,1574,1574,1578,1578,1578,1578,1578,1574,1574,1570,1570,1566,1566,1566,1566,1566,1566,1566,1566,1566,1570,1570,1570,1570,1578,1582,1582,1586,1590,1595,1599,1595,1595,1590,1582,1578,1574,1570,1566,1566,1562,1562,1562,1558,1558,1558,1555,1551,1551,1547,1543,1539,1535,1532,1528,1528,1528,1524,1524,1528,1528,1524,1520,1520,1517,1517,1509,1505,1502,1498,1491,1491,1491,1487,1484,1487,1487,1487,1484,1480,1480,1480,1477,1480,1477,1477,1477,1477,1477,1477,1477,1473,1473,1473,1470,1466,1463,1459,1453,1449,1446,1446,1446,1439,1439,1436,1436,1436,1436,1436,1432,1429,1426,1426,1423,1419,1416,1416,1413,1410,1406,1406,1406,1406,1406,1406,1406,1410,1410,1410,1410,1406,1403,1403,1400,1394,1391,1388,1385,1378,1375,1372,1372,1369,1369,1369,1369,1369,1366,1363,1363,1357,1354,1351,1351,1348,1345,1343,1340,1340,1337,1337,1337,1334,1337,1337,1334,1334,1331,1331,1328,1325,1320,1317,1314
1432,1432,1436,1439,1442,1446,1453,1453,1456,1459,1463,1466,1470,1473,1477,1480,1484,1487,1491,1495,1498,1498,1498,1498,1498,1498,1498,1495,1495,1498,1498,1498,1502,1502,1502,1502,1502,1502,1502,1502,1502,1502,1505,1509,1509,1513,1517,1517,1520,1520,1524,1528,1528,1528,1528,1528,1528,1528,1528,1528,1524,1528,1528,1528,1528,1528,1528,1528,1528,1528,1532,1532,1532,1532,1535,1535,1535,1535,1535,1535,1535,1535,1535,1535,1532,1528,1520,1513,1498,1495,1484,1477,1473,0,0,0,0,0,0,0,0,0,0,0,0,0,0,0,0,0,0,0,0,0,0,0,0,0,0,0,0,0,0,0,0,853,851,849,846,843,836,834,0,1574,1574,1574,1574,1574,1574,1574,1574,1574,1574,1574,1578,1578,1578,1582,1582,1582,1582,1582,1578,1578,1574,1574,1574,1570,1570,1570,1570,1570,1570,1570,1570,1570,1570,1574,1574,1578,1582,1582,1586,1590,1599,1599,1599,1595,1590,1586,1582,1578,1570,1566,1566,1566,1566,1562,1558,1558,1555,1551,1551,1551,1547,1543,1539,1539,1535,1532,1528,1528,1528,1528,1528,1528,1528,1528,1524,1524,1520,1513,1509,1505,1498,1495,1491,1491,1491,1491,1491,1491,1491,1487,1487,1487,1484,1484,1484,1480,1480,1477,1477,1477,1477,1477,1477,1477,1473,1470,1466,1463,1459,1456,1453,1449,1449,1446,1442,1439,1439,1439,1439,1436,1436,1432,1432,1429,1429,1426,1423,1419,1416,1416,1410,1406,1406,1406,1403,1403,1406,1410,1410,1410,1410,1410,1406,1403,1400,1400,1394,1391,1388,1385,1381,1375,1372,1372,1372,1372,1369,1372,1369,1369,1366,1363,1360,1357,1354,1354,1351,1348,1345,1343,1343,1340,1337,1337,1337,1337,1337,1337,1337,1334,1331,1331,1328,1325,1323,1320
1432,1436,1436,1442,1446,1446,1453,1456,1459,1463,1466,1470,1473,1473,1477,1480,1484,1491,1491,1495,1498,1498,1498,1498,1498,1498,1498,1495,1495,1498,1498,1498,1502,1502,1502,1502,1502,1502,1502,1502,1502,1502,1505,1509,1509,1513,1517,1520,1520,1528,1528,1532,1532,1532,1532,1532,1532,1532,1528,1528,1528,1532,1532,1532,1532,1532,1532,1532,1532,1532,1532,1535,1535,1535,1535,1535,1535,1535,1535,1535,1535,1539,1539,1539,1532,1528,1520,1513,1498,1495,1484,1477,0,0,0,0,0,0,0,0,0,0,0,0,0,0,0,0,0,0,0,0,0,0,0,0,0,0,0,0,0,0,0,0,0,852,849,846,845,842,835,834,833,831,1578,1578,1578,1578,1578,1578,1578,1578,1582,1582,1582,1582,1586,1586,1586,1582,1582,1582,1582,1582,1578,1578,1578,1578,1578,1578,1574,1574,1574,1574,1574,1574,1574,1578,1578,1582,1582,1586,1590,1595,1603,1603,1603,1599,1595,1586,1582,1574,1574,1566,1566,1566,1562,1562,1558,1558,1555,1551,1547,1547,1547,1543,1543,1539,1539,1532,1528,1528,1528,1528,1528,1528,1528,1528,1528,1524,1524,1513,1509,1505,1502,1495,1495,1491,1491,1491,1491,1491,1491,1491,1487,1487,1484,1484,1484,1480,1480,1477,1477,1477,1480,1477,1477,1477,1477,1470,1466,1466,1463,1456,1456,1453,1449,1449,1446,1442,1442,1439,1439,1439,1436,1436,1432,1432,1429,1426,1423,1423,1419,1416,1413,1410,1406,1406,1403,1403,1406,1406,1410,1410,1410,1410,1406,1403,1400,1397,1391,1388,1388,1385,1381,1378,1375,1375,1372,1372,1372,1372,1372,1369,1369,1366,1363,1360,1360,1357,1357,1354,1351,1348,1348,1343,1340,1340,1340,1340,1340,1340,1340,1340,1337,1337,1334,1328,1325,1320
1436,1436,1439,1442,1446,1449,1456,1456,1463,1466,1470,1473,1473,1477,1480,1480,1484,1491,1491,1495,1498,1498,1498,1498,1498,1498,1498,1498,1498,1498,1498,1498,1498,1502,1502,1502,1502,1502,1502,1502,1505,1505,1509,1513,1517,1520,1520,1524,1528,1532,1532,1532,1535,1532,1532,1535,1532,1532,1532,1532,1532,1532,1532,1532,1532,1532,1532,1532,1535,1535,1535,1535,1535,1535,1539,1539,1539,1539,1539,1539,1539,1539,1539,1543,1535,1528,1524,1517,1505,1498,1487,0,0,0,0,0,0,0,0,0,0,0,0,0,817,817,816,816,0,0,0,0,0,0,0,0,0,0,0,0,0,0,0,0,845,843,840,838,837,835,830,830,829,830,830,1578,1578,1582,1578,1582,1582,1582,1590,1590,1590,1590,1590,1590,1590,1586,1586,1590,1586,1586,1582,1586,1586,1586,1582,1582,1582,1582,1582,1582,1582,1578,1578,1578,1578,1582,1586,1586,1590,1599,1603,1603,1603,1599,1595,1586,1582,1574,1574,1566,1566,1562,1562,1558,1555,1555,1555,1551,1547,1547,1547,1543,1539,1539,1539,1532,1528,1528,1528,1528,1528,1528,1528,1528,1528,1524,1524,1513,1509,1505,1502,1498,1495,1495,1491,1491,1495,1491,1491,1491,1487,1487,1487,1484,1484,1480,1480,1477,1480,1480,1480,1480,1480,1480,1477,1473,1470,1470,1466,1459,1456,1456,1453,1449,1449,1446,1442,1442,1442,1439,1439,1436,1432,1432,1432,1429,1426,1423,1419,1419,1413,1410,1406,1406,1403,1403,1403,1406,1410,1410,1410,1410,1406,1403,1400,1397,1391,1388,1385,1385,1381,1378,1378,1375,1375,1372,1372,1372,1372,1369,1369,1369,1366,1363,1360,1360,1357,1354,1354,1351,1348,1345,1343,1343,1340,1340,1340,1340,1340,1340,1340,1337,1337,1331,1325,1323
1436,1439,1439,1446,1449,1449,1459,1463,1466,1470,1477,1477,1477,1480,1480,1484,1487,1491,1491,1495,1495,1498,1498,1498,1498,1498,1498,1498,1498,1498,1498,1498,1502,1502,1502,1505,1505,1505,1505,1505,1509,1513,1513,1517,1520,1524,1524,1528,1532,1532,1532,1535,1535,1535,1535,1535,1535,1535,1535,1535,1535,1535,1535,1535,1535,1535,1535,1535,1535,1535,1535,1535,1535,1535,1539,1539,1539,1539,1539,1543,1539,1543,1543,1543,1539,1532,1528,1524,1513,1505,0,0,0,0,0,0,0,0,0,0,0,0,815,815,814,815,814,812,811,0,0,0,0,0,0,0,0,0,0,0,0,0,0,0,833,833,833,831,831,830,828,828,828,829,829,1578,1582,1578,1582,1582,1582,1586,1590,1590,1590,1595,1595,1595,1595,1590,1586,1590,1586,1586,1586,1586,1586,1586,1586,1586,1582,1586,1582,1582,1586,1586,1582,1582,1582,1586,1590,1590,1590,1599,1603,1607,1603,1599,1595,1586,1582,1578,1574,1566,1566,1562,1562,1558,1555,1551,1551,1547,1547,1543,1543,1539,1539,1539,1535,1532,1532,1528,1528,1528,1528,1528,1532,1532,1528,1528,1524,1513,1509,1505,1502,1498,1495,1495,1495,1495,1495,1495,1495,1491,1491,1491,1487,1484,1484,1484,1480,1480,1480,1480,1480,1480,1484,1484,1484,1480,1477,1477,1473,1466,1463,1459,1459,1453,1449,1449,1449,1446,1442,1442,1439,1436,1432,1432,1432,1429,1426,1423,1419,1419,1413,1410,1410,1406,1403,1403,1403,1406,1410,1410,1410,1410,1406,1403,1400,1397,1391,1388,1385,1385,1381,1378,1378,1375,1375,1375,1372,1372,1372,1372,1372,1369,1366,1363,1363,1360,1360,1357,1354,1351,1348,1345,1345,1343,1343,1340,1343,1343,1343,1340,1340,1337,1337,1331,1328,1323
1439,1439,1439,1446,1449,1453,1463,1466,1470,1473,1477,1480,1480,1484,1484,1484,1487,1491,1491,1495,1495,1498,1498,1498,1498,1498,1498,1498,1498,1498,1498,1498,1502,1502,1502,1505,1509,1509,1509,1509,1513,1517,1517,1520,1524,1528,1528,1532,1535,1535,1535,1539,1539,1535,1535,1535,1535,1535,1535,1535,1535,1535,1535,1535,1535,1535,1535,1535,1535,1535,1535,1535,1535,1535,1539,1543,1543,1543,1543,1543,1543,1547,1547,1547,1547,1543,1539,1532,1528,0,0,0,0,0,0,0,0,0,0,0,0,815,814,814,814,814,812,812,810,0,0,0,0,0,0,0,0,0,0,0,0,0,0,0,824,825,825,827,826,826,825,826,827,828,828,1578,1582,1582,1582,1582,1582,1586,1595,1595,1595,1595,1599,1599,1595,1590,1590,1590,1590,1590,1590,1590,1590,1590,1590,1590,1590,1590,1586,1586,1590,1590,1590,1586,1586,1590,1595,1595,1595,1603,1607,1607,1603,1603,1599,1586,1582,1578,1574,1566,1566,1562,1558,1555,1551,1551,1547,1547,1543,1543,1543,1539,1539,1539,1539,1535,1532,1532,1532,1532,1532,1532,1532,1532,1532,1528,1524,1517,1513,1509,1505,1502,1498,1498,1498,1498,1498,1498,1498,1498,1495,1495,1491,1487,1484,1484,1484,1484,1484,1484,1484,1484,1487,1487,1484,1484,1480,1480,1477,1473,1466,1463,1463,1456,1453,1453,1449,1449,1442,1442,1439,1439,1436,1432,1429,1429,1426,1423,1419,1419,1413,1410,1410,1406,1403,1403,1403,1406,1410,1410,1410,1410,1406,1403,1400,1397,1391,1388,1385,1385,1381,1381,1378,1375,1375,1375,1375,1375,1372,1372,1372,1369,1369,1366,1363,1363,1360,1357,1357,1354,1351,1348,1345,1345,1343,1343,1343,1343,1343,1340,1340,1337,1337,1331,1328,1323
1439,1439,1442,1446,1449,1456,1463,1470,1473,1477,1480,1484,1484,1484,1487,1487,1487,1491,1495,1495,1498,1498,1498,1498,1498,1498,1498,1498,1498,1498,1502,1502,1502,1502,1505,1509,1509,1513,1513,1513,1517,1520,1520,1528,1532,1532,1535,1539,1539,1539,1543,1543,1543,1543,1543,1543,1539,1539,1539,1539,1539,1539,1539,1539,1539,1539,1539,1539,1539,1539,1539,1539,1539,1543,1543,1543,1543,1543,1543,1543,1547,1547,1551,1551,1551,1547,1543,1543,1539,0,0,0,0,0,0,0,0,0,0,0,0,815,814,813,813,813,811,811,810,0,0,0,0,0,0,0,0,0,0,0,0,0,0,0,818,819,820,822,823,822,823,825,826,827,828,1578,1582,1582,1582,1582,1586,1586,1595,1595,1595,1595,1599,1599,1595,1595,1595,1595,1590,1590,1590,1595,1595,1595,1590,1590,1595,1595,1595,1590,1599,1599,1599,1599,1599,1599,1599,1599,1599,1607,1611,1611,1607,1603,1599,1590,1586,1582,1574,1570,1566,1562,1562,1555,1555,1551,1547,1547,1543,1543,1543,1543,1539,1539,1539,1535,1535,1532,1532,1532,1535,1535,1535,1532,1532,1528,1524,1517,1513,1509,1505,1502,1502,1498,1498,1498,1498,1498,1498,1498,1495,1495,1495,1487,1487,1487,1484,1484,1487,1484,1484,1484,1487,1487,1487,1484,1484,1484,1480,1477,1470,1466,1463,1459,1456,1453,1449,1449,1446,1442,1439,1439,1436,1432,1429,1429,1426,1423,1419,1419,1416,1413,1410,1410,1406,1406,1406,1406,1410,1413,1413,1410,1406,1403,1403,1397,1391,1391,1388,1385,1381,1381,1378,1378,1375,1375,1375,1375,1372,1372,1372,1369,1369,1366,1366,1363,1363,1360,1357,1354,1351,1348,1348,1348,1345,1345,1345,1345,1345,1343,1340,1337,1334,1328,1325,1323
1439,1439,1442,1449,1453,1456,1466,1470,1473,1477,1480,1484,1484,1487,1487,1491,1491,1495,1498,1498,1498,1498,1498,1498,1498,1498,1502,1502,1502,1502,1502,1505,1505,1505,1509,1509,1513,1513,1517,1520,1524,1528,1528,1532,1535,1535,1539,1539,1539,1539,1543,1543,1543,1543,1543,1543,1543,1543,1543,1543,1543,1539,1539,1539,1539,1539,1539,1539,1543,1543,1543,1543,1543,1543,1543,1543,1547,1547,1547,1547,1547,1547,1551,1551,1551,1551,1551,1551,1547,0,0,0,0,0,0,0,0,0,0,0,0,0,813,812,811,811,810,809,808,808,809,810,810,0,0,814,813,811,809,804,802,802,803,806,810,811,812,814,816,817,817,823,824,825,826,1578,1582,1582,1582,1586,1586,1590,1595,1595,1595,1599,1599,1599,1595,1595,1595,1595,1595,1599,1599,1595,1599,1599,1599,1599,1599,1599,1599,1599,1599,1603,1603,1603,1603,1603,1603,1607,1607,1611,1611,1611,1611,1607,1603,1595,1586,1582,1578,1570,1566,1562,1562,1558,1555,1551,1547,1547,1547,1543,1547,1543,1543,1539,1539,1539,1535,1532,1532,1532,1535,1535,1535,1535,1532,1528,1524,1517,1513,1509,1505,1502,1502,1502,1498,1498,1498,1502,1498,1498,1498,1495,1495,1491,1487,1487,1487,1487,1487,1487,1487,1487,1487,1491,1491,1487,1487,1487,1484,1477,1473,1470,1466,1459,1456,1453,1449,1449,1446,1442,1439,1439,1432,1429,1429,1426,1423,1423,1419,1419,1416,1413,1410,1410,1410,1406,1406,1410,1410,1413,1413,1413,1410,1406,1403,1400,1394,1391,1388,1388,1385,1381,1381,1378,1378,1375,1375,1375,1372,1372,1372,1369,1366,1366,1363,1363,1363,1360,1357,1354,1354,1348,1348,1348,1345,1345,1345,1345,1345,1340,1340,1337,1334,1328,1323,1320
1439,1442,1442,1449,1453,1456,1466,1473,1477,1480,1484,1484,1487,1487,1491,1491,1491,1495,1498,1498,1498,1498,1498,1498,1502,1502,1502,1502,1502,1505,1505,1505,1509,1509,1509,1513,1517,1517,1520,1520,1528,1532,1532,1535,1539,1539,1539,1539,1543,1543,1543,1547,1547,1547,1547,1547,1547,1543,1543,1543,1543,1539,1539,1539,1539,1539,1543,1543,1543,1543,1543,1543,1543,1547,1547,1547,1547,1547,1547,1547,1547,1547,1551,1555,1555,1555,1555,1555,0,0,0,0,0,0,0,0,0,0,0,0,0,813,811,810,809,808,808,807,806,808,809,810,810,813,814,815,813,811,809,806,802,801,801,803,807,807,809,810,813,815,816,822,823,824,826,1582,1582,1586,1582,1586,1586,1590,1595,1595,1599,1599,1599,1599,1595,1595,1599,1599,1599,1599,1599,1599,1599,1599,1599,1599,1599,1599,1599,1603,1603,1603,1603,1607,1607,1607,1607,1607,1611,1611,1611,1611,1611,1607,1603,1595,1590,1582,1578,1570,1566,1562,1562,1558,1555,1551,1547,1547,1547,1547,1547,1547,1543,1543,1539,1539,1535,1535,1535,1535,1535,1539,1535,1535,1532,1528,1524,1517,1513,1509,1509,1502,1502,1502,1502,1502,1502,1502,1498,1498,1498,1498,1498,1495,1491,1491,1487,1487,1491,1491,1491,1491,1495,1495,1495,1495,1495,1491,1491,1484,1480,1473,1470,1463,1459,1456,1449,1449,1446,1442,1439,1436,1432,1429,1429,1426,1423,1423,1419,1419,1416,1413,1413,1410,1410,1410,1410,1410,1410,1413,1413,1413,1410,1406,1403,1400,1394,1391,1391,1388,1385,1381,1378,1378,1378,1378,1375,1375,1375,1372,1372,1372,1369,1366,1366,1366,1363,1360,1360,1357,1354,1351,1348,1348,1345,1345,1345,1345,1343,1340,1337,1334,1328,1323,1320,1317
1439,1442,1442,1449,1453,1456,1470,1473,1477,1480,1487,1487,1487,1487,1491,1491,1495,1498,1498,1502,1502,1502,1502,1502,1502,1502,1502,1502,1505,1505,1505,1505,1509,1509,1509,1513,1517,1520,1520,1524,1532,1532,1535,1539,1539,1539,1543,1543,1543,1543,1543,1547,1547,1547,1551,1551,1547,1547,1543,1543,1539,1539,1539,1539,1539,1539,1543,1543,1543,1543,1547,1547,1547,1547,1547,1547,1543,1547,1547,1547,1547,1551,1551,1555,1558,1558,1558,1558,0,1558,0,0,0,0,0,0,0,0,0,0,0,0,811,809,808,808,807,806,806,807,809,809,810,814,815,814,813,811,809,806,803,801,801,802,803,804,806,808,811,813,814,817,823,824,826,1582,1586,1582,1586,1586,1590,1590,1599,1599,1599,1599,1599,1599,1599,1599,1599,1599,1599,1599,1599,1599,1603,1603,1599,1599,1603,1603,1603,1603,1603,1607,1607,1611,1611,1611,1611,1611,1611,1615,1615,1611,1611,1607,1603,1595,1590,1586,1578,1574,1566,1562,1562,1558,1551,1551,1547,1547,1547,1547,1551,1551,1547,1547,1543,1543,1543,1539,1539,1539,1539,1539,1539,1532,1532,1528,1524,1517,1517,1513,1509,1509,1505,1505,1505,1502,1502,1502,1502,1502,1498,1498,1498,1495,1495,1491,1491,1491,1491,1491,1491,1491,1495,1495,1495,1495,1495,1495,1495,1484,1480,1477,1470,1463,1459,1456,1453,1449,1442,1439,1439,1436,1432,1429,1426,1426,1419,1419,1419,1419,1416,1413,1413,1410,1410,1410,1410,1410,1413,1413,1413,1413,1410,1410,1403,1400,1394,1391,1391,1388,1385,1385,1381,1381,1378,1378,1378,1378,1375,1375,1375,1375,1369,1369,1366,1366,1363,1360,1360,1357,1357,1351,1351,1348,1348,1345,1345,1345,1343,1337,1334,1328,1325,1320,1317,1314
1439,1442,1442,1449,1453,1459,1470,1473,1477,1480,1487,1487,1491,1491,1491,1495,1498,1502,1502,1502,1502,1502,1502,1502,1502,1502,1505,1505,1505,1505,1505,1509,1509,1509,1513,1513,1517,1520,1520,1524,1532,1532,1535,1539,1539,1539,1543,1543,1543,1543,1547,1547,1551,1551,1551,1551,1551,1547,1543,1543,1543,1539,1539,1539,1539,1539,1543,1543,1543,1543,1547,1547,1543,1543,1547,1547,1547,1547,1547,1547,1551,1555,1555,1558,1562,1562,1562,1562,0,0,0,0,0,0,0,0,0,0,0,0,0,0,811,810,809,808,807,806,806,807,809,809,810,814,814,814,813,811,809,806,803,801,800,800,801,802,802,804,808,810,812,816,822,824,826,1582,1582,1586,1586,1590,1595,1595,1599,1599,1599,1599,1599,1599,1599,1599,1599,1599,1599,1599,1599,1603,1603,1603,1603,1603,1603,1607,1607,1607,1607,1611,1611,1611,1611,1615,1615,1615,1615,1615,1619,1615,1615,1611,1607,1599,1595,1590,1582,1578,1570,1566,1562,1558,1555,1551,1551,1547,1547,1551,1551,1551,1551,1551,1547,1547,1543,1543,1543,1539,1543,1539,1539,1532,1532,1528,1524,1520,1517,1517,1513,1509,1509,1509,1505,1505,1505,1505,1502,1502,1498,1498,1498,1495,1495,1495,1495,1491,1491,1491,1491,1491,1495,1495,1495,1498,1495,1495,1495,1487,1480,1477,1473,1463,1459,1456,1453,1449,1442,1439,1439,1436,1432,1429,1426,1426,1419,1419,1416,1419,1416,1413,1413,1413,1413,1410,1410,1413,1416,1413,1413,1413,1410,1410,1403,1400,1394,1391,1391,1388,1385,1385,1385,1385,1381,1381,1381,1381,1378,1378,1378,1375,1372,1372,1369,1366,1366,1363,1360,1357,1357,1354,1354,1351,1351,1348,1345,1345,1343,1334,1331,1328,1323,1317,1317,1311
1439,1442,1446,1449,1453,1459,1470,1477,1477,1480,1487,1491,1495,1495,1498,1498,1498,1502,1502,1502,1502,1505,1505,1505,1505,1505,1505,1505,1509,1509,1509,1509,1513,1517,1517,1517,1517,1520,1524,1524,1532,1532,1535,1539,1539,1539,1539,1539,1543,1543,1547,1547,1551,1555,1555,1555,1551,1551,1547,1547,1543,1543,1543,1543,1539,1543,1543,1543,1543,1543,1543,1547,1547,1547,1547,1547,1547,1547,1551,1551,1551,1555,1558,1562,1562,1566,1566,1566,1566,0,0,0,0,0,0,0,0,0,0,0,0,0,0,810,809,809,808,807,806,807,809,809,810,813,813,813,812,810,809,806,803,801,800,800,800,801,802,803,808,810,813,816,823,824,826,1586,1590,1590,1595,1595,1599,1599,1603,1603,1603,1599,1603,1599,1599,1599,1599,1599,1599,1603,1603,1603,1603,1603,1603,1603,1607,1607,1607,1607,1607,1611,1611,1611,1611,1615,1619,1615,1619,1619,1619,1619,1615,1611,1611,1599,1595,1590,1586,1578,1570,1566,1562,1558,1555,1551,1551,1551,1547,1551,1551,1555,1555,1551,1551,1551,1547,1547,1543,1543,1543,1543,1539,1535,1532,1528,1528,1520,1520,1517,1517,1513,1509,1509,1509,1505,1505,1505,1505,1502,1502,1498,1498,1498,1495,1495,1495,1491,1491,1495,1491,1491,1495,1495,1495,1498,1498,1495,1495,1487,1484,1480,1473,1466,1459,1456,1453,1449,1446,1442,1439,1439,1432,1429,1429,1426,1419,1419,1419,1419,1416,1416,1416,1416,1416,1416,1416,1419,1419,1419,1416,1416,1413,1410,1406,1403,1397,1394,1391,1388,1385,1385,1385,1385,1385,1385,1385,1381,1381,1381,1378,1378,1375,1372,1372,1369,1366,1363,1363,1360,1357,1354,1354,1354,1351,1351,1345,1345,1343,1334,1331,1325,1323,1314,1314,1311
1442,1446,1449,1453,1456,1459,1463,1473,1477,1480,1487,1491,1495,1495,1498,1498,1502,1502,1505,1505,1505,1505,1505,1505,1505,1505,1509,1509,1513,1513,1513,1513,1517,1517,1517,1520,1517,1520,1524,1524,1528,1532,1535,1539,1539,1539,1539,1539,1543,1543,1547,1551,1555,1555,1558,1555,1555,1551,1551,1547,1547,1543,1543,1543,1543,1543,1543,1543,1547,1547,1547,1547,1547,1547,1547,1547,1547,1551,1551,1555,1555,1558,1562,1562,1566,1566,1566,1566,1566,1566,0,0,0,0,0,0,0,0,0,0,0,0,0,812,811,811,810,809,808,809,810,810,811,813,814,813,811,810,808,807,804,802,801,801,801,802,803,804,808,811,814,817,824,826,828,1590,1595,1595,1599,1599,1603,1603,1603,1603,1603,1603,1603,1603,1599,1599,1603,1603,1603,1603,1603,1603,1603,1607,1607,1607,1607,1607,1607,1607,1607,1607,1611,1611,1611,1615,1619,1615,1619,1619,1624,1619,1615,1611,1611,1603,1599,1590,1586,1582,1574,1570,1566,1562,1555,1555,1551,1551,1551,1551,1555,1555,1555,1555,1551,1551,1551,1547,1547,1543,1543,1543,1543,1535,1532,1532,1528,1524,1520,1520,1517,1513,1513,1513,1509,1505,1505,1505,1505,1505,1502,1502,1502,1502,1498,1498,1498,1495,1495,1495,1495,1491,1495,1495,1495,1498,1498,1495,1495,1487,1484,1480,1473,1470,1463,1459,1456,1453,1446,1446,1442,1439,1436,1432,1429,1426,1423,1423,1419,1423,1419,1416,1419,1419,1419,1419,1419,1419,1423,1419,1419,1416,1416,1410,1406,1403,1397,1394,1391,1388,1385,1385,1385,1385,1385,1385,1385,1385,1381,1381,1378,1378,1375,1372,1372,1369,1366,1366,1363,1363,1360,1357,1354,1354,1354,1351,1348,1345,1343,1334,1331,1325,1320,1314,1311,1309
1442,1446,1449,1453,1456,1459,1466,1473,1477,1480,1487,1491,1495,1495,1498,1502,1505,1505,1505,1505,1505,1505,1505,1505,1505,1509,1509,1513,1513,1513,1513,1517,1517,1517,1517,1517,1517,1520,1524,1524,1528,1532,1532,1535,1539,1539,1539,1539,1539,1543,1543,1551,1555,1558,1558,1558,1558,1555,1555,1551,1547,1547,1547,1547,1543,1543,1547,1551,1551,1551,1551,1551,1551,1551,1551,1551,1551,1555,1555,1555,1558,1562,1566,1566,1570,1570,1570,1570,0,0,0,0,0,0,0,0,0,0,0,0,0,0,0,816,813,812,811,811,808,808,809,810,810,811,812,812,810,808,808,807,804,803,802,802,802,803,803,804,808,811,814,818,824,827,829,1595,1599,1599,1603,1603,1607,1607,1607,1607,1603,1603,1603,1603,1603,1603,1603,1603,1603,1603,1603,1603,1607,1607,1607,1607,1607,1607,1603,1603,1603,1603,1603,1607,1607,1611,1611,1611,1611,1619,1619,1619,1619,1615,1611,1603,1599,1590,1586,1582,1574,1570,1566,1562,1558,1555,1555,1551,1551,1555,1555,1558,1558,1558,1555,1555,1551,1551,1551,1547,1547,1547,1543,1539,1535,1532,1528,1524,1524,1524,1520,1520,1517,1517,1513,1509,1509,1505,1505,1505,1505,1502,1502,1502,1502,1498,1498,1495,1495,1495,1491,1491,1495,1495,1495,1498,1498,1495,1491,1487,1484,1480,1473,1470,1463,1459,1459,1456,1449,1446,1446,1442,1436,1436,1432,1429,1426,1423,1423,1423,1423,1419,1419,1423,1423,1423,1419,1423,1423,1423,1419,1419,1416,1413,1410,1406,1397,1394,1391,1388,1388,1385,1385,1385,1385,1385,1385,1385,1381,1381,1378,1378,1375,1375,1372,1372,1369,1366,1366,1363,1363,1357,1357,1357,1357,1351,1348,1345,1343,1334,1328,1325,1320,1314,1311,1309
1446,1449,1453,1456,1459,1463,1466,1477,1480,1484,1487,1491,1495,1495,1498,1502,1502,1505,1505,1505,1505,1509,1505,1505,1509,1509,1513,1513,1513,1513,1517,1517,1517,1517,1520,1520,1517,1520,1524,1524,1524,1528,1528,1535,1535,1535,1535,1535,1539,1543,1547,1555,1558,1562,1566,1566,1562,1558,1558,1555,1555,1551,1551,1551,1551,1551,1551,1551,1551,1551,1551,1551,1551,1551,1551,1551,1551,1555,1555,1558,1558,1562,1566,1570,1570,1570,1570,1570,0,0,0,0,0,0,0,0,0,0,0,0,0,0,0,818,815,814,814,812,808,809,809,809,809,809,810,809,808,807,807,807,804,803,803,803,804,804,804,806,809,812,815,818,825,827,829,1599,1599,1603,1607,1607,1611,1611,1611,1611,1607,1607,1607,1603,1603,1603,1603,1603,1603,1603,1607,1607,1607,1607,1607,1607,1607,1607,1603,1603,1603,1603,1603,1603,1603,1607,1607,1611,1611,1615,1619,1619,1619,1615,1611,1603,1599,1595,1590,1582,1578,1574,1570,1566,1562,1558,1558,1555,1555,1555,1558,1558,1562,1558,1558,1558,1555,1555,1555,1551,1551,1551,1547,1539,1535,1535,1532,1524,1524,1524,1524,1520,1517,1517,1513,1513,1509,1509,1505,1505,1505,1502,1502,1502,1502,1502,1498,1495,1495,1495,1495,1495,1495,1495,1495,1498,1498,1495,1491,1484,1484,1480,1477,1473,1466,1463,1459,1459,1453,1449,1449,1446,1439,1439,1436,1432,1429,1426,1426,1426,1426,1423,1423,1426,1423,1426,1423,1423,1423,1423,1423,1423,1416,1413,1410,1406,1397,1397,1394,1391,1388,1388,1388,1388,1388,1385,1385,1385,1381,1381,1381,1378,1375,1372,1372,1372,1369,1369,1366,1363,1366,1363,1360,1360,1357,1354,1348,1345,1343,1334,1328,1325,1320,1314,1311,1309
1446,1449,1453,1459,1463,1466,1466,1477,1480,1484,1491,1495,1495,1495,1502,1502,1505,1505,1505,1505,1505,1509,1509,1509,1509,1513,1513,1517,1517,1517,1517,1517,1517,1517,1517,1517,1517,1520,1520,1524,1524,1524,1528,1535,1535,1535,1535,1539,1539,1543,1547,1555,1558,1562,1566,1566,1566,1562,1562,1558,1558,1555,1555,1555,1555,1551,1555,1555,1555,1551,1551,1555,1555,1555,1555,1555,1555,1558,1558,1558,1558,1562,1566,1570,1570,1574,1574,1574,1574,1574,0,0,0,0,0,0,0,0,0,0,0,0,0,820,817,816,815,814,810,809,809,808,808,807,808,807,804,803,803,803,802,802,803,803,804,806,804,806,809,812,815,819,826,828,830,1607,1607,1611,1615,1615,1619,1615,1615,1611,1611,1611,1611,1607,1607,1611,1607,1611,1607,1607,1607,1607,1607,1607,1607,1607,1607,1603,1603,1603,1599,1599,1603,1599,1599,1603,1607,1607,1611,1615,1619,1619,1615,1615,1615,1607,1599,1595,1590,1586,1578,1574,1574,1570,1562,1562,1558,1558,1558,1558,1558,1558,1562,1562,1558,1562,1558,1558,1558,1555,1555,1551,1547,1539,1539,1535,1532,1524,1524,1524,1524,1520,1517,1517,1517,1509,1509,1505,1505,1505,1505,1502,1502,1502,1502,1502,1498,1495,1495,1495,1495,1495,1495,1495,1495,1498,1498,1495,1491,1484,1480,1480,1477,1473,1470,1466,1463,1466,1459,1456,1453,1453,1446,1446,1442,1439,1436,1436,1432,1432,1429,1429,1429,1429,1426,1429,1426,1426,1426,1426,1426,1423,1419,1413,1410,1406,1400,1397,1394,1391,1388,1388,1388,1388,1388,1388,1385,1385,1381,1381,1378,1375,1375,1372,1372,1372,1372,1369,1366,1366,1366,1363,1363,1363,1360,1357,1351,1345,1343,1334,1328,1325,1320,1314,1311,1311
1449,1449,1453,1459,1463,1470,1473,1477,1477,1484,1487,1491,1495,1495,1502,1502,1505,1505,1505,1505,1509,1509,1509,1509,1509,1513,1517,1517,1517,1517,1517,1517,1517,1517,1517,1517,1517,1517,1520,1520,1524,1524,1528,1532,1532,1535,1535,1539,1543,1547,1551,1555,1558,1562,1570,1570,1570,1566,1566,1562,1562,1558,1558,1558,1555,1555,1555,1555,1555,1555,1555,1555,1555,1555,1555,1555,1555,1558,1558,1558,1562,1566,1566,1570,1570,1574,1574,1574,1578,1578,1574,0,0,0,0,0,0,0,0,0,0,0,0,0,822,820,818,817,811,810,809,808,806,806,806,806,802,801,801,802,801,802,803,804,806,807,807,808,811,813,816,820,826,828,831,1611,1611,1615,1615,1615,1619,1615,1615,1611,1611,1611,1611,1611,1611,1611,1611,1611,1611,1607,1607,1607,1607,1607,1607,1607,1603,1603,1603,1603,1603,1603,1603,1603,1603,1603,1607,1607,1611,1615,1619,1619,1619,1615,1615,1607,1603,1595,1590,1586,1582,1578,1574,1574,1566,1566,1562,1562,1562,1562,1562,1562,1562,1562,1562,1562,1558,1558,1558,1558,1555,1555,1551,1543,1539,1535,1532,1524,1524,1520,1520,1520,1517,1517,1513,1509,1505,1505,1505,1505,1502,1502,1498,1498,1502,1502,1498,1498,1495,1495,1495,1498,1498,1498,1498,1498,1498,1495,1491,1484,1480,1477,1477,1477,1470,1470,1466,1466,1463,1459,1456,1453,1449,1449,1446,1442,1439,1436,1436,1436,1432,1432,1429,1429,1429,1429,1429,1429,1426,1426,1426,1426,1419,1416,1410,1406,1400,1397,1397,1391,1388,1388,1388,1388,1388,1385,1385,1385,1381,1378,1378,1375,1375,1372,1372,1372,1372,1369,1369,1366,1366,1366,1363,1363,1363,1357,1354,1348,1343,1334,1331,1325,1320,1317,1314,1311
1449,1449,1456,1463,1466,1470,1470,1477,1477,1480,1487,1491,1495,1495,1502,1502,1502,1505,1505,1505,1509,1513,1509,1509,1513,1517,1517,1517,1513,1517,1517,1513,1517,1517,1517,1517,1517,1517,1520,1520,1524,1524,1528,1532,1532,1532,1535,1539,1543,1547,1551,1558,1562,1566,1570,1574,1574,1570,1570,1566,1566,1566,1566,1566,1566,1562,1562,1562,1562,1558,1558,1558,1558,1558,1558,1558,1558,1558,1562,1562,1562,1562,1566,1570,1574,1578,1578,1578,1582,1582,0,0,0,0,0,0,0,0,0,0,0,0,0,0,824,822,819,817,812,810,809,807,806,804,804,804,802,801,801,801,801,802,803,804,807,807,808,809,812,814,816,820,826,828,831,1615,1619,1619,1624,1624,1619,1615,1615,1611,1611,1611,1611,1611,1611,1615,1611,1615,1611,1611,1611,1611,1607,1607,1607,1603,1603,1603,1599,1599,1595,1595,1595,1595,1595,1599,1599,1603,1607,1611,1615,1619,1615,1615,1615,1607,1599,1599,1595,1590,1582,1578,1582,1578,1574,1574,1570,1570,1570,1570,1570,1570,1570,1570,1570,1566,1566,1562,1562,1562,1562,1558,1555,1547,1543,1535,1532,1528,1520,1520,1517,1517,1517,1513,1513,1509,1505,1505,1505,1502,1502,1498,1498,1498,1498,1502,1498,1498,1498,1498,1498,1498,1498,1498,1498,1498,1498,1495,1491,1487,1480,1477,1477,1473,1470,1470,1470,1470,1466,1463,1459,1456,1453,1453,1449,1446,1442,1439,1439,1439,1436,1436,1432,1432,1429,1432,1429,1429,1429,1429,1426,1426,1419,1416,1410,1406,1400,1400,1397,1394,1391,1391,1388,1388,1388,1385,1385,1385,1378,1378,1375,1375,1372,1372,1372,1372,1372,1369,1369,1369,1366,1366,1366,1363,1363,1357,1354,1351,1345,1337,1334,1328,1323,1320,1317,1314
1449,1453,1456,1463,1466,1466,1470,1477,1477,1480,1487,1487,1491,1495,1495,1502,1502,1502,1505,1509,1509,1513,1509,1513,1513,1513,1513,1513,1513,1513,1513,1513,1513,1513,1513,1513,1517,1517,1520,1520,1524,1524,1528,1532,1532,1535,1539,1543,1547,1551,1555,1558,1562,1566,1574,1578,1574,1574,1574,1574,1574,1570,1570,1570,1570,1566,1566,1566,1562,1562,1562,1562,1562,1562,1558,1558,1558,1562,1562,1562,1562,1562,1566,1570,1574,1582,1582,1582,1586,0,0,0,0,0,0,0,0,0,0,0,0,0,0,0,824,822,819,818,813,811,809,807,804,804,804,803,802,801,801,801,802,803,803,806,807,808,808,809,812,814,817,820,826,829,831,837,1619,1619,1624,1619,1619,1615,1615,1611,1611,1607,1607,1607,1611,1615,1615,1615,1611,0,1611,1611,1607,1607,1607,1603,1603,1603,1603,1599,1599,1599,1599,1599,1599,1599,1599,1603,1603,1611,1615,1615,1615,1615,1615,1611,1603,1599,1595,1590,1586,1582,1582,1578,1578,1578,1574,1574,1574,1574,1574,1574,1574,1574,1570,1566,1566,1566,1566,1562,1566,1562,1558,1551,1543,1539,1535,1528,1524,1520,1517,1517,1513,1513,1513,1509,1505,1505,1502,1502,1498,1498,1498,1498,1498,1498,1498,1498,1498,1498,1498,1498,1502,1502,1502,1498,1498,1495,1491,1487,1480,1477,1477,1473,1470,1470,1470,1470,1466,1466,1463,1459,1456,1453,1453,1449,1446,1442,1439,1439,1436,1436,1432,1432,1432,1432,1432,1432,1429,1429,1429,1426,1423,1416,1413,1410,1403,1400,1397,1397,1394,1394,1391,1391,1388,1385,1385,1385,1381,1378,1375,1372,1372,1372,1372,1372,1372,1369,1369,1369,1369,1369,1366,1366,1366,1363,1357,1354,1348,1340,1334,1331,1325,1320,1317,1314
1453,1456,1459,1463,1466,1466,1470,1477,1477,1484,1487,1491,1491,1495,1498,1502,1502,1505,1509,1513,1513,1513,1513,1513,1513,1513,1509,1509,1509,1509,1513,1509,1509,1509,1513,1513,1517,1517,1517,1520,1524,1524,1524,1528,1532,1535,1539,1543,1547,1551,1555,1558,1562,1566,1578,1578,1578,1578,1578,1578,1574,1574,1570,1570,1570,1570,1566,1566,1566,1562,1562,1562,1562,1562,1562,1562,1562,1562,1558,1558,1562,1562,1566,1570,1574,1582,1582,1586,1590,0,0,0,0,0,0,0,0,0,0,0,0,0,829,0,824,823,819,819,813,811,809,808,804,804,803,803,802,801,801,802,802,803,804,806,808,809,809,810,814,816,818,822,826,829,830,1624,1624,1624,1624,1624,1619,1615,1611,1611,1611,1607,1607,1607,1607,1615,1615,1619,1615,0,0,0,0,0,0,0,0,0,0,0,0,0,0,0,0,0,0,0,0,0,0,0,0,0,0,0,0,1599,1595,1590,1586,1586,1582,1582,1582,1578,1578,1578,1574,1574,1574,1574,1574,1570,1570,1570,1566,1566,1566,1566,1570,1566,1562,1555,1551,1543,1539,1532,1524,1520,1517,1517,1513,1513,1509,1509,1505,1505,1502,1502,1498,1498,1498,1498,1498,1498,1498,1498,1498,1498,1502,1502,1502,1502,1502,1498,1498,1491,1491,1484,1477,1477,1477,1473,1470,1473,1473,1470,1470,1470,1466,1466,1459,1456,1456,1456,1449,1446,1442,1442,1439,1439,1436,1432,1432,1436,1436,1432,1429,1429,1429,1429,1423,1419,1416,1413,1406,1403,1400,1397,1394,1394,1394,1391,1388,1385,1385,1385,1381,1378,1375,1372,1372,1372,1372,1372,1372,1369,1369,1369,1369,1369,1369,1366,1366,1363,1360,1354,1348,1340,1334,1331,1325,1320,1317,1314
1456,1459,1459,1463,1466,1470,1473,1477,1480,1484,1487,1491,1495,1498,1502,1502,1505,1509,1513,1513,1513,1517,1513,1513,1513,1513,1509,1509,1509,1509,1509,1505,1509,1509,1509,1513,1513,1517,1517,1520,1524,1524,1528,1528,1535,1539,1539,1543,1547,1551,1555,1562,1566,1570,1578,1578,1578,1578,1578,1582,1578,1578,1574,1574,1574,1570,1570,1570,1566,1566,1566,1566,1566,1566,1566,1566,1562,1562,1558,1558,1562,1562,1566,1570,1574,1586,1586,1590,1599,1603,0,0,0,0,0,0,0,0,0,0,0,0,0,828,825,824,820,819,814,812,810,809,807,806,804,804,802,802,802,802,803,804,806,807,809,810,810,812,814,816,818,822,826,828,829,1619,1624,1619,1619,1619,1619,1611,1611,1607,1607,1603,1603,1603,1607,1615,1615,1619,0,0,0,0,0,0,0,0,0,0,0,0,0,0,0,0,0,0,0,0,0,0,0,0,0,826,827,0,0,0,0,0,1590,1586,1586,1586,1582,1582,1582,1582,1578,1578,1578,1578,1574,1574,1574,1570,1570,1570,1570,1570,1570,1570,1566,1558,1551,1547,1539,1535,1524,1524,1520,1517,1513,1513,1509,1509,1505,1505,1505,1505,1502,1502,1502,1502,1502,1502,1502,1502,1502,1505,1505,1505,1505,1505,1502,1498,1498,1491,1491,1484,1477,1477,1473,1473,1470,1470,1470,1473,1470,1466,1466,1466,1463,1459,1456,1456,1449,1446,1446,1442,1439,1436,1436,1436,1432,1436,1436,1436,1432,1429,1429,1429,1423,1419,1416,1413,1406,1403,1403,1400,1397,1397,1394,1394,1388,1388,1385,1385,1381,1378,1375,1372,1372,1372,1372,1369,1369,1369,1369,1369,1369,1369,1369,1369,1369,1363,1360,1354,1348,1340,1334,1331,1328,1320,1317,1314
1456,1459,1463,1466,1466,1470,1473,1477,1484,1484,1491,1495,1498,1502,1502,1505,1509,1509,1513,1513,1517,1517,1517,1517,1517,1513,1509,1509,1509,1509,1509,1505,1505,1509,1509,1513,1517,1517,1520,1520,1524,1524,1528,1532,1535,1539,1539,1543,1551,1555,1558,1562,1566,1570,1578,1582,1582,1578,1582,1582,1582,1582,1578,1578,1578,1574,1574,1574,1570,1570,1570,1570,1570,1570,1570,1570,1566,1566,1566,1566,1566,1570,1574,1578,1582,1595,1595,1599,1603,1607,0,0,0,0,0,0,0,0,0,0,0,0,0,0,826,824,822,820,816,813,811,810,808,807,806,804,803,803,802,802,803,804,806,807,808,810,810,812,814,816,818,822,826,828,830,1619,1619,1619,1619,1615,1615,1611,1607,1607,1603,1599,1603,1603,1603,0,0,0,0,0,0,0,0,0,0,0,0,0,0,0,0,0,0,0,0,0,0,0,0,0,825,826,826,826,826,826,826,824,822,822,822,820,818,1590,1590,1590,1590,1590,1590,1590,1586,1586,1582,1582,1582,1578,1578,1578,1578,1578,1574,1574,1570,1562,1558,1551,1543,1539,1528,1524,1524,1520,1517,1513,1513,1509,1509,1509,1509,1505,1505,1505,1502,1502,1502,1502,1502,1502,1502,1505,1505,1509,1509,1505,1505,1498,1495,1491,1491,1484,1477,1480,1480,1477,1473,1470,1470,1470,1470,1466,1466,1466,1463,1463,1459,1456,1453,1449,1446,1442,1439,1436,1436,1432,1436,1436,1436,1436,1432,1432,1429,1429,1423,1419,1416,1413,1410,1406,1403,1400,1400,1397,1397,1394,1391,1388,1385,1385,1381,1378,1378,1375,1375,1372,1372,1372,1372,1369,1369,1369,1369,1369,1369,1369,1369,1363,1360,1354,1351,1340,1337,1331,1328,1323,1320,1317
1459,1463,1463,1466,1470,1470,1477,1480,1484,1487,1495,1495,1502,1502,1505,1509,1509,1509,1517,1517,1517,1517,1520,1520,1517,1517,1517,1513,1509,1509,1509,1505,1505,1513,1513,1517,1517,1520,1524,1524,1528,1532,1532,1535,1539,1543,1547,1551,1555,1558,1562,1566,1570,1574,1582,1582,1582,1582,1586,1586,1586,1586,1582,1582,1582,1578,1578,1578,1578,1574,1574,1574,1574,1574,1574,1574,1574,1570,1570,1574,1574,1574,1578,1582,1586,1595,1599,1603,1607,1607,0,0,0,0,0,0,0,0,0,0,0,0,0,0,826,824,823,820,816,814,813,811,808,807,806,806,803,803,803,803,803,804,806,807,808,810,810,811,814,816,818,822,827,829,830,1611,1611,1611,1611,1611,1607,1599,1599,1599,1595,1595,1590,1599,0,0,0,0,0,0,0,0,0,0,0,0,0,0,0,0,0,0,0,0,0,0,0,0,0,0,825,826,825,825,825,825,824,822,819,819,819,818,817,817,1590,1595,1595,1595,1595,1595,1590,1586,1586,1582,1582,1582,1578,1578,1582,1582,1578,1574,1574,1566,1558,1551,1547,1539,1528,1524,1524,1520,1517,1517,1513,1513,1509,1509,1509,1509,1509,1505,1505,1505,1505,1505,1505,1505,1505,1505,1509,1509,1509,1509,1505,1498,1495,1491,1487,1484,1480,1480,1477,1477,1473,1473,1473,1473,1470,1470,1466,1466,1466,1463,1463,1459,1453,1449,1446,1442,1439,1436,1436,1436,1436,1439,1436,1436,1436,1432,1432,1432,1426,1419,1419,1416,1413,1410,1406,1403,1400,1400,1400,1397,1394,1391,1391,1385,1385,1381,1381,1378,1378,1378,1375,1375,1375,1372,1372,1372,1369,1369,1372,1372,1369,1366,1360,1357,1351,1340,1337,1331,1328,1320,1317,1317
1466,1466,1470,1473,1477,1477,1480,1484,1487,1491,1498,1502,1505,1505,1509,1509,1513,1517,1517,1520,1520,1520,1524,1524,1520,1517,1517,1517,1513,1509,1509,1509,1509,1513,1513,1517,1520,1524,1528,1528,1532,1532,1535,1539,1543,1547,1547,1551,1555,1558,1562,1570,1574,1574,1582,1582,1582,1586,1586,1586,1586,1586,1582,1582,1582,1582,1582,1582,1582,1582,1582,1582,1582,1578,1578,1578,1574,1574,1574,1578,1578,1582,1582,1586,1590,1599,1603,1603,1607,1607,0,0,0,0,0,0,0,0,0,0,0,0,0,0,826,825,823,823,818,816,815,812,810,809,808,807,804,804,803,803,804,806,806,807,808,809,811,811,814,815,818,823,829,830,834,1607,1607,1607,1607,1607,1607,1599,1595,1595,1590,1586,1586,0,0,0,0,0,0,0,0,0,0,0,0,0,0,0,0,0,0,0,0,0,0,0,0,0,816,814,815,816,815,815,815,818,817,815,814,813,814,814,814,814,815,1595,1595,1595,1595,1595,1595,1590,1586,1586,1586,1582,1582,1582,1582,1582,1582,1578,1574,1566,1558,1555,1547,1543,1532,1528,1524,1524,1517,1517,1513,1513,1513,1509,1509,1509,1509,1509,1509,1509,1505,1505,1505,1505,1505,1509,1509,1509,1509,1509,1505,1498,1495,1491,1487,1484,1480,1480,1480,1480,1473,1473,1473,1473,1470,1470,1470,1470,1470,1470,1466,1463,1456,1453,1449,1446,1439,1436,1436,1436,1436,1439,1439,1439,1436,1436,1436,1432,1426,1423,1419,1419,1413,1410,1406,1406,1403,1400,1400,1400,1397,1394,1391,1391,1388,1385,1385,1381,1381,1378,1378,1375,1375,1372,1372,1372,1369,1369,1372,1372,1369,1366,1360,1357,1351,1340,1334,1331,1325,1320,1317,1314
1470,1470,1473,1477,1480,1480,1484,1491,1491,1495,1502,1502,1505,1509,1509,1513,1517,1517,1520,1520,1520,1524,1524,1524,1520,1520,1517,1517,1513,1513,1513,1509,1513,1513,1517,1520,1524,1524,1528,1528,1535,1535,1539,1543,1547,1547,1551,1555,1558,1562,1566,1574,1578,1578,1586,1586,1586,1586,1586,1586,1586,1586,1586,1582,1586,1586,1586,1586,1586,1582,1582,1582,1582,1582,1582,1582,1582,1582,1582,1582,1582,1586,1586,1590,1595,1603,1603,1603,1607,1607,0,0,0,0,0,0,0,0,0,0,0,0,0,0,827,827,825,825,822,819,818,817,813,812,810,809,807,806,804,804,804,806,806,807,807,809,811,811,813,816,819,824,831,834,835,1603,1603,1607,1607,1607,1603,1595,1590,1590,1586,1582,0,0,0,0,0,0,0,0,0,0,0,0,0,0,0,0,0,0,0,0,0,0,0,0,0,820,817,814,813,811,811,810,810,810,811,811,811,811,812,812,814,813,814,815,1599,1595,1599,1599,1595,1590,1590,1586,1586,1586,1586,1586,1586,1586,1586,1582,1578,1570,1562,1555,1551,1543,1532,1535,1532,1528,1524,1520,1520,1520,1517,1517,1517,1517,1517,1517,1517,1513,1513,1513,1513,1509,1509,1509,1509,1513,1513,1509,1505,1505,1498,1495,1491,1484,1480,1480,1480,1480,1473,1473,1473,1473,1470,1470,1470,1473,1470,1470,1470,1466,1456,1453,1449,1446,1439,1439,1436,1436,1436,1439,1439,1439,1439,1436,1436,1436,1429,1426,1423,1419,1413,1413,1410,1406,1403,1403,1403,1400,1397,1397,1394,1391,1388,1388,1385,1385,1385,1381,1378,1378,1375,1375,1375,1372,1372,1369,1372,1372,1369,1366,1360,1357,1351,1340,1334,1331,1325,1320,1320,1317
1473,1473,1477,1480,1480,1484,1484,1491,1495,1495,1502,1502,1505,1509,1509,1513,1517,1517,1520,1520,1520,1524,1524,1524,1524,1524,1520,1520,1517,1513,1513,1513,1513,1517,1517,1520,1524,1528,1532,1532,1535,1539,1539,1543,1547,1551,1551,1558,1562,1566,1570,1582,1582,1586,1590,1590,1590,1590,1590,1590,1590,1590,1590,1590,1590,1586,1586,1586,1586,1590,1590,1590,1590,1590,1586,1590,1590,1590,1590,1590,1590,1595,1595,1595,1599,1603,1603,1603,1607,1603,1607,0,0,0,0,0,0,0,0,0,0,0,0,0,829,828,827,826,824,822,820,819,815,813,811,810,807,806,804,804,804,806,806,807,808,810,810,811,814,817,820,827,833,836,838,1603,1603,1603,1603,1603,1599,1595,1590,1586,1582,1578,1578,0,0,0,0,0,0,0,0,0,0,0,0,0,0,845,845,845,0,0,0,0,838,827,820,815,810,806,802,799,797,798,798,799,799,799,800,803,806,808,811,813,813,815,1599,1599,1599,1599,1599,1595,1590,1590,1590,1590,1590,1590,1590,1590,1586,1582,1578,1570,1562,1558,1551,1547,1539,1535,1532,1532,1528,1524,1524,1524,1520,1520,1520,1520,1520,1520,1517,1517,1517,1517,1513,1513,1509,1509,1513,1513,1513,1509,1509,1505,1498,1495,1491,1487,1484,1484,1480,1480,1477,1473,1473,1473,1470,1470,1473,1473,1470,1470,1470,1466,1459,1453,1453,1449,1442,1439,1439,1436,1439,1442,1439,1439,1439,1439,1436,1436,1429,1426,1423,1419,1416,1413,1410,1406,1403,1403,1403,1403,1400,1397,1397,1394,1391,1391,1388,1385,1385,1381,1381,1381,1378,1375,1375,1375,1372,1372,1372,1372,1369,1366,1363,1357,1354,1343,1337,1331,1328,1323,1320,1317
1473,1477,1477,1480,1484,1487,1487,1495,1495,1498,1502,1502,1505,1509,1509,1513,1517,1517,1520,1520,1524,1528,1528,1528,1528,1524,1524,1520,1517,1517,1517,1517,1517,1517,1520,1524,1524,1528,1532,1535,1539,1543,1543,1547,1551,1551,1555,1562,1566,1570,1574,1586,1586,1590,1595,1595,1595,1595,1595,1590,1590,1590,1590,1590,1590,1590,1590,1590,1590,1590,1590,1590,1590,1590,1590,1595,1595,1595,1595,1595,1595,1599,1595,1599,1599,1603,1603,1599,1603,1603,1599,1599,0,0,0,0,0,0,0,0,0,0,0,0,830,829,829,828,825,824,822,820,816,814,812,811,808,807,804,804,804,806,806,808,808,810,811,811,814,817,823,828,836,838,842,1599,1595,1599,1599,1599,1599,1590,1586,1582,1582,1574,0,0,0,0,0,0,0,0,0,0,0,0,0,844,0,0,845,845,845,0,842,839,838,826,819,0,808,801,796,795,793,793,793,794,795,795,797,801,804,807,811,812,813,815,1603,1599,1599,1599,1599,1590,1590,1590,1590,1590,1595,1595,1595,1590,1590,1582,1578,1566,1562,1555,1551,1547,1539,1535,1532,1532,1528,1528,1528,1524,1524,1520,1520,1520,1520,1520,1520,1520,1517,1517,1517,1513,1513,1513,1513,1517,1513,1513,1509,1505,1502,1498,1491,1491,1484,1487,1484,1480,1480,1477,1477,1477,1473,1473,1473,1473,1473,1473,1470,1466,1459,1456,1453,1453,1442,1442,1439,1439,1439,1442,1439,1439,1439,1439,1439,1436,1429,1426,1426,1423,1416,1413,1410,1410,1406,1406,1406,1403,1403,1400,1400,1400,1397,1394,1391,1391,1391,1388,1385,1381,1381,1375,1375,1375,1372,1372,1372,1372,1372,1369,1363,1357,1354,1343,1337,1334,1331,1325,1323,1320
1480,1480,1480,1484,1487,1487,1491,1495,1495,1498,1502,1502,1505,1505,1509,1509,1513,1517,1520,1520,1520,1528,1528,1528,1528,1528,1524,1524,1520,1520,1517,1517,1517,1517,1520,1520,1528,1532,1532,1535,1543,1543,1543,1547,1551,1551,1555,1562,1570,1570,1578,1590,1590,1595,1599,1595,1599,1595,1595,1595,1595,1595,1590,1590,1590,1590,1590,1590,1590,1590,1590,1595,1595,1595,1595,1595,1595,1599,1599,1599,1599,1599,1599,1599,1603,1603,1595,1595,1595,1590,1586,1582,0,0,0,0,0,0,0,0,0,0,0,0,831,831,830,829,827,825,824,823,817,815,813,811,808,807,806,804,807,808,809,809,810,811,813,813,816,820,827,838,842,844,847,1595,1599,1599,1599,1599,1599,1590,1586,1582,1578,1574,0,0,0,0,0,0,0,0,0,0,0,0,0,843,0,0,844,844,844,844,842,839,836,825,817,811,801,797,792,790,788,787,788,790,791,792,795,798,801,804,810,811,812,813,1603,1599,1599,1599,1595,1590,1590,1590,1590,1590,1595,1595,1595,1590,1590,1582,1578,1566,1562,1555,1551,1547,1539,1535,1535,1532,1532,1528,1528,1528,1524,1524,1524,1524,1524,1524,1524,1524,1520,1517,1517,1517,1517,1517,1517,1517,1517,1513,1513,1509,1502,1498,1495,1491,1487,1487,1487,1487,1480,1480,1480,1480,1477,1477,1477,1477,1477,1473,1473,1470,1463,1459,1459,1453,1446,1446,1442,1439,1439,1442,1442,1442,1439,1439,1439,1439,1432,1429,1426,1423,1416,1413,1410,1410,1406,1406,1406,1406,1403,1403,1403,1400,1397,1397,1394,1394,1391,1388,1388,1385,1381,1378,1375,1375,1375,1372,1375,1372,1372,1369,1363,1360,1354,1345,1340,1337,1334,1328,1325,1323
1480,1480,1484,1487,1487,1491,1491,1495,1498,1498,1502,1502,1502,1505,1509,1509,1513,1513,1520,1520,1524,1528,1528,1528,1528,1528,1528,1524,1520,1520,1520,1520,1517,1517,1520,1524,1528,1532,1535,1535,1543,1543,1543,1547,1551,1555,1555,1566,1570,1574,1578,1590,1595,1595,1599,1599,1599,1599,1595,1595,1595,1595,1595,1595,1590,1590,1590,1590,1590,1590,1595,1595,1595,1595,1595,1599,1599,1599,1603,1603,1599,1599,1603,1603,1599,1599,1590,1590,1586,1586,1582,1582,0,0,0,0,0,0,0,0,0,0,0,0,835,835,834,833,830,828,826,824,818,815,814,812,810,809,808,808,808,809,810,810,810,813,815,815,817,824,829,840,843,845,849,1595,1595,1595,1599,1599,1595,1586,1582,1582,1578,1574,0,0,0,0,0,0,0,0,0,0,0,0,0,842,0,844,843,843,843,843,840,838,835,824,815,808,798,792,788,784,783,783,784,784,787,790,791,796,798,800,806,809,811,813,1599,1595,1595,1599,1595,1595,1590,1590,1590,1590,1590,1590,1590,1590,1586,1586,1578,1566,1562,1555,1551,1547,1543,1539,1535,1535,1535,1532,1532,1532,1528,1528,1528,1524,1524,1524,1524,1524,1524,1520,1520,1520,1520,1520,1520,1520,1517,1517,1517,1513,1505,1502,1498,1495,1491,1491,1487,1487,1484,1484,1484,1484,1480,1480,1480,1480,1477,1477,1473,1470,1466,1463,1459,1456,1449,1446,1446,1442,1442,1442,1442,1442,1442,1439,1439,1439,1432,1429,1426,1423,1416,1413,1413,1410,1406,1406,1406,1406,1403,1403,1403,1403,1400,1397,1397,1397,1394,1388,1388,1385,1381,1378,1375,1375,1375,1375,1375,1372,1372,1369,1366,1360,1357,1345,1343,1337,1334,1328,1328,1325
1480,1484,1484,1487,1487,1491,1491,1495,1498,1498,1502,1502,1502,1505,1505,1509,1509,1513,1517,1517,1520,1528,1528,1528,1528,1528,1528,1528,1520,1520,1520,1520,1517,1517,1517,1520,1528,1528,1532,1535,1539,1543,1543,1547,1551,1555,1555,1566,1570,1574,1582,1595,1595,1599,1603,1603,1603,1603,1599,1599,1599,1595,1595,1595,1595,1595,1595,1590,1590,1595,1595,1595,1599,1599,1599,1599,1599,1603,1603,1603,1603,1603,1603,1599,1599,1599,1590,1586,1586,1578,1578,1574,0,0,0,0,0,0,0,0,0,0,0,0,838,838,837,836,831,829,827,825,819,816,815,813,812,810,809,809,810,810,811,812,813,815,816,817,820,826,831,842,844,846,847,1595,1595,1599,1599,1599,1595,1590,1582,1578,1578,0,0,0,0,0,0,0,0,0,0,0,0,838,839,840,840,842,842,842,842,842,839,837,834,823,812,802,792,785,781,777,776,777,778,779,783,785,788,793,797,800,804,809,811,813,0,0,1595,1595,1595,1595,1595,1595,1595,1595,1595,1595,1590,1590,1586,1582,1578,1570,1566,1558,1555,1551,1543,1539,1539,1539,1535,1535,1532,1532,1528,1528,1528,1528,1524,1524,1524,1524,1524,1520,1524,1520,1520,1520,1520,1520,1520,1517,1517,1513,1505,1502,1498,1495,1491,1491,1487,1484,1484,1484,1484,1480,1480,1480,1480,1477,1477,1477,1473,1470,1466,1463,1459,1459,1453,1449,1449,1446,1442,1446,1446,1442,1442,1442,1439,1439,1432,1432,1429,1423,1416,1416,1413,1410,1406,1406,1406,1406,1406,1406,1403,1403,1400,1400,1397,1397,1394,1391,1388,1388,1385,1378,1375,1375,1375,1375,1375,1375,1375,1372,1366,1363,1360,1351,1345,1343,1340,1337,1334,1331
1480,1480,1480,1487,1487,1491,1491,1495,1498,1498,1502,1502,1502,1505,1505,1509,1509,1513,1517,1517,1520,1528,1528,1528,1528,1528,1528,1528,1520,1520,1520,1517,1517,1517,1517,1520,1528,1528,1528,1532,1539,1539,1543,1547,1551,1555,1558,1566,1570,1574,1582,1590,1595,1599,1603,1603,1603,1603,1603,1599,1599,1595,1595,1595,1595,1595,1595,1590,1590,1590,1590,1595,1595,1599,1595,1599,1603,1603,1603,1603,1603,1603,1599,1603,1599,1595,1586,1586,1582,1578,1574,0,0,0,0,0,0,0,0,0,0,0,0,0,840,840,839,837,834,830,828,826,819,817,816,814,813,812,811,811,811,812,813,814,815,817,818,819,824,829,834,842,844,845,847,849,849,0,0,0,0,0,0,0,0,0,0,0,0,0,0,0,0,0,0,0,0,838,839,838,840,840,842,842,842,842,839,837,834,829,811,800,790,784,779,775,775,776,778,779,783,785,788,794,797,800,806,809,0,0,0,0,0,0,0,1595,1595,1595,1595,1590,1595,1595,1590,1590,1586,1582,1578,1570,1566,1558,1555,1551,1547,1543,1539,1539,1539,1535,1535,1535,1532,1532,1528,1528,1524,1524,1524,1524,1524,1520,1524,1524,1520,1524,1524,1524,1520,1517,1517,1517,1505,1502,1498,1498,1491,1491,1487,1484,1484,1484,1484,1484,1480,1480,1480,1477,1473,1473,1473,1470,1466,1466,1463,1463,1456,1453,1453,1449,1446,1446,1446,1446,1442,1442,1442,1439,1436,1432,1429,1426,1419,1416,1416,1413,1410,1410,1410,1410,1410,1406,1406,1406,1403,1403,1400,1400,1397,1394,1388,1388,1385,1378,1378,1378,1378,1378,1378,1378,1375,1375,1372,1366,1363,1351,1348,1345,1343,1340,1337,1337
1477,1480,1480,1487,1487,1487,1491,1495,1498,1498,1502,1502,1505,1505,1505,1509,1509,1509,1517,1520,1520,1528,1528,1528,1528,1528,1528,1528,1520,1520,1520,1517,1517,1517,1517,1520,1524,1528,1528,1532,1539,1539,1543,1543,1551,1555,1558,1566,1570,1578,1582,1590,1595,1599,1607,1607,1603,1603,1603,1603,1599,1595,1595,1595,1595,1595,1595,1590,1590,1590,1590,1595,1595,1599,1595,1599,1599,1599,1599,1599,1599,1599,1599,1599,1595,1590,1586,1582,1574,1574,1570,0,0,0,0,0,0,0,0,0,0,0,0,858,849,843,840,839,835,833,829,826,820,818,816,815,814,813,814,813,814,815,817,818,823,825,826,829,831,835,838,843,844,845,846,849,849,0,0,0,0,0,0,0,0,0,0,0,0,0,0,0,0,0,0,0,0,838,839,839,840,840,842,842,842,842,839,837,834,828,808,797,788,781,776,774,774,774,776,778,783,785,788,793,797,800,804,809,0,0,0,0,0,0,0,0,1595,1595,1595,1599,1599,1595,1590,1590,1586,1582,1578,1570,1566,1562,1555,1555,1547,1547,1543,1543,1539,1539,1535,1535,1532,1532,1532,1528,1524,1524,1524,1524,1520,1524,1524,1524,1524,1524,1524,1524,1520,1517,1517,1517,1505,1502,1498,1495,1491,1491,1487,1484,1484,1484,1484,1484,1480,1480,1477,1477,1473,1473,1473,1470,1470,1466,1466,1466,1463,1459,1459,1456,1453,1453,1453,1453,1446,1446,1446,1442,1436,1432,1432,1429,1423,1419,1416,1416,1410,1410,1410,1410,1410,1410,1410,1410,1403,1403,1403,1400,1397,1391,1388,1388,1385,1381,1378,1378,1378,1378,1378,1378,1378,1375,1372,1369,1363,1354,1351,1348,1345,1343,1340,1340
1477,1480,1480,1487,1487,1491,1491,1495,1498,1502,1505,1505,1505,1505,1509,1509,1509,1513,1517,1520,1520,1524,1528,1528,1528,1528,1532,1528,1524,1520,1520,1520,1520,1517,1517,1520,1524,1528,1528,1528,1535,1535,1539,1543,1551,1555,1558,1566,1570,1578,1582,1590,1595,1599,1603,1607,1603,1603,1599,1599,1599,1595,1590,1590,1590,1590,1595,1590,1590,1590,1590,1595,1595,1599,1595,1599,1599,1599,1599,1603,1599,1599,1599,1599,1595,1590,0,0,0,0,0,0,0,0,0,0,0,0,0,0,937,0,0,861,850,846,845,842,838,836,831,828,822,819,817,815,815,815,814,814,815,816,818,820,825,828,830,830,834,836,838,842,843,844,845,846,846,0,0,0,0,0,0,0,0,0,0,0,0,0,0,0,0,0,0,0,0,838,839,839,840,840,842,842,840,840,838,836,833,827,817,0,785,780,775,773,774,775,777,778,783,785,788,794,797,799,803,0,0,0,0,0,0,0,0,0,1595,1595,1599,1599,1599,1595,1590,1590,1586,1582,1578,1574,1566,1566,1562,1558,1551,1551,1547,1547,1547,1543,1539,1539,1535,1535,1532,1532,1528,1524,1524,1524,1520,1524,1524,1524,1524,1528,1528,1524,1520,1520,1517,1513,1505,1502,1498,1495,1491,1491,1487,1484,1484,1484,1484,1480,1480,1480,1477,1477,1473,1473,1473,1470,1470,1470,1466,1466,1466,1466,1463,1459,1456,1456,1456,1456,1449,1446,1446,1442,1439,1436,1432,1429,1423,1419,1419,1416,1413,1413,1413,1413,1410,1410,1410,1410,1406,1403,1403,1400,1400,1394,1391,1388,1388,1381,1378,1378,1378,1378,1381,1378,1378,1378,1372,1369,1363,1357,1354,1351,1348,1345,1343,1343
1473,1477,1480,1487,1487,1487,1491,1498,1498,1502,1505,1505,1505,1509,1509,1513,1513,1517,1517,1520,1524,1528,1528,1528,1528,1528,1528,1528,1524,1520,1520,1520,1520,1517,1520,1520,1524,1528,1528,1528,1535,1535,1539,1543,1551,1555,1558,1566,1574,1578,1582,1590,1595,1599,1603,1607,1607,1603,1603,1599,1599,1595,1595,1590,1590,1590,1595,1595,1590,1590,1595,1595,1595,1599,1599,1599,1599,1599,1603,1603,1599,1599,1599,1599,1590,0,0,0,0,0,0,0,0,0,0,0,0,0,960,953,934,0,0,866,854,851,847,843,840,838,835,830,823,819,818,816,815,815,816,816,817,818,823,827,831,834,836,836,839,840,840,842,843,842,843,844,843,0,0,0,0,0,0,0,0,0,0,0,0,0,0,0,0,0,0,0,0,838,839,839,840,842,842,842,840,839,837,835,830,824,816,794,785,778,774,773,774,776,778,779,786,787,789,0,0,0,0,0,0,0,0,0,0,0,0,0,0,0,1599,1599,1599,1595,1595,1590,1590,1582,1582,1578,1570,1566,1562,1558,1555,1555,1551,1551,1547,1547,1543,1539,1535,1535,1532,1532,1528,1528,1524,1524,1520,1524,1524,1524,1528,1528,1528,1528,1520,1520,1517,1513,1505,1502,1498,1495,1491,1487,1484,1484,1484,1484,1484,1480,1477,1477,1477,1473,1473,1473,1470,1470,1470,1470,1470,1466,1466,1470,1466,1466,1463,1459,1459,1459,1453,1449,1446,1442,1439,1436,1432,1432,1426,1423,1423,1423,1416,1413,1413,1413,1413,1413,1413,1410,1406,1406,1403,1403,1400,1394,1391,1391,1388,1381,1378,1378,1378,1381,1381,1381,1378,1378,1372,1369,1366,1360,1357,1354,1351,1348,1345,1345
1473,1477,1480,1487,1487,1491,1495,1498,1502,1505,1505,1505,1509,1509,1513,1513,1513,1517,1517,1524,1524,1528,1528,1528,1528,1532,1532,1528,1528,1524,1524,1520,1520,1520,1520,1520,1524,1528,1528,1528,1532,1535,1539,1543,1551,1555,1558,1566,1574,1578,1582,1590,1599,1603,1603,1607,1607,1607,1603,1603,1603,1599,1595,1590,1590,1590,1595,1595,1590,1590,1595,1595,1595,1595,1599,1599,1599,1603,1603,1599,1599,1599,1599,1599,1595,0,0,0,0,0,0,0,0,0,1098,0,0,985,954,947,929,0,0,870,859,854,851,846,844,840,837,834,825,819,818,817,816,817,0,0,0,0,0,0,839,842,844,845,846,846,846,847,0,0,0,0,0,0,0,0,0,0,0,0,0,0,0,0,0,0,0,0,0,0,0,0,0,0,0,0,0,0,0,0,0,0,0,0,0,0,0,0,0,0,0,782,784,785,786,786,787,789,0,0,0,0,0,0,0,0,0,0,0,0,0,0,0,0,1599,1599,1599,1595,1595,1590,1590,1586,1582,1578,1570,1570,1566,1562,1558,1555,1555,1555,1551,1547,1547,1543,1535,1535,1532,1532,1528,1528,1524,1524,1524,1524,1524,1524,1524,1528,1528,1528,1520,1520,1517,1513,1505,1502,1498,1495,1491,1487,1484,1484,1484,1484,1480,1477,1477,1477,1473,1473,1473,1473,1470,1470,1470,1470,1470,1470,1470,1473,1470,1470,1466,1466,1463,1463,1453,1449,1449,1446,1442,1439,1436,1436,1432,1429,1426,1423,1419,1419,1416,1416,1416,1413,1413,1413,1410,1406,1406,1403,1403,1397,1394,1391,1388,1385,1385,1385,1385,1385,1385,1381,1381,1378,1375,1372,1369,1360,1357,1357,1354,1348,1345,1343
1477,1477,1480,1487,1487,1491,1495,1498,1502,1505,1505,1509,1509,1509,1513,1513,1513,1517,1520,1524,1524,1528,1528,1528,1532,1532,1532,1528,1528,1524,1524,1520,1520,1520,1520,1524,1524,1528,1528,1528,1535,1535,1539,1543,1555,1558,1562,1570,1574,1578,1582,1595,1599,1603,1603,1611,1611,1607,1607,1603,1603,1599,1599,1595,1595,1595,1595,1595,1595,1595,1595,1595,1595,1599,1599,1603,1599,1599,1599,1599,1599,1599,1595,1595,1595,0,0,0,0,0,0,0,1130,1130,1102,0,0,981,948,941,927,915,0,872,863,857,853,849,847,850,847,840,0,0,0,0,0,0,0,0,0,0,0,0,0,0,853,856,856,0,0,0,0,0,0,0,0,0,0,0,0,0,0,0,0,0,0,0,0,0,0,0,0,0,0,0,0,0,0,0,0,0,0,0,0,0,0,0,0,0,0,0,0,0,0,0,0,791,791,790,791,0,0,0,0,0,0,0,0,0,0,0,0,0,0,0,0,0,0,1595,1595,1595,1590,1590,1590,1586,1586,1582,1574,1570,1570,1566,1558,1558,1558,1555,1551,1551,1547,1543,1539,1539,1535,1532,1528,1528,1528,1524,1524,1524,1524,1524,1524,1528,1528,1528,1520,1520,1517,1513,1509,1502,1502,1498,1491,1491,1487,1484,1484,1480,1480,1480,1477,1477,1477,1473,1473,1473,1470,1470,1470,1470,1470,1473,1473,1477,1477,1477,1473,1473,1470,1466,1459,1453,1449,1446,1442,1439,1436,1436,1432,1429,1429,1426,1423,1419,1419,1416,1416,1413,1413,1413,1410,1406,1406,1403,1403,1397,1394,1391,1391,1385,1385,1385,1385,1385,1385,1385,1381,1378,1375,1372,1369,1363,1357,1357,1351,1348,1345,1343
1477,1480,1480,1487,1487,1491,1495,1498,1502,1505,1505,1505,1509,1509,1509,1509,1513,1513,1517,1520,1524,1528,1528,1528,1532,1532,1532,1528,1528,1524,1524,1524,1524,1520,1520,1524,1528,1528,1532,1532,1535,1539,1543,1547,1555,1558,1562,1570,1574,1578,1582,1595,1599,1603,1607,1611,1611,1611,1607,1607,1603,1599,1599,1599,1595,1595,1599,1599,1599,1599,1599,1599,1599,1599,1603,1603,1603,1603,1599,1599,1595,1595,1595,1595,0,0,0,0,0,0,1128,1128,1128,1130,1106,0,0,977,943,936,924,915,889,877,868,863,860,856,856,854,853,0,0,0,0,0,0,0,0,0,0,0,0,0,0,857,858,859,860,860,0,0,0,0,0,0,0,0,0,0,0,0,0,0,0,0,0,0,0,0,0,0,0,0,0,0,0,0,0,0,0,0,0,0,0,0,0,0,0,0,0,0,0,0,0,0,808,807,803,796,795,0,0,0,0,0,0,0,0,0,0,0,0,0,0,0,0,0,0,1595,1595,1595,1595,1595,1595,1595,1590,1586,1578,1574,1570,1570,1566,1562,1562,1558,1555,1551,1551,1547,1543,1543,1539,1535,1532,1532,1532,1528,1528,1528,1528,1528,1524,1524,1528,1524,1520,1520,1517,1513,1509,1502,1502,1502,1495,1491,1491,1487,1484,1484,1480,1480,1477,1477,1473,1473,1473,1473,1470,1470,1473,1473,1473,1473,1473,1477,1480,1477,1477,1473,1470,1470,1459,1453,1449,1446,1442,1439,1436,1436,1432,1432,1429,1426,1423,1423,1419,1416,1416,1413,1413,1413,1410,1406,1406,1403,1403,1397,1397,1394,1391,1388,1385,1388,1388,1388,1385,1385,1385,1381,1375,1372,1369,1363,1357,1354,1351,1348,1345,1343
1477,1480,1480,1487,1487,1491,1495,1498,1502,1505,1505,1505,1505,1505,1505,1509,1509,1509,1517,1520,1524,1524,1532,1532,1532,1532,1532,1532,1528,1528,1524,1524,1524,1528,1528,1528,1532,1532,1535,1535,1539,1543,1547,1551,1558,1562,1566,1574,1578,1582,1586,1599,1603,1607,1611,1615,1615,1615,1615,1615,1611,1607,1607,1603,1603,1599,1603,1603,1603,1599,1603,1603,1599,1603,1603,1603,1599,1599,1599,1595,1595,1595,1595,0,0,0,0,0,0,0,1126,1124,1122,1124,1104,0,0,0,941,933,923,912,890,881,872,868,865,861,860,860,859,0,0,0,0,0,0,0,0,0,0,0,866,863,863,861,861,864,865,865,869,872,875,876,0,0,0,0,0,0,0,0,0,0,0,0,0,0,0,0,0,0,0,0,0,0,0,0,0,0,0,0,0,0,0,0,849,845,843,837,834,830,827,824,811,809,816,814,813,813,812,0,0,0,0,0,0,0,0,0,0,0,0,0,0,0,0,0,0,0,1599,1599,1599,1599,1595,1595,1595,1586,1582,1578,1574,1570,1566,1566,1566,1562,1558,1555,1555,1551,1547,1547,1543,1539,1535,1535,1532,1532,1528,1528,1528,1528,1528,1524,1524,1524,1520,1520,1517,1517,1509,1505,1502,1502,1498,1495,1491,1487,1484,1484,1484,1480,1477,1477,1477,1473,1473,1473,1470,1470,1473,1473,1473,1477,1477,1480,1480,1480,1477,1473,1473,1470,1459,1453,1449,1442,1439,1439,1436,1436,1432,1432,1429,1429,1423,1423,1419,1419,1416,1413,1413,1413,1410,1406,1406,1403,1403,1397,1397,1394,1391,1388,1388,1388,1388,1391,1388,1385,1385,1381,1378,1375,1369,1363,1357,1354,1351,1345,1345,1343
1480,1480,1480,1487,1487,1491,1495,1498,1502,1505,1505,1505,1505,1505,1505,1505,1509,1509,1517,1520,1524,1524,1532,1532,1535,1535,1535,1535,1535,1532,1532,1532,1532,1528,1532,1532,1535,1535,1535,1539,1543,1547,1551,1551,1558,1562,1566,1574,1578,1586,1590,1599,1603,1607,1611,1615,1619,1619,1615,1615,1615,1611,1607,1607,1607,1607,1607,1607,1607,1607,1607,1607,1603,1603,1603,1603,1599,1599,1595,1595,1590,1590,1595,0,0,0,0,0,0,0,1120,1118,1118,1118,1104,0,0,0,938,929,918,909,890,0,876,871,870,866,866,868,866,865,0,0,0,0,0,0,874,868,865,864,864,863,863,863,864,866,868,868,870,874,875,875,877,879,882,0,0,0,0,0,0,0,0,0,0,0,0,0,0,0,0,0,0,0,0,0,0,0,0,0,0,0,0,0,0,0,840,835,833,830,827,826,822,820,822,819,818,818,816,0,0,0,0,0,0,0,0,0,0,0,0,0,0,0,0,0,0,0,0,1595,1599,1599,1595,1595,1595,1590,1582,1578,1578,1574,1570,1570,1566,1566,1558,1558,1555,1555,1551,1547,1547,1543,1539,1539,1535,1535,1532,1532,1532,1528,1524,1524,1524,1524,1520,1520,1517,1517,1509,1509,1505,1505,1498,1498,1495,1491,1487,1484,1487,1484,1480,1477,1477,1477,1473,1473,1470,1473,1473,1477,1477,1477,1477,1484,1484,1484,1480,1477,1473,1470,1459,1453,1449,1442,1439,1439,1436,1436,1432,1432,1432,1429,1426,1423,1423,1419,1416,1416,1413,1413,1410,1406,1406,1406,1403,1400,1397,1394,1394,1391,1391,1391,1391,1391,1391,1391,1388,1385,1378,1375,1369,1363,1357,1354,1351,1345,1343,1343
1480,1480,1480,1487,1487,1491,1495,1498,1502,1505,1502,1502,1502,1502,1502,1502,1505,1509,1513,1520,1524,1528,1532,1535,1535,1539,1539,1539,1535,1535,1535,1535,1532,1532,1535,1535,1539,1539,1539,1543,1547,1551,1555,1555,1562,1566,1570,1578,1582,1586,1590,1599,1603,1607,1611,1619,1624,1624,1619,1619,1619,1615,1615,1611,1611,1607,1611,1611,1607,1607,1607,1607,1607,1603,1603,1603,1599,1595,1590,1595,1590,1595,0,0,0,0,0,0,0,1106,1106,1106,1106,1106,1079,0,0,974,938,922,912,905,890,889,885,881,879,877,877,879,880,0,0,0,0,0,0,887,875,868,865,864,864,863,864,864,865,0,0,870,872,874,874,874,880,881,0,0,0,0,0,0,0,0,0,0,0,0,0,0,0,0,0,0,0,0,0,0,0,0,0,0,0,0,0,0,0,842,839,834,833,829,827,826,824,824,826,825,826,825,826,0,0,0,0,0,0,0,0,0,0,0,0,0,0,0,0,0,0,0,0,1595,1599,1599,1595,1595,1595,1590,1586,1582,1578,1574,1570,1570,1570,1566,1562,1558,1558,1555,1551,1551,1551,1547,1543,1543,1539,1539,1535,1532,1532,1528,1524,1524,1524,1524,1520,1520,1520,1520,1517,1513,1513,1509,1505,1505,1502,1498,1495,1491,1491,1487,1484,1480,1480,1480,1477,1477,1477,1477,1477,1480,1480,1480,1480,1484,1487,1487,1480,1480,1477,1470,1459,1456,1449,1446,1439,1436,1436,1436,1436,1432,1432,1429,1426,1423,1423,1419,1416,1416,1413,1413,1410,1410,1406,1406,1403,1403,1400,1397,1394,1391,1391,1394,1394,1394,1391,1391,1391,1385,1381,1375,1369,1363,1357,1354,1348,1345,1343,1340
1480,1480,1480,1484,1487,1491,1495,1498,1502,1502,1502,1502,1502,1502,1502,1502,1502,1505,1513,1517,1524,1528,1532,1535,1535,1539,1539,1539,1539,1539,1539,1539,1535,1535,1539,1539,1543,1543,1543,1547,1551,1555,1555,1558,1566,1566,1570,1578,1582,1586,1590,1603,1607,1607,1611,1619,1624,1624,1624,1624,1624,1619,1619,1619,1615,1615,1615,1615,1615,1615,1611,1611,1611,1603,1603,1599,1595,1595,1590,1590,1586,0,0,0,0,0,0,0,1096,1096,1100,1100,1098,1100,1081,1064,1036,0,0,0,913,908,898,892,890,887,882,884,884,885,889,0,0,0,0,0,904,0,876,868,864,864,863,863,863,863,0,0,0,870,871,874,876,879,884,886,0,0,0,0,0,0,0,0,0,0,0,0,0,0,0,0,0,0,0,0,0,0,0,0,0,0,0,0,0,0,0,842,838,833,830,828,825,824,823,823,825,825,826,829,0,0,0,0,0,0,0,0,0,0,0,0,0,0,0,0,0,0,1069,1069,0,0,1603,1603,1599,1599,1599,1595,1590,1586,1582,1582,1578,1574,1570,1570,1566,1566,1562,1562,1555,1555,1555,1551,1547,1547,1543,1543,1535,1535,1532,1532,1524,1524,1524,1524,1524,1520,1520,1520,1520,1517,1513,1513,1509,1509,1505,1502,1498,1495,1491,1491,1487,1484,1484,1480,1480,1480,1477,1477,1480,1480,1480,1480,1480,1484,1487,1487,1484,1480,1477,1473,1459,1456,1449,1446,1439,1436,1436,1436,1432,1432,1429,1429,1426,1423,1423,1419,1416,1416,1413,1413,1413,1410,1406,1406,1406,1403,1400,1397,1397,1394,1394,1394,1394,1394,1394,1394,1391,1388,1381,1375,1372,1363,1360,1354,1348,1343,1343,1340
1480,1480,1484,1487,1487,1491,1491,1498,1498,1502,1498,1498,1498,1498,1498,1502,1502,1505,1517,1520,1520,1528,1535,1535,1539,1543,1543,1547,1547,1547,1547,1547,1547,1547,1551,1547,1551,1551,1555,1555,1558,1562,1562,1562,1570,1570,1574,1582,1586,1586,1590,1599,1607,1611,1611,1619,1624,1628,1628,1628,1628,1628,1624,1624,1619,1619,1619,1615,1615,1615,1615,1615,1611,1607,1603,1599,1595,1590,1586,1586,1586,0,0,0,0,0,0,1086,1088,1090,1092,1092,1092,1090,1073,0,0,0,0,0,0,923,908,903,900,896,890,890,891,892,896,907,915,923,920,916,907,0,876,866,863,863,861,861,860,860,861,0,0,866,869,870,875,879,884,886,0,0,0,0,0,0,0,0,0,0,0,0,0,0,0,0,0,0,0,0,0,0,0,0,0,0,0,0,0,0,0,0,835,830,828,826,824,824,824,825,0,0,0,0,0,0,0,0,0,0,0,0,0,0,0,0,0,0,0,0,0,1069,1068,1068,1069,1069,1068,1603,1599,1599,1595,1595,1590,1586,1582,1582,1578,1578,1574,1570,1570,1570,1566,1562,1558,1555,1555,1555,1551,1547,1543,1543,1539,1535,1535,1532,1528,1528,1528,1528,1524,1524,1524,1524,1520,1520,1520,1517,1513,1509,1509,1505,1498,1498,1495,1491,1487,1487,1487,1484,1480,1480,1477,1477,1480,1480,1480,1480,1480,1487,1487,1487,1480,1480,1477,1473,1463,1456,1453,1446,1442,1439,1436,1436,1432,1432,1429,1429,1426,1426,1423,1419,1419,1416,1416,1413,1413,1410,1410,1406,1406,1403,1403,1400,1397,1394,1394,1394,1394,1397,1394,1397,1394,1388,1385,1378,1375,1366,1363,1357,1351,1345,1345,1343
1484,1484,1484,1487,1487,1491,1491,1495,1498,1502,1498,1498,1502,1502,1502,1502,1502,1505,1517,1520,1524,1528,1535,1539,1543,1547,1547,1547,1551,1551,1551,1551,1551,1555,1555,1551,1555,1555,1558,1558,1562,1566,1566,1566,1570,1574,1578,1586,1590,1590,1590,1599,1603,1611,1611,1619,1624,1628,1632,1632,1628,1628,1624,1624,1624,1619,1619,1619,1615,1615,1615,1611,1611,1603,1599,1599,1595,1586,1586,1582,0,0,0,0,0,0,0,1077,1079,1082,1086,1088,1086,1082,1079,1068,0,0,0,0,0,933,915,911,905,903,898,898,899,902,905,915,922,924,922,916,0,0,875,864,861,860,858,857,857,857,857,0,0,861,864,866,871,876,0,0,0,0,0,0,0,0,0,0,0,0,0,0,0,0,0,0,0,0,0,0,0,0,0,0,0,0,0,0,0,0,0,0,0,0,826,826,824,824,0,0,0,0,0,0,0,0,0,0,0,0,0,0,0,0,0,0,0,0,0,0,0,1066,1066,1066,1066,1066,1064,1064,1599,1599,1599,1595,1590,1586,1586,1586,1582,1582,1578,1574,1570,1570,1566,1566,1558,1558,1558,1555,1551,1547,1543,1543,1539,1535,1535,1532,1532,1528,1528,1528,1528,1528,1524,1524,1524,1524,1520,1520,1517,1513,1509,1505,1502,1498,1495,1491,1487,1484,1484,1484,1484,1484,1480,1480,1480,1480,1480,1480,1480,1484,1484,1484,1484,1480,1477,1477,1466,1459,1456,1449,1446,1439,1439,1436,1432,1432,1429,1429,1426,1426,1423,1423,1419,1416,1416,1416,1413,1413,1413,1413,1413,1406,1406,1400,1400,1400,1397,1397,1397,1397,1397,1397,1397,1388,1385,1378,1375,1369,1363,1360,1354,1348,1345,1343
1484,1484,1484,1487,1484,1487,1491,1495,1498,1498,1498,1502,1502,1502,1502,1502,1505,1509,1517,1520,1524,1528,1535,1539,1543,1547,1551,1551,1555,1555,1558,1555,1555,1558,1555,1558,1558,1558,1562,1562,1566,1566,1566,1570,1574,1578,1582,1586,1590,1590,1595,1603,1607,1611,1611,1619,1624,1624,1632,1632,1632,1632,1628,1628,1624,1624,1624,1624,1619,1615,1615,1611,1607,1599,1595,1595,1590,1582,1582,1582,0,0,0,0,0,0,1053,1057,1066,1069,1073,1075,1073,1069,1066,1051,0,0,1009,0,0,937,926,0,0,0,912,915,0,0,929,933,936,933,931,924,0,0,0,0,861,0,0,0,0,0,0,0,0,0,0,0,0,0,0,0,0,0,0,0,0,0,0,0,0,0,0,0,0,0,0,0,0,0,0,0,0,0,0,0,0,0,0,0,0,0,0,0,0,0,825,824,824,0,0,0,0,0,0,0,0,0,0,0,0,0,0,0,0,0,0,0,0,0,0,0,0,1066,1064,1064,1064,1060,1058,1057,1595,1595,1595,1595,1595,1590,1586,1586,1586,1582,1582,1578,1574,1570,1570,1566,1562,1558,1558,1558,1555,1551,1547,1543,1539,1539,1535,1535,1532,1532,1535,1535,1532,1532,1532,1532,1528,1528,1524,1524,1517,1513,1509,1505,1498,1495,1491,1487,1487,1487,1484,1484,1484,1484,1484,1480,1480,1480,1480,1480,1480,1484,1484,1484,1484,1480,1480,1477,1470,1463,1459,1449,1446,1442,1439,1436,1432,1432,1429,1429,1426,1426,1426,1423,1423,1419,1416,1416,1416,1413,1413,1413,1413,1410,1406,1403,1400,1400,1400,1400,1397,1397,1400,1397,1397,1391,1388,1381,1375,1369,1366,1360,1354,1348,1348,1345
1484,1484,1487,1487,1484,1487,1491,1495,1498,1498,1498,1502,1502,1502,1502,1505,1505,1509,1520,1524,1528,1532,1539,1543,1547,1551,1555,1555,1558,1558,1558,1558,1558,1558,1562,1562,1562,1562,1562,1562,1566,1570,1570,1574,1578,1582,1582,1586,1590,1590,1595,1599,1603,1603,1607,1615,1619,1624,1628,1632,1632,1632,1632,1632,1628,1628,1624,1624,1624,1615,1615,1611,1607,1595,1595,1590,1586,1582,1578,0,0,0,0,0,0,0,1046,1050,1060,1064,1068,1071,1069,1064,1060,1050,1044,1032,1014,991,971,946,931,0,923,922,923,924,0,0,937,940,938,936,934,927,0,0,0,868,0,861,0,0,0,0,0,0,0,0,0,0,0,0,0,0,0,0,0,0,0,0,0,0,0,0,1015,0,1025,0,0,0,0,0,0,0,0,0,0,0,0,0,0,0,0,0,0,0,0,0,0,0,0,0,0,0,0,0,0,0,0,0,0,0,0,0,0,0,0,0,0,0,0,0,0,0,1066,1064,1060,1060,1057,1055,1053,1051,1050,1595,1595,1595,1595,1590,1590,1590,1590,1586,1586,1582,1578,1574,1570,1570,1566,1562,1558,1558,1551,1551,1547,1547,1543,1543,1539,1539,1539,1539,1539,1539,1535,1535,1535,1532,1532,1532,1528,1524,1517,1513,1509,1502,1495,1491,1487,1484,1484,1484,1484,1484,1484,1484,1484,1480,1480,1480,1480,1477,1477,1484,1480,1480,1480,1477,1477,1477,1466,1459,1453,1449,1439,1436,1432,1432,1429,1429,1429,1429,1429,1426,1426,1423,1423,1419,1419,1419,1416,1416,1416,1416,1413,1410,1406,1403,1400,1400,1400,1400,1400,1400,1400,1400,1397,1391,1388,1381,1378,1372,1366,1363,1357,1351,1348,1345
1487,1484,1487,1487,1484,1487,1487,1491,1498,1498,1498,1502,1502,1505,1505,1505,1509,1513,1520,1524,1528,1532,1539,1543,1547,1555,1558,1562,1562,1566,1570,1566,1566,1570,1566,1566,1570,1570,1570,1570,1574,1574,1578,1578,1578,1582,1582,1586,1590,1590,1595,1599,1603,1603,1607,1615,1619,1624,1628,1628,1632,1632,1632,1632,1632,1628,1628,1624,1624,1615,1611,1611,1607,1595,1590,1586,1582,1578,0,0,0,0,0,0,0,1032,1037,1041,1053,1057,1062,1064,1064,1060,1055,1046,1041,1032,1020,1002,985,0,0,938,0,934,936,0,0,946,947,947,946,941,940,933,926,902,890,0,0,0,0,0,0,0,0,0,0,0,0,0,0,0,0,0,0,0,0,0,0,0,0,0,0,0,999,1005,1009,1022,0,0,0,0,0,0,0,0,0,0,0,0,0,0,0,0,0,0,0,0,0,0,0,0,0,0,0,0,0,0,0,0,0,0,0,0,0,0,0,0,0,0,0,0,0,0,0,1053,1053,1053,1053,1050,1050,1046,1044,1044,1595,1595,1595,1595,1595,1595,1590,1586,1582,1578,1578,1574,1570,1570,1566,1562,1558,1558,1551,1551,1547,1547,1543,1543,1543,1539,1539,1543,1539,1539,1539,1539,1535,1535,1532,1532,1524,1520,1513,1509,1502,1498,1491,1487,1484,1480,1480,1480,1480,1480,1480,1480,1480,1477,1470,1466,1463,1459,1459,1459,1459,1459,1436,1436,1439,1436,1432,1429,1426,1419,1416,1410,1410,1406,1410,1410,1413,1413,1413,1413,1413,1413,1413,1410,1410,1410,1410,1410,1413,1413,1413,1410,1406,1403,1403,1400,1400,1400,1400,1400,1400,1400,1397,1391,1388,1381,1381,1372,1369,1363,1357,1351,1351,1348
1487,1487,1487,1487,1484,1487,1487,1491,1495,1498,1498,1502,1505,1509,1509,1513,1513,1517,1520,1524,1528,1532,1539,1543,1547,1555,1558,1562,1566,1570,1570,1570,1570,1570,1570,1570,1570,1570,1574,1574,1574,1574,1578,1578,1582,1582,1586,1586,1590,1590,1595,1599,1603,1603,1607,1615,1615,1619,1624,1628,1628,1632,1632,1632,1632,1632,1628,1628,1624,1619,1615,1607,1603,1595,1590,1586,1582,1582,0,0,0,0,0,0,1018,1025,1029,1032,1037,1048,1051,1044,1044,1041,1037,1029,1025,1022,1014,1009,0,0,0,0,948,948,959,0,959,954,956,956,953,946,944,934,927,905,898,0,0,0,0,0,0,0,0,0,0,0,0,0,0,0,0,0,0,0,0,0,0,0,0,0,0,985,991,997,1000,1000,0,0,0,0,0,0,0,0,0,0,0,0,0,0,0,0,0,0,0,0,0,0,0,0,0,0,0,0,0,0,0,0,0,0,0,0,0,0,0,0,1009,1005,1004,0,0,0,0,0,0,1046,1048,1046,1044,1039,1036,1036,1034,1595,1595,1595,1595,1595,1590,1586,1586,1582,1578,1574,1570,1570,1566,1562,1558,1558,1551,1551,1547,1547,1543,1543,1543,1543,1543,1543,1539,1539,1539,1539,1535,1532,1524,1520,1517,1513,1502,1495,1491,1484,1473,1470,1463,1456,1449,1446,1442,1439,1436,1436,1432,1429,1423,1416,1416,1413,1413,1410,1413,1413,1416,1416,1419,1416,1416,1413,1410,1403,1403,1397,1394,1394,1394,1397,1397,1403,1403,1403,1400,1400,1400,1400,1400,1403,1403,1400,1403,1403,1403,1400,1400,1400,1400,1400,1403,1403,1403,1400,1400,1397,1397,1391,1388,1381,1381,1372,1369,1363,1357,1354,1351,1348
1487,1487,1487,1487,1484,1487,1487,1495,1498,1498,1502,1505,1509,1513,1513,1517,1517,1520,1524,1524,1528,1532,1539,1543,1547,1555,1562,1566,1570,1574,1574,1574,1574,1574,1574,1574,1578,1578,1578,1578,1578,1578,1578,1582,1582,1586,1586,1586,1590,1590,1595,1599,1599,1599,1603,1615,1615,1615,1619,1624,1628,1632,1632,1632,1632,1632,1632,1632,1628,1619,1615,1607,1603,1590,1586,1582,1582,1578,0,0,0,0,0,0,1007,1009,1014,1015,1020,1029,1032,1034,1030,1029,1027,1022,1015,1012,1005,0,0,0,0,0,0,0,0,959,960,960,959,956,951,946,941,0,0,0,0,0,0,0,0,0,0,0,0,0,0,0,0,0,0,0,0,0,0,0,0,0,0,0,0,0,0,978,983,989,992,0,0,0,0,0,0,0,0,0,0,0,0,0,0,0,0,0,0,0,0,0,0,0,0,0,0,0,0,0,0,0,0,0,0,0,0,0,0,0,0,996,1002,999,0,0,0,0,0,0,0,0,0,1029,1027,1025,1018,1014,1010,1595,1595,1595,1595,1595,1590,1586,1586,1582,1578,1574,1570,1570,1566,1562,1558,1558,1555,1551,1547,1547,1543,1543,1539,1539,1539,1539,1535,1532,1528,1528,1524,1520,1513,1509,1505,1498,1484,1477,1470,1463,1449,1446,1439,1432,1429,1423,1419,1416,1416,1410,1406,1403,1400,1397,1394,1391,1391,1391,1394,1394,1397,1397,1400,1400,1400,1397,1394,1388,1385,1381,1378,1378,1378,1381,1385,1388,1388,1391,1391,1391,1391,1388,1388,1391,1391,1391,1391,1391,1391,1391,1391,1391,1391,1391,1394,1397,1397,1394,1394,1394,1394,1388,1385,1378,1378,1372,1369,1363,1357,1354,1351,1348
1487,1484,1484,1487,1487,1487,1491,1491,1495,1498,1502,1509,1509,1513,1513,1520,1520,1520,1524,1528,1528,1532,1539,1547,1551,1558,1562,1570,1570,1578,1578,1578,1578,1582,1582,1578,1582,1582,1582,1582,1582,1582,1582,1582,1586,1586,1586,1586,1590,1595,1595,1599,1599,1599,1603,1615,1615,1615,1619,1624,1628,1632,1632,1632,1632,1637,1637,1632,1632,1619,1615,1611,1603,1590,1586,1582,0,0,0,0,0,0,0,0,999,1002,1005,1009,1012,1017,1018,1020,1018,1018,1017,1012,1007,1004,0,0,0,0,0,0,0,0,960,960,960,959,957,954,951,944,940,934,0,0,0,926,930,933,0,944,946,0,0,0,0,0,0,0,0,0,0,0,0,0,0,0,0,0,960,963,968,972,975,980,0,0,0,0,0,0,0,0,0,0,0,0,0,0,934,954,0,0,957,0,0,0,0,0,0,0,0,0,0,0,0,0,0,0,0,0,0,0,954,0,0,983,988,986,985,978,975,974,0,0,0,0,0,1022,1018,1017,1009,1004,1000,999,1590,1595,1590,1590,1590,1590,1586,1582,1578,1574,1570,1566,1562,1562,1558,1555,1551,1551,1551,1547,1539,1539,1539,1535,1532,1528,1520,1517,1509,1505,1502,1498,1487,1484,1480,1470,1459,1453,1446,1439,1429,1423,1416,1410,1406,1400,1400,1397,1394,1388,1385,0,0,1375,1372,1369,1369,1369,1372,1375,1378,1378,1381,1381,1378,1375,1375,1372,1369,1366,1363,1363,1363,1366,1369,1372,1375,1375,1375,1375,1375,1375,1378,1378,1378,1378,1381,1381,1381,1381,1381,1381,1381,1381,1385,1388,1375,1375,1375,1375,1375,1375,1372,1372,1369,1366,1363,1360,1354,1354,1348,1345
1487,1487,1484,1487,1487,1491,1491,1495,1498,1502,1502,1509,1513,1517,1520,1524,1528,1528,1532,1532,1535,1535,1543,1547,1555,1558,1566,1574,1574,1582,1582,1586,1586,1586,1586,1586,1586,1586,1590,1590,1590,1590,1590,1590,1590,1590,1590,1590,1595,1595,1595,1599,1603,1603,1607,1615,1615,1619,1619,1624,1628,1632,1632,1632,1637,1637,1637,1632,1632,1624,1615,1611,1603,1595,1590,1582,0,0,0,0,0,0,0,0,994,994,1000,1002,1004,1007,1010,1010,1009,1007,1005,1004,999,994,0,0,0,0,0,0,0,962,960,960,960,957,956,954,951,946,943,940,937,0,0,934,938,941,943,946,947,947,947,0,938,922,0,0,0,0,0,0,0,0,0,0,956,956,957,959,960,962,963,963,0,0,0,0,0,0,0,0,0,0,0,0,0,916,936,957,957,959,960,963,0,0,0,0,0,0,0,0,0,0,0,0,0,0,0,0,0,0,954,0,0,978,983,981,980,975,972,969,968,968,0,0,0,0,1005,0,999,994,991,989,988,1590,1590,1590,1590,1590,1586,1586,1578,1574,1570,1566,1562,1562,1558,1555,1551,1547,1547,1543,1535,1532,1532,1528,1517,1509,1498,1495,1484,1480,1477,1473,1463,1459,1453,1446,1439,1426,1419,1416,1406,1400,1397,1391,1388,1381,1378,1375,1372,1366,1363,1360,1357,1354,1348,1348,1348,1348,1348,1331,1334,1337,1337,1340,1340,1337,1337,1337,1334,1331,1328,1331,1334,1334,1337,1343,1345,1345,1348,1348,1348,1348,1351,1354,1354,1354,1357,1357,1357,1357,1357,1357,1357,1360,1360,1363,1363,1363,1363,1363,1366,1363,1360,1360,1360,1357,1354,1351,1348,1348,1345,1343
1491,1491,1487,1491,1491,1491,1491,1498,1502,1502,1509,1513,1517,1520,1520,1528,1528,1532,1535,1535,1535,1539,1547,1551,1555,1562,1570,1574,1578,1586,1586,1586,1590,1590,1586,1586,1590,1590,1595,1595,1595,1595,1595,1595,1595,1595,1595,1595,1595,1599,1599,1603,1603,1607,1607,1615,1615,1619,1624,1624,1628,1632,1632,1632,1637,1637,1637,1632,1628,1624,1615,1611,1603,1599,0,0,0,0,0,0,0,0,0,0,989,989,992,992,994,996,997,999,997,997,996,992,988,983,980,975,971,965,963,963,963,962,959,957,956,954,953,951,950,948,948,947,944,943,0,0,944,944,944,944,947,947,0,0,940,0,0,0,0,0,0,0,0,0,0,0,956,956,956,956,957,957,957,957,0,0,0,0,0,0,0,0,0,0,0,0,0,915,936,959,960,960,962,0,0,0,0,0,0,0,959,957,0,0,0,0,0,0,0,0,0,0,953,0,0,974,980,978,977,972,969,968,966,960,0,0,0,0,997,992,989,986,983,981,978,978,1590,1590,1590,1586,1586,1586,1574,1574,1570,1566,1562,1558,1555,1551,1547,1547,1543,1539,1513,1502,1495,1484,1473,1456,1446,1439,1436,1426,1423,1419,1416,1406,1400,1394,1388,1378,1375,1369,1363,1360,1354,1351,1348,1345,1340,1337,1334,1328,1323,1320,1317,1314,1309,1309,1309,1309,1309,1311,1311,1314,1314,1317,1320,1320,1320,1317,1317,1314,1314,1314,1317,1317,1320,1328,1328,1331,1331,1334,1334,1331,1334,1337,1340,1340,1343,1345,1345,1345,1345,1345,1345,1348,1348,1348,1351,1348,1348,1351,1354,1354,1351,1348,1348,1348,1345,1345,1343,1343,1340,1340
1491,1491,1491,1491,1491,1491,1495,1498,1502,1505,1509,1517,1517,1520,1520,1532,1532,1532,1535,1539,1539,1543,1551,1551,1555,1566,1570,1574,1578,1586,1590,1586,1590,1590,1590,1590,1595,1595,1599,1599,1599,1599,1599,1599,1599,1599,1599,1595,1599,1599,1599,1603,1607,1607,1611,1615,1619,1624,1624,1624,1628,1628,1632,1632,1632,1632,1628,1628,1624,1619,1615,1611,1603,1599,0,0,0,0,0,0,0,0,980,980,981,983,988,989,991,991,994,994,992,992,989,988,985,978,975,971,969,965,965,963,963,960,959,956,956,953,951,950,950,950,950,950,948,947,946,946,946,946,944,946,947,947,947,946,943,926,0,0,0,882,0,0,0,0,0,954,954,956,956,954,954,954,953,953,0,0,0,0,0,0,0,0,0,0,0,875,0,913,936,960,962,962,963,966,0,0,0,0,959,957,957,957,957,957,948,0,0,0,0,0,0,0,953,968,972,972,977,977,975,971,968,965,963,963,0,977,0,0,0,986,983,974,972,972,971,971,1590,1590,1586,1586,1586,1582,1578,1574,1570,1566,1558,1555,1547,1547,1532,1524,1517,1509,1487,1477,1466,1453,1446,1426,1416,1410,1406,1397,1397,1394,1388,1381,1375,1372,1366,1363,1354,1348,1345,1343,1337,1334,1331,1325,1323,1320,1317,1314,1309,1309,1306,1306,1303,1300,1300,1300,1300,1300,1303,1303,1306,1309,1309,1309,1309,1309,1306,1303,1303,1303,1306,1306,1306,1314,1314,1317,1317,1317,1317,1320,1320,1323,1325,1325,1325,1331,1331,1331,1331,1331,1331,1334,1334,1337,1337,1337,1337,1337,1340,1340,1340,1340,1337,1337,1337,1334,1334,1334,1334,1334
1491,1491,1491,1491,1495,1495,1495,1502,1502,1505,1513,1517,1520,1524,1524,1532,1535,1535,1539,1543,1543,1547,1551,1555,1558,1566,1570,1578,1582,1586,1590,1590,1590,1595,1595,1595,1595,1599,1599,1599,1599,1603,1603,1607,1607,1607,1607,1607,1607,1607,1607,1607,1611,1615,1615,1624,1624,1624,1624,1624,1628,1632,1632,1632,1632,1628,1628,1624,1619,1619,1611,1611,1607,1607,0,0,0,0,0,0,0,0,975,978,980,981,985,986,988,988,991,991,989,988,986,985,981,974,971,969,969,965,965,963,962,960,959,956,954,953,951,951,951,951,951,951,950,948,948,948,947,946,946,946,947,947,946,946,943,926,0,0,0,884,0,0,0,0,954,954,954,953,953,953,951,951,951,950,0,0,0,0,0,0,0,0,0,0,840,861,0,913,933,962,962,963,965,966,966,965,962,957,956,956,954,954,954,954,948,0,0,0,0,0,0,0,936,966,971,971,972,971,969,966,965,963,963,0,0,0,966,0,0,0,0,969,969,969,969,969,968,1590,1590,1586,1586,1586,1578,1574,1570,1566,1555,1547,1539,1535,1517,1505,1495,1484,1473,1449,1436,1426,1416,1397,1391,1385,1381,1375,1372,1369,1363,1360,1354,1351,1345,1343,1337,1334,1328,1328,1325,1323,1320,1317,1314,1311,1311,1306,1303,1303,1303,1303,1300,1298,1298,1298,1298,1300,1300,1300,1303,1303,1303,1306,1303,1303,1300,1300,1298,1298,1298,1300,1300,1303,1303,1306,1309,1309,1306,1309,1309,1311,1311,1311,1314,1314,1317,1317,1314,1317,1317,1317,1306,1309,1309,1309,1311,1314,1314,1317,1314,1314,1314,1317,1317,1317,1317,1320,1320,1317
1495,1491,1491,1491,1498,1498,1502,1505,1505,1509,1513,1520,1520,1524,1528,1535,1539,1539,1543,1547,1551,1551,1558,1562,1566,1570,1574,1582,1586,1590,1590,1595,1595,1599,1595,1595,1599,1599,1603,1603,1603,1607,1607,1611,1611,1611,1607,1607,1607,1607,1607,1611,1615,1615,1619,1624,1624,1624,1624,1628,1628,1632,1632,1632,1628,1628,1624,1624,1619,1615,1611,1607,1603,0,0,0,0,0,0,0,0,0,974,977,978,980,983,985,985,985,986,986,986,985,983,980,978,972,969,968,968,965,965,963,962,959,957,954,953,953,951,951,953,953,953,953,951,951,946,946,943,941,940,946,944,933,931,929,924,916,0,0,0,885,896,0,929,943,947,948,950,947,946,940,934,947,0,0,0,0,0,0,0,0,828,831,0,0,836,854,0,0,0,960,0,965,965,963,962,959,953,950,950,950,948,950,950,0,0,0,0,0,0,0,0,0,0,0,0,963,965,966,963,960,959,957,956,0,0,0,0,0,0,0,0,965,965,965,965,965,965,1595,1586,1586,1586,1586,1578,1574,1566,1562,1551,1543,1532,1524,1498,1487,1473,1459,1446,1423,1410,1400,1391,1381,1363,1357,1354,1348,1348,1345,1343,1340,1337,1334,1331,1328,1323,1323,1320,1320,1317,1314,1314,1311,1309,1306,1306,1303,1303,1300,1300,1300,1298,1295,1295,1292,1295,1295,1295,1295,1298,1298,1298,1298,1295,1295,1295,1292,1292,1292,1292,1292,1292,1295,1295,1295,1298,1295,1295,1295,1295,1298,1298,1298,1298,1298,1300,1300,1295,1295,1295,1295,1292,1295,1295,1295,1298,1300,1300,1303,1303,1306,1306,1306,1309,1309,1309,1311,1311,1309
1495,1495,1495,1495,1498,1498,1502,1505,1505,1509,1513,1520,1524,1524,1528,1535,1539,1539,1547,1551,1551,1555,1558,1562,1570,1574,1578,1582,1586,1590,1595,1595,1599,1599,1595,1599,1599,1599,1603,1603,1607,1607,1607,1611,1611,1611,1607,1607,1611,1611,1611,1615,1615,1615,1619,1624,1624,1628,1628,1628,1632,1632,1632,1632,1628,1628,1624,1619,1619,1611,1607,1603,1603,0,0,0,0,0,0,0,0,963,965,969,972,975,978,978,980,980,980,980,978,975,975,972,971,966,963,962,962,957,954,953,951,948,947,946,946,946,948,948,948,948,948,947,944,943,941,941,938,934,0,0,927,922,920,918,915,904,0,0,0,892,0,0,926,936,940,943,944,943,940,931,0,0,0,0,0,0,0,0,0,0,0,0,0,0,837,851,0,0,0,0,960,959,959,959,956,953,947,944,944,944,944,0,0,0,0,0,0,0,0,0,0,0,0,0,0,951,954,960,959,956,953,950,948,946,0,0,0,0,0,0,960,962,962,962,962,960,959,959,1590,1586,1586,1586,1574,1574,1566,1562,1547,1535,1520,1513,1495,1446,1453,1413,1400,1388,1363,1357,1348,1340,1328,1323,1320,1320,1317,1317,1317,1317,1314,1314,1311,1311,1311,1309,1309,1309,1309,1309,1309,1306,1303,1303,1303,1300,1300,1298,1298,1298,1298,1295,1292,1292,1292,1292,1292,1295,1295,1295,1295,1295,1292,1292,1292,1290,1290,1290,1290,1290,1290,1292,1295,1292,1295,1295,1292,1292,1292,1292,1292,1292,1292,1292,1292,1292,1290,1287,1287,1287,1284,1287,1287,1287,1290,1290,1292,1295,1295,1295,1298,1298,1298,1300,1303,1300,1300,1300
1498,1498,1498,1498,1498,1502,1502,1505,1509,1509,1513,1520,1524,1528,1532,1535,1539,1543,1551,1551,1555,1558,1562,1566,1570,1578,1582,1586,1590,1595,1595,1599,1599,1599,1595,1599,1599,1599,1599,1603,1603,1607,1607,1607,1611,1611,1611,1611,1611,1615,1615,1615,1615,1619,1624,1624,1624,1628,1628,1628,1628,1632,1632,1628,1628,1624,1619,1615,1611,1603,1603,1603,0,0,0,0,0,0,0,0,0,959,960,968,969,972,974,977,977,977,978,978,977,972,971,969,968,962,960,959,957,951,950,948,946,944,943,943,943,944,948,948,948,947,946,944,941,938,937,936,933,930,0,920,918,0,0,0,905,898,0,0,0,892,0,909,915,930,934,937,940,940,936,0,0,0,0,0,0,0,0,0,0,0,0,838,839,839,839,850,0,0,0,0,953,953,953,953,951,947,944,938,938,938,937,934,934,0,0,0,0,0,0,0,0,0,0,0,0,0,948,947,946,944,940,938,936,933,927,931,0,0,946,950,954,956,957,951,957,948,946,944,943,1586,1586,1582,1570,1566,1558,1551,1528,1513,1495,1484,1463,1426,1410,1394,1378,1366,1345,1337,1331,1328,1320,1317,1314,1314,1314,1314,1311,1311,1311,1311,1311,1311,1311,1309,1309,1309,1306,1306,1306,1303,1300,1300,1300,1300,1298,1298,1298,1298,1298,1295,1295,1295,1292,1292,1292,1292,1292,1295,1295,1292,1290,1290,1290,1290,1287,1287,1290,1290,1290,1292,1292,1292,1292,1292,1292,1292,1290,1290,1290,1290,1290,1287,1287,1287,1284,1284,1282,1282,1282,1282,1282,1282,1282,1284,1284,1287,1284,1284,1287,1287,1290,1292,1292,1292,1292,1292
