# .PCD v0.7 - Point Cloud Data file format
VERSION 0.7
FIELDS x y z
SIZE 4 4 4
TYPE F F F
COUNT 1 1 1
WIDTH 1580
HEIGHT 1
VIEWPOINT 0 0 0 1 0 0 0
POINTS 1580
DATA ascii
-155.2494473 -272.8889616 853
-150.4844201 -272.2491281 851
-145.7400792 -271.6092947 849
-140.8499354 -270.6495445 846
-135.9908211 -269.6897944 843
-130.5381518 -267.4503773 836
-125.9127574 -266.8105439 834
-221.3537584 -503.5489162 1574
-213.2136831 -503.5489162 1574
-205.0736077 -503.5489162 1574
-155.0674433 -268.1628541 852
-150.1307552 -267.2186187 849
-145.2250966 -266.2743833 846
-140.6834461 -265.9596382 845
-135.8295034 -265.0154028 842
-130.3820057 -262.8121868 835
-125.9127574 -262.4974417 834
-121.4538523 -262.1826966 833
-116.864659 -261.5532063 831
-213.7555222 -496.6678214 1578
-205.5947605 -496.6678214 1578
-237.4261917 -252.9215892 817
-233.2010065 -252.9215892 817
-228.6955571 -252.6120157 816
-224.4755434 -252.6120157 816
-158.1634046 -261.5896486 845
-153.4294069 -260.9705015 843
-148.5392631 -260.0417808 840
-143.8518096 -259.4226337 838
-139.3515318 -259.1130602 837
-134.7002795 -258.4939131 835
-129.6012752 -256.9460453 830
-125.3088593 -256.9460453 830
-120.8706405 -256.6364718 829
-116.7240276 -256.9460453 830
-112.4316118 -256.9460453 830
-205.5947605 -488.5070597 1578
-197.4339988 -488.5070597 1578
-245.2746612 -248.0876 815
-241.0598191 -248.0876 815
-236.5543697 -247.7831981 814
-232.630135 -248.0876 815
-228.1350288 -247.7831981 814
-223.3751731 -247.1743942 812
-218.9059248 -246.8699922 811
-155.9172971 -253.5668354 833
-151.6093665 -253.5668354 833
-147.3014359 -253.5668354 833
-142.6501836 -252.9580315 831
-138.3525961 -252.9580315 831
-133.893691 -252.6536295 830
-129.2889829 -252.0448256 828
-125.0069103 -252.0448256 828
-120.7248376 -252.0448256 828
-116.5833963 -252.3492275 829
-112.296152 -252.3492275 829
-205.5947605 -480.346298 1578
-197.9344652 -481.5639058 1582
-244.9737107 -243.5735276 814
-240.7640402 -243.5735276 814
-236.5543697 -243.5735276 814
-232.3446992 -243.5735276 814
-227.5745004 -242.9750668 812
-223.3751731 -242.9750668 812
-218.6360038 -242.3766061 810
-154.2327164 -246.5658314 824
-150.1533342 -246.8650618 825
-145.8867762 -246.8650618 825
-141.9635401 -247.4635225 827
-137.5201497 -247.1642921 826
-133.2484202 -247.1642921 826
-128.8205446 -246.8650618 825
-124.7049612 -247.1642921 826
-120.5790346 -247.4635225 827
-116.4427649 -247.7627529 828
-112.1606922 -247.7627529 828
-205.5947605 -472.1855363 1578
-197.9344652 -473.3824578 1582
-244.9737107 -239.3638571 814
-240.4682613 -239.0697983 813
-236.2637624 -239.0697983 813
-232.0592635 -239.0697983 813
-227.2942363 -238.4816807 811
-223.1000805 -238.4816807 811
-218.6360038 -238.187622 810
-153.1096627 -240.5400923 818
-149.0613099 -240.8341511 819
-145.002614 -241.1282099 820
-141.1052357 -241.7163275 822
-137.0206818 -242.0103863 823
-132.6031494 -241.7163275 822
-128.5082524 -242.0103863 823
-124.5539867 -242.5985038 825
-120.4332317 -242.8925626 826
-116.3021336 -243.1866214 827
-112.1606922 -243.4806802 828
-205.5947605 -464.0247746 1578
-197.9344652 -465.2010098 1582
-244.6727602 -234.8652994 813
-240.1724823 -234.5764122 812
-235.6825477 -234.287525 811
-231.488392 -234.287525 811
-227.0139721 -233.9986378 810
-222.5498954 -233.7097506 809
-218.0961618 -233.4208634 808
-213.9175209 -233.4208634 808
-209.9984577 -233.7097506 809
-206.0690514 -233.9986378 810
-201.8800673 -233.9986378 810
-190.2479945 -235.1541866 814
-185.8097757 -234.8652994 813
-181.1585233 -234.287525 811
-176.5279573 -233.7097506 809
-171.278977 -232.2653146 804
-166.7052985 -231.6875402 802
-162.557687 -231.6875402 802
-158.6075944 -231.9764274 803
-155.031853 -232.843089 806
-151.6122577 -233.9986378 810
-147.6052776 -234.287525 811
-143.5879543 -234.5764122 812
-139.7319488 -235.1541866 814
-135.8552568 -235.7319611 816
-131.7965609 -236.0208483 817
-127.5713757 -236.0208483 817
-124.2520376 -237.7541715 823
-120.1416258 -238.0430587 824
-116.0208708 -238.3319459 825
-111.8897727 -238.6208331 826
-205.5947605 -455.8640129 1578
-197.9344652 -457.0195618 1582
-244.0708591 -230.0933693 811
-239.5809245 -229.8096537 810
-235.101333 -229.5259381 809
-230.6320847 -229.2422224 808
-226.4534438 -229.2422224 808
-221.9997102 -228.9585068 807
-217.5563199 -228.6747912 806
-213.9175209 -229.2422224 808
-209.9984577 -229.5259381 809
-206.0690514 -229.8096537 810
-201.8800673 -229.8096537 810
-198.4232724 -230.6608005 813
-194.4576649 -230.9445162 814
-190.4817144 -231.2282318 815
-185.8097757 -230.6608005 813
-181.1585233 -230.0933693 811
-176.5279573 -229.5259381 809
-171.7050441 -228.6747912 806
-166.7052985 -227.5399287 802
-162.3549966 -227.2562131 801
-158.2125568 -227.2562131 801
-154.4548113 -227.8236443 803
-151.0507308 -228.9585068 807
-146.8772614 -228.9585068 807
-143.0574569 -229.5259381 809
-139.0453053 -229.8096537 810
-135.355789 -230.6608005 813
-131.4739255 -231.2282318 815
-127.4152296 -231.5119474 816
-124.1010631 -233.2142411 822
-119.9958229 -233.4979568 823
-115.8802395 -233.7816724 824
-111.8897727 -234.3491036 826
-206.1159132 -448.8381137 1582
-197.9344652 -448.8381137 1582
-244.0708591 -225.8992136 811
-239.2851456 -225.3421255 809
-234.8107257 -225.0635815 808
-230.6320847 -225.0635815 808
-226.1731796 -224.7850374 807
-221.7246177 -224.5064934 806
-217.5563199 -224.5064934 806
-213.6527715 -224.7850374 807
-209.9984577 -225.3421255 809
-205.8146452 -225.3421255 809
-201.8800673 -225.6206695 810
-198.6673354 -226.7348457 814
-194.6965564 -227.0133897 815
-190.2479945 -226.7348457 814
-185.8097757 -226.4563017 813
-181.1585233 -225.8992136 811
-176.5279573 -225.3421255 809
-171.7050441 -224.5064934 806
-166.9131604 -223.6708613 803
-162.3549966 -223.1137732 801
-158.2125568 -223.1137732 801
-154.2624641 -223.3923173 802
-150.3020283 -223.6708613 803
-146.3312493 -223.9494053 804
-142.5269596 -224.5064934 806
-138.7019835 -225.0635815 808
-135.0228104 -225.8992136 811
-131.1512901 -226.4563017 813
-127.1029373 -226.7348457 814
-123.3461904 -227.5704778 817
-119.9958229 -229.241742 823
-115.8802395 -229.5202861 824
-111.8897727 -230.0773741 826
-206.1159132 -440.6566657 1582
-198.4349316 -441.7708419 1586
-244.0708591 -221.7050579 811
-239.5809245 -221.4316854 810
-235.101333 -221.158313 809
-230.6320847 -220.8849405 808
-226.1731796 -220.6115681 807
-221.7246177 -220.3381956 806
-217.5563199 -220.3381956 806
-213.6527715 -220.6115681 807
-209.9984577 -221.158313 809
-205.8146452 -221.158313 809
-201.8800673 -221.4316854 810
-198.6673354 -222.5251752 814
-194.4576649 -222.5251752 814
-190.2479945 -222.5251752 814
-185.8097757 -222.2518028 813
-181.1585233 -221.7050579 811
-176.5279573 -221.158313 809
-171.7050441 -220.3381956 806
-166.9131604 -219.5180783 803
-162.3549966 -218.9713334 801
-158.015038 -218.6979609 800
-153.8777697 -218.6979609 800
-149.927677 -218.9713334 801
-145.9672412 -219.2447058 802
-141.8196298 -219.2447058 802
-138.01534 -219.7914507 804
-134.5233426 -220.8849405 808
-130.667337 -221.4316854 810
-126.7906451 -221.9784303 812
-123.1952159 -223.0719201 816
-119.8500199 -224.7121548 822
-115.8802395 -225.2588997 824
-111.8897727 -225.8056446 826
-206.1159132 -432.4752177 1582
-197.9344652 -432.4752177 1582
-239.5809245 -217.2427013 810
-235.101333 -216.9745004 809
-230.9175205 -216.9745004 809
-226.4534438 -216.7062995 808
-221.9997102 -216.4380987 807
-217.5563199 -216.1698978 806
-213.6527715 -216.4380987 807
-209.9984577 -216.9745004 809
-205.8146452 -216.9745004 809
-201.8800673 -217.2427013 810
-198.4232724 -218.0473039 813
-194.2187735 -218.0473039 813
-190.0142746 -218.0473039 813
-185.5812274 -217.779103 812
-180.9351466 -217.2427013 810
-176.5279573 -216.9745004 809
-171.7050441 -216.1698978 806
-166.9131604 -215.3652952 803
-162.3549966 -214.8288935 801
-158.015038 -214.5606926 800
-153.8777697 -214.5606926 800
-149.7405014 -214.5606926 800
-145.7852372 -214.8288935 801
-141.8196298 -215.0970944 802
-137.8436792 -215.3652952 803
-134.5233426 -216.7062995 808
-130.667337 -217.2427013 810
-126.9467912 -218.0473039 813
-123.1952159 -218.8519065 816
-119.9958229 -220.7293125 823
-115.8802395 -220.9975134 824
-111.8897727 -221.5339151 826
-206.637066 -425.3665731 1586
-198.935398 -426.4393766 1590
-240.1724823 -213.5797757 812
-235.6825477 -213.3167464 811
-231.488392 -213.3167464 811
-227.0139721 -213.0537171 810
-222.5498954 -212.7906879 809
-218.0961618 -212.5276586 808
-214.1822703 -212.7906879 809
-210.2580356 -213.0537171 810
-206.0690514 -213.0537171 810
-202.1293019 -213.3167464 811
-198.4232724 -213.842805 813
-194.4576649 -214.1058343 814
-190.0142746 -213.842805 813
-185.3526791 -213.3167464 811
-180.9351466 -213.0537171 810
-176.3097522 -212.5276586 808
-171.9180777 -212.2646293 807
-167.1210224 -211.4755415 804
-162.557687 -210.9494829 802
-158.2125568 -210.6864536 801
-154.0701169 -210.6864536 801
-149.927677 -210.6864536 801
-145.9672412 -210.9494829 802
-141.9964622 -211.2125122 803
-138.01534 -211.4755415 804
-134.5233426 -212.5276586 808
-130.8286547 -213.3167464 811
-127.1029373 -214.1058343 814
-123.3461904 -214.8949221 817
-120.1416258 -216.7361271 824
-116.1615022 -217.2621856 826
-112.1606922 -217.7882442 828
-207.1582187 -418.2165559 1590
-199.560981 -419.5317023 1595
-241.355598 -210.4118792 816
-236.2637624 -209.6383061 813
-231.7738277 -209.3804484 812
-227.2942363 -209.1225907 811
-223.1000805 -209.1225907 811
-218.0961618 -208.3490176 808
-213.9175209 -208.3490176 808
-209.9984577 -208.6068753 809
-206.0690514 -208.864733 810
-201.8800673 -208.864733 810
-197.9351462 -209.1225907 811
-193.979882 -209.3804484 812
-189.7805547 -209.3804484 812
-185.1241308 -208.864733 810
-180.4883932 -208.3490176 808
-176.3097522 -208.3490176 808
-171.9180777 -208.0911599 807
-167.1210224 -207.3175868 804
-162.7603774 -207.0597291 803
-158.4100756 -206.8018714 802
-154.2624641 -206.8018714 802
-150.1148527 -206.8018714 802
-146.1492452 -207.0597291 803
-141.9964622 -207.0597291 803
-138.01534 -207.3175868 804
-134.5233426 -208.3490176 808
-130.8286547 -209.1225907 811
-127.1029373 -209.8961638 814
-123.497165 -210.9275946 818
-120.1416258 -212.4747407 824
-116.3021336 -213.2483138 827
-112.296152 -213.7640292 829
-207.8096597 -411.2830236 1595
-200.0614475 -412.3144544 1599
-241.9471559 -206.6972378 818
-236.844977 -205.9391794 815
-232.3446992 -205.6864933 814
-228.1350288 -205.6864933 814
-223.3751731 -205.1811211 812
-218.0961618 -204.1703767 808
-214.1822703 -204.4230628 809
-209.9984577 -204.4230628 809
-205.8146452 -204.4230628 809
-201.6308326 -204.4230628 809
-197.4470201 -204.4230628 809
-193.502099 -204.6757489 810
-189.079395 -204.4230628 809
-184.6670341 -204.1703767 808
-180.2650164 -203.9176905 807
-176.0915471 -203.9176905 807
-171.9180777 -203.9176905 807
-167.1210224 -203.1596322 804
-162.7603774 -202.9069461 803
-158.6075944 -202.9069461 803
-154.4548113 -202.9069461 803
-150.4892039 -203.1596322 804
-146.3312493 -203.1596322 804
-142.1732947 -203.1596322 804
-138.3586618 -203.6650044 806
-134.6898318 -204.4230628 809
-130.9899724 -205.1811211 812
-127.2590834 -205.9391794 815
-123.497165 -206.6972378 818
-120.2874288 -208.4660405 825
-116.3021336 -208.9714127 827
-112.296152 -209.476785 829
-208.3308124 -404.0450894 1599
-200.0614475 -404.0450894 1599
-242.5387137 -202.96191 820
-237.4261917 -202.2193664 817
-232.9155707 -201.9718519 816
-228.4152929 -201.7243374 815
-223.9253583 -201.4768228 814
-218.6360038 -200.4867647 810
-214.1822703 -200.2392502 809
-209.9984577 -200.2392502 809
-205.560239 -199.9917357 808
-201.381598 -199.9917357 808
-196.958894 -199.7442212 807
-193.0243161 -199.9917357 808
-188.6119552 -199.7442212 807
-183.7528409 -199.0016776 804
-179.3715095 -198.7541631 803
-175.2187265 -198.7541631 803
-171.0659435 -198.7541631 803
-166.7052985 -198.5066485 802
-162.557687 -198.5066485 802
-158.6075944 -198.7541631 803
-154.4548113 -198.7541631 803
-150.4892039 -199.0016776 804
-146.6952574 -199.4967066 806
-142.1732947 -199.0016776 804
-138.3586618 -199.4967066 806
-134.6898318 -200.2392502 809
-130.9899724 -200.9817938 812
-127.2590834 -201.7243374 815
-123.6481395 -202.7143955 819
-120.4332317 -204.4469971 826
-116.4427649 -204.9420262 828
-112.4316118 -205.4370552 830
-209.3731179 -397.7558407 1607
-201.0623803 -397.7558407 1607
-238.8792284 -199.2058959 822
-234.0573137 -198.72121 820
-229.2560854 -198.2365241 818
-224.750636 -197.9941812 817
-218.9059248 -196.5401235 811
-214.4470197 -196.2977806 810
-209.9984577 -196.0554377 809
-205.560239 -195.8130947 808
-200.8831287 -195.3284088 806
-196.7148309 -195.3284088 806
-192.5465331 -195.3284088 806
-188.3782353 -195.3284088 806
-183.2957443 -194.3590371 802
-178.9247561 -194.1166942 801
-174.7823162 -194.1166942 801
-170.8529099 -194.3590371 802
-166.4974365 -194.1166942 801
-162.557687 -194.3590371 802
-158.6075944 -194.60138 803
-154.6471585 -194.843723 804
-150.8635552 -195.3284088 806
-146.8772614 -195.5707518 807
-142.703792 -195.5707518 807
-138.7019835 -195.8130947 808
-135.0228104 -196.5401235 811
-131.1512901 -197.0248094 813
-127.4152296 -197.7518382 816
-123.799114 -198.72121 820
-120.4332317 -200.1752676 826
-116.4427649 -200.6599535 828
-112.5670716 -201.3869823 831
-209.8942707 -390.4144748 1611
-201.5628467 -390.4144748 1611
-239.460443 -195.4291954 824
-234.6281852 -194.9548527 822
-229.5363496 -194.2433387 819
-224.750636 -193.7689959 817
-219.1758458 -192.5831392 812
-214.4470197 -192.1087965 810
-209.9984577 -191.8716251 809
-205.3058327 -191.3972824 807
-200.8831287 -191.1601111 806
-196.2267048 -190.6857683 804
-192.0687501 -190.6857683 804
-187.9107955 -190.6857683 804
-183.2957443 -190.2114256 802
-178.9247561 -189.9742543 801
-174.7823162 -189.9742543 801
-170.6398764 -189.9742543 801
-166.4974365 -189.9742543 801
-162.557687 -190.2114256 802
-158.6075944 -190.448597 803
-154.6471585 -190.6857683 804
-151.0507308 -191.3972824 807
-146.8772614 -191.3972824 807
-142.8806245 -191.6344538 808
-138.8736444 -191.8716251 809
-135.1892997 -192.5831392 812
-131.3126078 -193.0574819 814
-127.4152296 -193.5318246 816
-123.799114 -194.48051 820
-120.4332317 -195.9035381 826
-116.4427649 -196.3778808 828
-112.5670716 -197.0893949 831
-210.4154234 -383.0317362 1615
-202.5637795 -383.9804216 1619
-239.460443 -191.1678091 824
-234.6281852 -190.7038096 822
-229.5363496 -190.0078102 819
-225.0257286 -189.7758105 818
-219.4457668 -188.6158116 813
-214.7117691 -188.1518121 811
-209.9984577 -187.6878126 809
-205.3058327 -187.223813 807
-200.3846594 -186.5278137 804
-196.2267048 -186.5278137 804
-192.0687501 -186.5278137 804
-187.6770756 -186.295814 803
-183.2957443 -186.0638142 802
-178.9247561 -185.8318144 801
-174.7823162 -185.8318144 801
-170.6398764 -185.8318144 801
-166.7052985 -186.0638142 802
-162.7603774 -186.295814 803
-158.6075944 -186.295814 803
-155.031853 -186.9918133 806
-151.0507308 -187.223813 807
-147.0592655 -187.4558128 808
-142.8806245 -187.4558128 808
-138.8736444 -187.6878126 809
-135.1892997 -188.3838119 812
-131.3126078 -188.8478114 814
-127.5713757 -189.5438107 817
-123.799114 -190.23981 820
-120.4332317 -191.6318086 826
-116.5833963 -192.3278079 829
-112.5670716 -192.7918075 831
-109.0512133 -194.1838061 837
-202.5637795 -375.6076249 1619
-239.460443 -186.9064228 824
-234.913621 -186.6795946 823
-229.5363496 -185.7722818 819
-225.3008212 -185.7722818 819
-219.4457668 -184.4113127 813
-214.7117691 -183.9576564 811
-209.9984577 -183.504 809
-205.560239 -183.2771718 808
-200.3846594 -182.3698591 804
-196.2267048 -182.3698591 804
-191.8298587 -182.1430309 803
-187.6770756 -182.1430309 803
-183.2957443 -181.9162027 802
-178.9247561 -181.6893746 801
-174.7823162 -181.6893746 801
-170.8529099 -181.9162027 802
-166.7052985 -181.9162027 802
-162.7603774 -182.1430309 803
-158.8051132 -182.3698591 804
-155.031853 -182.8235155 806
-151.2379064 -183.2771718 808
-147.2412695 -183.504 809
-143.0574569 -183.504 809
-139.0453053 -183.7308282 810
-135.5222783 -184.6381409 814
-131.6352432 -185.0917973 816
-127.7275218 -185.5454537 818
-124.1010631 -186.4527664 822
-120.4332317 -187.3600791 826
-116.5833963 -188.0405637 829
-112.4316118 -188.2673919 830
-211.5880171 -368.3689691 1624
-203.1893625 -368.3689691 1624
-244.9049451 -183.5316628 828
-239.7510504 -182.866693 825
-235.1990567 -182.6450364 824
-229.8166137 -181.75841 820
-225.3008212 -181.5367534 819
-219.7156878 -180.4284705 814
-214.9765185 -179.9851573 812
-210.2580356 -179.5418441 810
-205.8146452 -179.3201875 809
-201.1323633 -178.8768743 807
-196.7148309 -178.6552177 806
-192.0687501 -178.2119045 804
-187.9107955 -178.2119045 804
-183.2957443 -177.7685913 802
-179.1481328 -177.7685913 802
-175.0005214 -177.7685913 802
-170.8529099 -177.7685913 802
-166.9131604 -177.9902479 803
-162.9630678 -178.2119045 804
-159.2001508 -178.6552177 806
-155.2242002 -178.8768743 807
-151.425082 -179.3201875 809
-147.4232735 -179.5418441 810
-143.2342894 -179.5418441 810
-139.388627 -179.9851573 812
-135.5222783 -180.4284705 814
-131.6352432 -180.8717837 816
-127.7275218 -181.3150968 818
-124.1010631 -182.2017232 822
-120.4332317 -183.0883496 826
-116.4427649 -183.5316628 828
-112.296152 -183.7533194 829
-210.9365762 -358.8620315 1619
-203.1893625 -359.9703145 1624
-240.0416577 -178.8166201 826
-235.1990567 -178.3836501 824
-230.3771421 -177.9506801 822
-225.5759137 -177.5177101 820
-220.2555298 -176.65177 816
-215.2412679 -176.002315 813
-210.5176134 -175.5693449 811
-206.0690514 -175.3528599 810
-201.381598 -174.9198899 808
-196.958894 -174.7034049 807
-192.5465331 -174.4869199 806
-187.9107955 -174.0539499 804
-183.5242926 -173.8374648 803
-179.3715095 -173.8374648 803
-175.0005214 -173.6209798 802
-170.8529099 -173.6209798 802
-166.9131604 -173.8374648 803
-162.9630678 -174.0539499 804
-159.2001508 -174.4869199 806
-155.2242002 -174.7034049 807
-151.2379064 -174.9198899 808
-147.4232735 -175.3528599 810
-143.2342894 -175.3528599 810
-139.388627 -175.78583 812
-135.5222783 -176.2188 814
-131.6352432 -176.65177 816
-127.7275218 -177.08474 818
-124.1010631 -177.9506801 822
-120.4332317 -178.8166201 826
-116.4427649 -179.2495902 828
-112.4316118 -179.6825602 830
-210.9365762 -350.4892348 1619
-202.5637795 -350.4892348 1619
-240.0416577 -174.5448906 826
-235.1990567 -174.1222638 824
-230.6574062 -173.9109503 823
-225.5759137 -173.2770101 820
-220.2555298 -172.4317564 816
-215.5060173 -172.0091295 814
-211.036769 -171.7978161 813
-206.3234577 -171.3751892 811
-201.381598 -170.7412489 808
-196.958894 -170.5299355 807
-192.5465331 -170.3186221 806
-188.3782353 -170.3186221 806
-183.5242926 -169.6846818 803
-179.3715095 -169.6846818 803
-175.2187265 -169.6846818 803
-171.0659435 -169.6846818 803
-166.9131604 -169.6846818 803
-162.9630678 -169.8959952 804
-159.2001508 -170.3186221 806
-155.2242002 -170.5299355 807
-151.2379064 -170.7412489 808
-147.4232735 -171.1638758 810
-143.2342894 -171.1638758 810
-139.2169661 -171.3751892 811
-135.5222783 -172.0091295 814
-131.6352432 -172.4317564 816
-127.7275218 -172.8543832 818
-124.1010631 -173.6996369 822
-120.5790346 -174.7562041 827
-116.5833963 -175.1788309 829
-112.4316118 -175.3901443 830
-209.8942707 -340.4259307 1611
-201.5628467 -340.4259307 1611
-240.0416577 -170.2731611 826
-235.4844925 -170.0670193 825
-230.6574062 -169.6547356 823
-226.4011915 -169.6547356 823
-220.7953718 -168.6240264 818
-216.0355161 -168.2117427 816
-211.5559247 -168.0056009 815
-206.5778639 -167.3871753 812
-201.8800673 -166.9748917 810
-197.4470201 -166.7687498 809
-193.0243161 -166.562608 808
-188.6119552 -166.3564661 807
-183.7528409 -165.7380406 804
-179.5948863 -165.7380406 804
-175.2187265 -165.5318988 803
-171.0659435 -165.5318988 803
-167.1210224 -165.7380406 804
-163.3684485 -166.1503243 806
-159.2001508 -166.1503243 806
-155.2242002 -166.3564661 807
-151.2379064 -166.562608 808
-147.2412695 -166.7687498 809
-143.4111219 -167.1810335 811
-139.2169661 -167.1810335 811
-135.5222783 -167.799459 814
-131.4739255 -168.0056009 815
-127.7275218 -168.6240264 818
-124.2520376 -169.6547356 823
-120.8706405 -170.8915866 829
-116.7240276 -171.0977285 830
-112.9734509 -171.9222959 834
-209.3731179 -331.2699394 1607
-201.0623803 -331.2699394 1607
-240.332265 -166.2024019 827
-236.055364 -166.2024019 827
-231.2179345 -165.8004614 825
-226.9513766 -165.8004614 825
-221.8750557 -165.1975506 822
-216.8297644 -164.5946398 819
-212.3346581 -164.3936696 818
-207.8498951 -164.1926993 817
-202.6277712 -163.3888183 813
-198.1792093 -163.187848 812
-193.502099 -162.7859075 810
-189.079395 -162.5849373 809
-184.4384858 -162.1829968 807
-180.0416397 -161.9820265 806
-175.4369317 -161.580086 804
-171.278977 -161.580086 804
-167.1210224 -161.580086 804
-163.3684485 -161.9820265 806
-159.2001508 -161.9820265 806
-155.2242002 -162.1829968 807
-151.0507308 -162.1829968 807
-147.2412695 -162.5849373 809
-143.4111219 -162.9868778 811
-139.2169661 -162.9868778 811
-135.355789 -163.3888183 813
-131.6352432 -163.9917291 816
-127.8836679 -164.5946398 819
-124.4030121 -165.5994911 824
-121.1622464 -167.0062829 831
-117.2865531 -167.6091937 834
-113.1089107 -167.8101639 835
-208.8519652 -322.1553207 1603
-200.5619139 -322.1553207 1603
-240.9134797 -162.3170981 829
-236.3407997 -162.1212995 828
-231.7784629 -161.9255008 827
-227.2264692 -161.7297021 826
-222.4148977 -161.3381048 824
-217.6240126 -160.9465074 822
-212.8538138 -160.5549101 820
-208.3587076 -160.3591114 819
-203.1262405 -159.5759167 815
-198.4232724 -159.1843194 813
-193.7409905 -158.7927221 811
-189.3131149 -158.5969234 810
-184.4384858 -158.0095274 807
-180.0416397 -157.8137287 806
-175.4369317 -157.4221314 804
-171.278977 -157.4221314 804
-167.1210224 -157.4221314 804
-163.3684485 -157.8137287 806
-159.2001508 -157.8137287 806
-155.2242002 -158.0095274 807
-151.2379064 -158.205326 808
-147.4232735 -158.5969234 810
-143.2342894 -158.5969234 810
-139.2169661 -158.7927221 811
-135.5222783 -159.3801181 814
-131.7965609 -159.9675141 817
-128.039814 -160.5549101 820
-124.8559357 -161.9255008 827
-121.4538523 -163.1002928 833
-117.5678158 -163.6876888 836
-113.51529 -164.0792862 838
-208.8519652 -313.8652694 1603
-200.5619139 -313.8652694 1603
-241.204087 -158.220481 830
-236.6262355 -158.0298539 829
-232.3389912 -158.0298539 829
-227.7766544 -157.8392268 828
-222.6848187 -157.2673455 825
-218.1535114 -157.0767185 824
-213.3729694 -156.6954643 822
-208.6131138 -156.3142101 820
-203.3754752 -155.5517018 816
-198.6673354 -155.1704476 814
-193.979882 -154.7891934 812
-189.5468348 -154.5985663 811
-184.6670341 -154.0266851 808
-180.2650164 -153.836058 807
-175.4369317 -153.2641767 804
-171.278977 -153.2641767 804
-167.1210224 -153.2641767 804
-163.3684485 -153.6454309 806
-159.2001508 -153.6454309 806
-155.4165474 -154.0266851 808
-151.2379064 -154.0266851 808
-147.4232735 -154.4079393 810
-143.4111219 -154.5985663 811
-139.2169661 -154.5985663 811
-135.5222783 -155.1704476 814
-131.7965609 -155.7423289 817
-128.5082524 -156.8860914 823
-125.0069103 -157.8392268 828
-121.8912611 -159.3642435 836
-117.8490785 -159.7454976 838
-114.0571291 -160.508006 842
-208.3308124 -304.8127097 1599
-199.560981 -304.0502014 1595
-241.4946944 -154.1135206 831
-237.197107 -154.1135206 831
-232.6192554 -153.9280651 830
-228.0517469 -153.7426096 829
-223.2246607 -153.3716986 827
-218.4182608 -153.0007876 825
-213.8921251 -152.8153321 824
-209.3763325 -152.6298766 823
-203.6247098 -151.5171436 817
-198.9113985 -151.1462326 815
-194.2187735 -150.7753216 813
-189.5468348 -150.4044106 811
-184.6670341 -149.8480441 808
-180.2650164 -149.6625886 807
-175.8733419 -149.4771331 806
-171.278977 -149.1062221 804
-167.7446083 -149.6625886 807
-163.7738293 -149.8480441 808
-159.7927071 -150.0334996 809
-155.6088946 -150.0334996 809
-151.6122577 -150.2189551 810
-147.6052776 -150.4044106 811
-143.7647868 -150.7753216 813
-139.5602879 -150.7753216 813
-135.8552568 -151.3316881 816
-132.280514 -152.0735101 820
-129.1328368 -153.3716986 827
-126.5166555 -155.4117091 838
-122.7660788 -156.1535311 842
-118.6928667 -156.5244421 844
-114.7344279 -157.0808086 847
-207.8096597 -295.8015227 1595
-242.6571237 -150.5370689 835
-238.3388499 -150.5370689 835
-233.740312 -150.3567849 834
-229.1521173 -150.176501 833
-224.0344237 -149.6356493 830
-219.212509 -149.2750815 828
-214.4112807 -148.9145136 826
-209.6307387 -148.5539458 824
-203.8739445 -147.4722423 818
-198.9113985 -146.9313906 815
-194.4576649 -146.7511066 814
-189.7805547 -146.3905388 812
-185.1241308 -146.029971 810
-180.7117699 -145.8496871 809
-176.3097522 -145.6694032 808
-172.1311112 -145.6694032 808
-167.9524703 -145.6694032 808
-163.9765197 -145.8496871 809
-159.9902259 -146.029971 810
-155.8012418 -146.029971 810
-151.6122577 -146.029971 810
-147.9692857 -146.5708227 813
-144.1184517 -146.9313906 815
-139.9036096 -146.9313906 815
-136.0217461 -147.2919584 817
-132.9257848 -148.5539458 824
-129.445129 -149.4553654 829
-126.8186046 -151.4384884 840
-122.9118817 -151.9793402 843
-118.833498 -152.339908 845
-115.0053475 -153.0610437 849
-207.8096597 -287.5528441 1595
-243.5289457 -146.7441321 838
-239.1951572 -146.7441321 838
-234.5811045 -146.5690197 837
-229.977395 -146.3939074 836
-224.3043447 -145.5183458 831
-219.4772584 -145.1681211 829
-214.6708585 -144.8178965 827
-209.885145 -144.4676718 825
-204.1231792 -143.4169978 819
-199.1554616 -142.8916608 816
-194.6965564 -142.7165485 815
-190.0142746 -142.3663238 813
-185.5812274 -142.1912115 812
-180.9351466 -141.8409868 810
-176.5279573 -141.6658745 809
-172.3441448 -141.6658745 809
-168.3681942 -141.8409868 810
-164.1792101 -141.8409868 810
-160.1877447 -142.0160992 811
-156.1859362 -142.1912115 812
-152.1737846 -142.3663238 813
-148.3332937 -142.7165485 815
-144.2952841 -142.8916608 816
-140.2469314 -143.0667732 817
-136.521214 -143.5921101 820
-133.2484202 -144.6427841 826
-129.7574213 -145.5183458 831
-127.1205537 -147.4445814 842
-123.0576847 -147.7948061 844
-118.9741294 -148.1450307 846
-114.7344279 -148.320143 847
-207.8096597 -279.3041655 1595
-244.1101604 -142.750225 840
-239.7660287 -142.750225 840
-235.1416328 -142.5802843 839
-230.2524876 -142.2404028 837
-225.1141077 -141.7305806 834
-219.7420078 -141.0508176 830
-214.9304364 -140.7109361 828
-210.1395512 -140.3710546 826
-204.1231792 -139.1814694 819
-199.3995246 -138.8415879 817
-194.9354479 -138.6716472 816
-190.2479945 -138.3317657 814
-185.8097757 -138.1618249 813
-181.3819001 -137.9918842 812
-176.9643676 -137.8219435 811
-172.7702119 -137.8219435 811
-168.5760562 -137.8219435 811
-164.5845908 -137.9918842 812
-160.5827823 -138.1618249 813
-156.5706307 -138.3317657 814
-152.5481358 -138.5017064 815
-148.6973018 -138.8415879 817
-144.6489491 -139.0115287 818
-140.5902531 -139.1814694 819
-137.1871711 -140.0311731 824
-133.7323733 -140.8808769 829
-130.2258596 -141.7305806 834
-127.1205537 -143.0901065 842
-123.0576847 -143.429988 844
-118.833498 -143.5999288 845
-114.7344279 -143.9398102 847
-110.6146715 -144.2796917 849
-240.6223359 -138.9004008 843
-235.421897 -138.4060933 840
-230.8026727 -138.2413242 839
-225.3840286 -137.5822475 835
-220.5362561 -137.2527092 833
-215.1900142 -136.5936326 829
-210.1395512 -136.0993251 826
-204.3724138 -135.1107102 820
-199.6435877 -134.7811718 818
-194.9354479 -134.4516335 816
-190.4817144 -134.2868644 815
-186.038324 -134.1220952 814
-181.6052768 -133.9573261 813
-177.618983 -134.1220952 814
-173.196279 -133.9573261 813
-169.1996421 -134.1220952 814
-165.192662 -134.2868644 815
-161.3728575 -134.6164027 817
-157.3400195 -134.7811718 818
-154.0455408 -135.6050176 823
-150.1533342 -135.934556 825
-146.0636087 -136.0993251 826
-142.3068618 -136.5936326 829
-138.3525961 -136.9231709 831
-134.7002795 -137.5822475 835
-130.8504441 -138.076555 838
-127.2715282 -138.9004008 843
-123.0576847 -139.06517 844
-118.833498 -139.2299391 845
-114.5989682 -139.3947083 846
-110.6146715 -139.8890158 849
-241.4786432 -135.0195471 846
-236.8232178 -134.8599495 845
-231.6279505 -134.3811568 842
-226.1937916 -133.7427665 838
-221.3305043 -133.4235714 836
-215.7091698 -132.6255835 831
-210.6483637 -132.1467908 828
-204.8708831 -131.1892053 822
-199.8876507 -130.7104126 819
-195.1743394 -130.3912175 817
-190.4817144 -130.0720223 815
-186.2668723 -130.0720223 815
-182.0520302 -130.0720223 815
-177.618983 -129.9124247 814
-173.4093126 -129.9124247 814
-169.4075041 -130.0720223 815
-165.3953524 -130.2316199 816
-161.5703763 -130.550815 818
-157.7247139 -130.8700102 820
-154.4198921 -131.667998 825
-150.6993463 -132.1467908 828
-146.7709385 -132.4659859 830
-142.4785227 -132.4659859 830
-138.852064 -133.1043762 834
-134.8615972 -133.4235714 836
-130.8504441 -133.7427665 838
-127.1205537 -134.3811568 842
-122.9118817 -134.5407544 843
-118.6928667 -134.7003519 844
-114.4635084 -134.8599495 845
-110.223807 -135.0195471 846
-242.9058219 -131.4165158 851
-237.3837461 -130.7988119 847
-231.903043 -130.1811079 843
-226.7336336 -129.71783 840
-221.8600031 -129.408978 838
-216.7474811 -128.9457 835
-211.1571762 -128.1735701 830
-205.1201178 -127.0925882 823
-199.8876507 -126.4748842 819
-195.4132309 -126.3204582 818
-190.7154343 -126.0116062 816
-186.2668723 -125.8571803 815
-182.0520302 -125.8571803 815
-178.0553933 -126.0116062 816
-173.8353797 -126.0116062 816
-169.823228 -126.1660322 817
-165.8007331 -126.3204582 818
-162.5579703 -127.0925882 823
-159.0711444 -127.7102921 827
-155.5429458 -128.3279961 831
-151.7913705 -128.791274 834
-147.8319333 -129.100126 836
-143.5084879 -129.100126 836
-139.6845104 -129.563404 839
-135.506868 -129.71783 840
-131.1627363 -129.71783 840
-127.1205537 -130.0266819 842
-122.9118817 -130.1811079 843
-118.4116039 -130.0266819 842
-114.1925888 -130.1811079 843
-109.9632306 -130.3355339 844
-243.7621292 -127.4632599 854
-238.5048028 -127.0154967 851
-232.7283208 -126.2692247 846
-227.8133176 -125.9707159 844
-222.3895019 -125.3736983 840
-217.2666367 -124.925935 837
-212.1748011 -124.4781718 834
-205.6185871 -123.1348822 825
-199.8876507 -122.2393558 819
-195.4132309 -122.0901014 818
-190.9491542 -121.940847 817
-186.4954206 -121.7915926 816
-182.4987837 -121.940847 817
-157.0403508 -125.2244439 839
-153.2474029 -125.6722071 842
-149.2465929 -125.9707159 844
-145.0534357 -126.1199703 845
-140.8499354 -126.2692247 846
-136.4747742 -126.2692247 846
-132.099613 -126.2692247 846
-127.8754263 -126.4184791 847
-239.0653311 -122.9026432 853
-233.5535985 -122.3263119 849
-228.6230806 -122.0381463 847
-225.036996 -122.4703947 850
-219.862415 -122.0381463 847
-213.7012385 -121.0295666 840
-150.838085 -122.9026432 853
-146.9417053 -123.3348916 856
-142.5148283 -123.3348916 856
-241.0271803 -119.4636595 860
-235.4792465 -118.9080146 856
-231.0523695 -118.9080146 856
-226.0959936 -118.6301921 854
-221.4198819 -118.4912809 853
-155.9774635 -119.0469258 857
-151.7222473 -119.185837 858
-147.4566879 -119.3247483 859
-143.1807854 -119.4636595 860
-138.733222 -119.4636595 860
-242.4285011 -115.6847943 865
-236.8547094 -115.1498357 861
-232.1320535 -115.0160961 860
-227.68449 -115.0160961 860
-222.9773488 -114.8823565 859
-171.0512786 -115.818534 866
-165.9956441 -115.417315 863
-161.5325659 -115.417315 863
-156.7054797 -115.1498357 861
-152.2527447 -115.1498357 861
-148.3149923 -115.5510547 864
-144.0132318 -115.6847943 865
-139.5398105 -115.6847943 865
-135.6909736 -116.2197529 869
-131.6497895 -116.6209719 872
-127.577576 -117.0221908 875
-123.1930701 -117.1559304 876
-243.8298219 -111.8542133 870
-238.2301723 -111.3399411 866
-233.7515794 -111.3399411 866
-229.8024853 -111.5970772 868
-224.7943936 -111.3399411 866
-220.0613944 -111.211373 865
-190.7112914 -112.3684856 874
-184.9131245 -111.5970772 868
-179.8006025 -111.211373 865
-175.1244908 -111.0828049 864
-170.656241 -111.0828049 864
-165.9956441 -110.9542369 863
-161.5325659 -110.9542369 863
-157.0694877 -110.9542369 863
-152.783242 -111.0828049 864
-148.658314 -111.3399411 866
-144.5126997 -111.5970772 868
-140.0237636 -111.5970772 868
-135.8471197 -111.8542133 870
-131.9517386 -112.3684856 874
-127.577576 -112.4970536 875
-123.0524388 -112.4970536 875
-118.7982211 -112.7541897 877
-246.3521994 -108.4655023 879
-241.2561907 -108.2187094 877
-236.7207103 -108.2187094 877
-232.7147288 -108.4655023 879
-228.4284831 -108.5888988 880
-198.1351544 -109.4526741 887
-190.9294965 -107.9719164 875
-184.9131245 -107.1081411 868
-179.8006025 -106.7379517 865
-175.1244908 -106.6145552 864
-170.656241 -106.6145552 864
-165.9956441 -106.4911587 863
-161.7197415 -106.6145552 864
-157.2514918 -106.6145552 864
-152.9600745 -106.7379517 865
-140.346399 -107.3549341 870
-136.159412 -107.601727 872
-131.9517386 -107.84852 874
-127.431773 -107.84852 874
-122.9118074 -107.84852 874
-119.2046005 -108.5888988 880
-247.1929918 -104.2743535 882
-243.1818387 -104.5108033 884
-238.6101573 -104.5108033 884
-234.3032252 -104.6290282 885
-230.7646835 -105.1019277 889
-206.6076719 -106.8753011 904
-191.1477016 -103.5650041 876
-184.9131245 -102.619205 868
-179.5927405 -102.1463055 864
-175.1244908 -102.1463055 864
-170.4587222 -102.0280806 863
-165.9956441 -102.0280806 863
-161.5325659 -102.0280806 863
-157.0694877 -102.0280806 863
-140.346399 -102.8556548 870
-136.0032659 -102.9738797 871
-131.9517386 -103.3285544 874
-127.7233789 -103.5650041 876
-123.6149642 -103.9196788 879
-119.7464395 -104.5108033 884
-249.4351052 -100.6174416 890
-244.8323942 -100.6174416 890
-240.4996042 -100.730495 891
-236.1564711 -100.8435483 892
-232.5817282 -101.2957615 896
-230.7464564 -102.5393478 907
-228.0497056 -103.4437743 915
-225.2702096 -104.3482007 923
-219.7801619 -104.0090408 920
-214.0874238 -103.5568276 916
-207.2933168 -102.5393478 907
-191.1477016 -99.03469538 876
-184.4870573 -97.90416232 866
-179.3848785 -97.56500241 863
-174.9218004 -97.56500241 863
-170.0636846 -97.3388958 861
-165.6109496 -97.3388958 861
-160.971039 -97.22584249 860
-156.5234756 -97.22584249 860
-152.2527447 -97.3388958 861
-139.7011282 -97.90416232 866
-135.6909736 -98.24332224 869
-131.3478405 -98.35637554 870
-127.577576 -98.92164207 875
-123.6149642 -99.37385529 879
-119.7464395 -99.93912182 884
-251.6772185 -96.87778444 898
-247.0331348 -96.87778444 898
-242.6589722 -96.98566616 899
-238.8039651 -97.30931132 902
-234.9179286 -97.63295648 905
-232.7817062 -98.71177368 915
-229.7943482 -99.46694572 922
-225.5142726 -99.68270916 924
-220.2579448 -99.46694572 922
-214.0874238 -98.8196554 916
-190.9294965 -94.39650489 875
-184.0609902 -93.20980597 864
-178.9691546 -92.88616081 861
-174.3137292 -92.77827909 860
-169.4711282 -92.56251565 858
-164.8415608 -92.45463393 857
-160.4095121 -92.45463393 857
-155.9774635 -92.45463393 857
-151.5454148 -92.45463393 857
-138.8945397 -92.88616081 861
-134.9102431 -93.20980597 864
-130.7439424 -93.42556941 866
-126.9943642 -93.96497801 871
-123.1930701 -94.50438661 876
-255.6009167 -93.67164268 912
-251.7097086 -93.97977309 915
-241.1477963 -95.41771497 929
-237.3610185 -95.82855551 933
-233.2836333 -96.13668591 936
-227.7108402 -95.82855551 933
-222.4079681 -95.62313524 931
-215.9571829 -94.9041643 924
-178.9691546 -88.43342582 861
-258.6838225 -90.02808088 923
-254.1855418 -90.12561943 924
-243.2244189 -91.39362057 937
-239.1418622 -91.68623622 940
-233.7821026 -91.49115912 938
-228.4430294 -91.29608202 936
-223.1246426 -91.10100492 934
-216.6583426 -90.41823508 927
-184.9131245 -84.66346068 868
-174.5164196 -83.98069083 861
-250.4529391 -87.37914777 946
-245.8201971 -87.47151473 947
-240.9227058 -87.47151473 947
-235.7759798 -87.37914777 946
-229.6633448 -86.91731295 941
-224.5579915 -86.82494599 940
-218.060662 -86.17837724 933
-211.6357347 -85.53180849 926
-201.4858052 -83.31500136 902
-194.2025736 -82.2065978 890
-258.8542317 -83.62036795 959
-252.5709343 -83.18439105 954
-248.1563975 -83.35878181 956
-243.2123619 -83.35878181 956
-237.5206224 -83.09719568 953
-230.8836601 -82.48682803 946
-225.5135574 -82.31243727 944
-218.2943819 -81.44048349 934
-211.864283 -80.83011584 927
-202.1559354 -78.91181751 905
-195.9482147 -78.30144986 898
-263.8137821 -78.66081759 959
-259.1241527 -78.74284139 960
-254.1594308 -78.74284139 960
-248.935131 -78.66081759 959
-243.2123619 -78.41474622 956
-237.0221531 -78.00462725 951
-230.8836601 -77.59450828 946
-224.7968829 -77.18438932 941
-264.0888746 -73.77811945 960
-259.1241527 -73.77811945 960
-253.8946813 -73.70126724 959
-248.4159754 -73.54756283 957
-242.7035495 -73.3170062 954
-237.0221531 -73.08644958 951
-230.395534 -72.54848413 944
-224.5579915 -72.24107529 940
-218.2943819 -71.77996205 934
-197.2690706 -71.16514439 926
-193.3116304 -71.47255322 930
-189.1101272 -71.70310984 933
-181.5757682 -72.54848413 944
-177.0681429 -72.70218854 946
-264.0888746 -68.81339751 960
-259.1241527 -68.81339751 960
-253.3651825 -68.59835564 957
-248.1563975 -68.52667502 956
-242.7035495 -68.38331378 954
-237.0221531 -68.16827191 951
-230.8836601 -67.8098688 946
-225.2746659 -67.59482693 943
-219.6967012 -67.37978506 940
-214.1497661 -67.1647432 937
-198.973339 -66.94970133 934
-194.9745261 -67.23642382 938
-190.7316502 -67.45146569 941
-186.260226 -67.59482693 943
-181.9604627 -67.8098688 946
-177.2553185 -67.88154942 947
-172.3578272 -67.88154942 947
-167.4603359 -67.88154942 947
-156.1669497 -67.23642382 938
-148.7349194 -66.08953386 922
-258.0444687 -63.58263943 956
-252.5709343 -63.44962135 954
-247.3776641 -63.38311231 953
-241.9403308 -63.25009424 951
-236.7729184 -63.1835852 950
-231.3717862 -63.05056713 948
-226.4691233 -63.05056713 948
-221.3327405 -62.98405809 947
-215.7496042 -62.78453098 944
-210.6442509 -62.71802194 943
-196.2216979 -62.78453098 944
-191.3397214 -62.78453098 944
-186.4577448 -62.78453098 944
-181.5757682 -62.78453098 944
-177.2553185 -62.98405809 947
-172.3578272 -62.98405809 947
-156.4999282 -62.51849483 940
-258.0444687 -58.63860383 956
-252.3061849 -58.45459147 953
-246.8585084 -58.33191657 951
-241.6859245 -58.27057912 950
-236.7729184 -58.27057912 950
-231.8599123 -58.27057912 950
-226.9469063 -58.27057912 950
-222.0339002 -58.27057912 950
-216.6637975 -58.14790422 948
-211.5377578 -58.08656676 947
-206.4220614 -58.02522931 946
-201.5297416 -58.02522931 946
-196.6374219 -58.02522931 946
-191.7451021 -58.02522931 946
-186.4577448 -57.90255441 944
-181.9604627 -58.02522931 946
-177.2553185 -58.08656676 947
-172.3578272 -58.08656676 947
-167.4603359 -58.08656676 947
-162.3911837 -58.02522931 946
-156.9993961 -57.84121696 943
-149.3801902 -56.79848028 926
-124.0368583 -54.0996324 882
-257.5046267 -53.5822365 954
-252.3061849 -53.52607063 953
-246.8585084 -53.4137389 951
-241.9403308 -53.4137389 951
-237.0221531 -53.4137389 951
-232.1039754 -53.4137389 951
-227.1857977 -53.4137389 951
-222.2676201 -53.4137389 951
-217.1208941 -53.35757304 950
-211.7611346 -53.2452413 948
-206.8584716 -53.2452413 948
-201.9558087 -53.2452413 948
-196.8452839 -53.18907544 947
-191.7451021 -53.13290957 946
-186.8527824 -53.13290957 946
-181.9604627 -53.13290957 946
-177.2553185 -53.18907544 947
-172.3578272 -53.18907544 947
-167.2835034 -53.13290957 946
-162.3911837 -53.13290957 946
-156.9993961 -52.96441197 943
-149.3801902 -52.00959224 926
-124.318121 -49.65062586 884
-257.2347057 -48.59754979 953
-252.3061849 -48.59754979 953
-246.8585084 -48.49556123 951
-241.9403308 -48.49556123 951
-237.5206224 -48.59754979 953
-232.5921015 -48.59754979 953
-227.6635807 -48.59754979 953
-222.7350599 -48.59754979 953
-217.3494424 -48.49556123 951
-212.4312647 -48.49556123 951
-206.4220614 -48.24058983 946
-201.5297416 -48.24058983 946
-196.013836 -48.08760698 943
-190.7316502 -47.98561842 941
-185.6676696 -47.93462414 940
-181.9604627 -48.24058983 946
-176.6937917 -48.13860127 944
-169.8097706 -47.57766417 933
-164.6310166 -47.47567561 931
-159.4729489 -47.37368705 929
-153.8360997 -47.11871565 924
-147.7670132 -46.7107614 916
-124.4587524 -45.12993869 885
-121.3719568 -45.69087578 896
-255.3452588 -43.34827008 946
-250.4529391 -43.34827008 946
-246.079775 -43.43991548 948
-241.177112 -43.43991548 948
-236.2744491 -43.43991548 948
-231.3717862 -43.43991548 948
-226.4691233 -43.43991548 948
-221.3327405 -43.39409278 947
-215.7496042 -43.25662469 944
-210.6442509 -43.210802 943
-205.3310357 -43.11915661 941
-200.4645739 -43.11915661 941
-194.9745261 -42.98168852 938
-189.3128175 -42.79839774 934
-173.511806 -42.47763887 927
-167.8077262 -42.24852539 922
-162.6858596 -42.15688 920
-157.5846793 -42.06523461 918
-152.3376961 -41.92776652 915
-145.8312008 -41.42371687 904
-125.4431719 -40.87384452 892
-254.5354958 -38.33399701 943
-249.9234402 -38.37464812 944
-246.079775 -38.53725256 948
-241.177112 -38.53725256 948
-236.2744491 -38.53725256 948
-231.1277231 -38.49660145 947
-225.9913403 -38.45595034 946
-220.6315808 -38.37464812 944
-215.0639593 -38.25269479 941
-209.5273673 -38.13074146 938
-204.4582151 -38.09009035 937
-199.3994061 -38.04943924 936
-193.9352163 -37.92748591 933
-188.502056 -37.80553258 930
-176.9594351 -37.39902147 920
-171.8272254 -37.31771925 918
-150.6728032 -36.78925482 905
-144.8632946 -36.50469705 898
-125.4431719 -36.26079039 892
-253.7257328 -33.35075345 940
-249.6586908 -33.45719202 943
-245.8201971 -33.59911012 947
-240.9227058 -33.59911012 947
-236.0252145 -33.59911012 947
-230.395534 -33.49267155 944
-225.2746659 -33.45719202 943
-219.9304211 -33.38623297 941
-214.3783144 -33.2797944 938
-208.6338604 -33.1378763 934
-203.1489843 -33.03143772 931
-198.1212048 -32.9959582 930
-192.6880445 -32.88951962 927
-180.7296997 -32.46376533 915
-175.2283102 -32.32184723 911
-158.972378 -31.89609293 899
-153.8081401 -31.78965435 896
-149.0079104 -31.75417483 895
-144.3793415 -31.75417483 895
-138.970042 -31.5767772 890
-134.3673311 -31.5767772 890
-129.7646201 -31.5767772 890
-125.4431719 -31.64773625 892
-252.9159699 -28.3985394 937
-249.129192 -28.51977116 941
-245.5606193 -28.67131086 946
-240.6682996 -28.67131086 946
-235.2775105 -28.61069498 944
-229.4192817 -28.48946322 940
-222.8857511 -28.27730764 933
-217.3595023 -28.18638382 930
-211.864283 -28.09546 927
-205.5065863 -27.88330443 920
-199.8759072 -27.76207267 916
-194.4996344 -27.67114885 913
-189.362253 -27.61053297 911
-183.8401772 -27.48930121 907
-176.9768425 -27.15591388 896
-171.381366 -27.00437418 891
-165.8376053 -26.85283448 886
-160.8915726 -26.7922186 884
-155.9662262 -26.73160272 882
-151.2332271 -26.70129478 881
-146.6770604 -26.70129478 881
-142.2822114 -26.73160272 882
-138.0331653 -26.7922186 884
-134.2163565 -26.9437583 889
-129.7646201 -26.97406624 890
-125.4431719 -27.03468212 892
-122.3201752 -27.36806945 903
-251.8362859 -23.45221851 933
-209.8073482 -23.07517319 918
-204.3897027 -22.99976413 915
-199.0030866 -22.92435507 912
-192.7953659 -22.74840059 905
-187.4914953 -22.67299153 902
-181.610583 -22.5221734 896
-175.5942109 -22.34621892 889
-170.0349355 -22.22053715 884
-164.5273759 -22.09485538 879
-159.4355403 -22.01944632 876
-154.5515666 -21.96917361 874
-149.6882793 -21.9189009 872
-145.1786568 -21.9189009 872
-141.3143052 -22.01944632 876
-137.2524348 -22.09485538 879
-133.763433 -22.27080986 886
-129.6188172 -22.34621892 889
-125.4431719 -22.42162798 892
-122.3201752 -22.69812788 903
-217.86903 -18.20786923 912
-212.4513845 -18.14797492 909
-207.2933168 -18.10804538 907
-201.9325587 -18.04815108 904
-190.6650304 -17.86846816 895
-185.2050136 -17.78860908 891
-179.7863696 -17.70875001 887
-174.0140606 -17.58896139 881
-168.688505 -17.50910232 877
-163.7786734 -17.46917278 875
-158.7075241 -17.40927847 872
-153.6674043 -17.34938417 869
-149.3449575 -17.36934893 870
-145.0121675 -17.3893137 871
-140.9916698 -17.44920801 874
-136.7839964 -17.48913755 876
-133.4614839 -17.6488557 884
-129.3272113 -17.70875001 887
-125.3025405 -17.78860908 891
-121.9137959 -17.968292 900
-215.4801152 -13.34345155 902
-210.1141855 -13.299072 899
-205.236382 -13.28427882 898
-199.9221682 -13.23989927 895
-194.2025736 -13.16593335 890
-189.3868291 -13.15114017 889
-183.9578418 -13.09196743 885
-178.7729176 -13.04758788 882
-173.0264666 -12.95882878 876
-168.1114634 -12.92924241 874
-163.2171465 -12.89965605 872
-158.343516 -12.87006968 870
-153.4905719 -12.84048331 868
-149.3449575 -12.87006968 870
-145.0121675 -12.88486286 871
-140.9916698 -12.92924241 874
-136.9401425 -12.97362196 877
-133.6124584 -13.09196743 885
-129.6188172 -13.15114017 889
-125.3025405 -13.18072653 891
-121.7783361 -13.299072 899
-234.3032252 -8.515114395 885
-212.6134174 -8.563222386 890
-207.3095468 -8.534357592 887
-202.265254 -8.515114395 885
-197.4650242 -8.505492797 884
-192.2387273 -8.476628003 881
-186.6173929 -8.428520012 876
-181.2556362 -8.390033619 872
-176.5433234 -8.380412021 871
-171.8413538 -8.370790423 870
-167.1497273 -8.361168824 869
-162.468444 -8.351547226 868
-157.9795079 -8.351547226 868
-153.4905719 -8.351547226 868
-149.0016358 -8.351547226 868
-145.0121675 -8.380412021 871
-140.9916698 -8.409276815 874
-136.9401425 -8.43814161 877
-133.6124584 -8.515114395 885
-129.3272113 -8.534357592 887
-125.1619091 -8.563222386 890
-234.0384758 -3.933811346 884
-225.6583316 -3.947161385 887
-221.8188394 -3.960511423 890
-217.4601915 -3.964961436 891
-212.374526 -3.95606141 889
-206.6083871 -3.933811346 884
-201.3510607 -3.920461308 881
-196.5715173 -3.916011295 880
-191.3659068 -3.902661256 877
-185.7652587 -3.880411192 872
-180.6320503 -3.867061154 869
-175.5298715 -3.853711115 866
-171.0512786 -3.853711115 866
-166.5726857 -3.853711115 866
-162.0940928 -3.853711115 866
-157.6154999 -3.853711115 866
-153.1369069 -3.853711115 866
-149.0016358 -3.862611141 868
-145.1786568 -3.880411192 872
-141.1529875 -3.893761231 875
-136.9401425 -3.902661256 877
-133.6124584 -3.938261359 885
-129.6188172 -3.95606141 889
-125.1619091 -3.960511423 890
-228.4284831 0.6349838147 880
-224.1318942 0.6357053872 881
-220.5726661 0.6385916773 885
-215.9958131 0.6385916773 885
-211.1800686 0.6378701048 884
-205.4397876 0.6342622422 879
-199.9797709 0.6313759521 875
-194.7845035 0.6292112346 872
-189.8384708 0.6277680896 870
-184.4870573 0.6248817995 866
-179.5927405 0.6234386545 864
-174.9218004 0.6227170819 863
-170.4587222 0.6227170819 863
-166.1879913 0.6234386545 864
-161.7197415 0.6234386545 864
-157.4334958 0.624160227 865
-152.9600745 0.624160227 865
-149.0016358 0.6263249445 868
-145.0121675 0.6284896621 871
-141.1529875 0.6313759521 875
-136.9401425 0.6328190972 877
-133.4614839 0.6378701048 884
-219.5757275 5.191872082 881
-215.0195608 5.191872082 881
-210.2245026 5.185978924 880
-204.2711882 5.150619977 874
-198.8370293 5.127047346 870
-193.8909966 5.11526103 868
-188.52924 5.091688398 864
-183.4218896 5.074008925 861
-178.7612926 5.068115767 860
-174.3137292 5.068115767 860
-169.8661658 5.068115767 860
-165.4186024 5.068115767 860
-161.7197415 5.091688398 864
-157.4334958 5.097581556 865
-152.9600745 5.097581556 865
-149.0016358 5.11526103 868
-145.0121675 5.132940503 871
-213.7992455 9.692715061 876
-209.0300452 9.681650318 875
-201.7002693 9.548873399 863
-196.3229979 9.504614426 859
-191.6572294 9.493549683 858
-186.7835989 9.471420197 856
-181.7176211 9.438225967 853
-177.3062588 9.438225967 853
-172.8948965 9.438225967 853
-169.0760906 9.471420197 856
-165.033908 9.493549683 858
-161.1582146 9.526743913 861
-157.2514918 9.559938142 864
-152.9600745 9.571002886 865
