# .PCD v0.7 - Point Cloud Data file format
VERSION 0.7
FIELDS x y z
SIZE 4 4 4
TYPE F F F
COUNT 1 1 1
WIDTH 1671
HEIGHT 1
VIEWPOINT 0 0 0 1 0 0 0
POINTS 1671
DATA ascii
-57.92655995 -16.95008879 849
-53.53588399 -16.95008879 849
-49.14520803 -16.95008879 849
-44.80724647 -16.97005356 850
-36.18503632 -17.04991263 854
-31.73130278 -17.02994786 853
-27.31994047 -17.02994786 853
-22.90857817 -17.02994786 853
-18.49721586 -17.02994786 853
-9.674491252 -17.02994786 853
-5.306319923 -17.16970125 860
-0.8647478446 -17.28948986 866
8.307364167 -17.74867954 889
117.9809959 -17.6488557 884
123.6617514 -17.80857385 892
127.9871938 -17.76864431 890
133.9307016 -17.94832723 899
139.0424038 -18.00822154 902
145.4597003 -18.227834 913
149.1944047 -18.10804538 907
153.8850326 -18.10804538 907
158.0511545 -18.04815108 904
162.5462607 -18.02818631 903
167.0310238 -18.00822154 902
171.3150935 -17.968292 900
175.9695203 -17.968292 900
180.4232539 -17.94832723 899
184.4549145 -17.88843293 896
189.088655 -17.88843293 896
194.1548116 -17.92836246 898
199.0202748 -17.94832723 899
205.0288373 -18.06811585 905
210.4042904 -18.12801015 908
215.810773 -18.18790446 911
220.5220872 -18.18790446 911
226.4695892 -18.2877283 916
231.2067614 -18.2877283 916
235.6863528 -18.26776353 915
239.8928488 -18.227834 913
244.6145063 -18.227834 913
249.0630682 -18.20786923 912
253.501287 -18.18790446 911
258.2126013 -18.18790446 911
448.7889008 -31.04521562 1555
-382.9460344 -13.49138339 912
-378.644274 -13.50617657 913
-376.7894931 -13.60972886 920
-373.6491635 -13.66890159 924
-370.0682505 -13.71328114 927
-366.850347 -13.77245387 931
-362.813336 -13.80204024 933
-359.1393344 -13.84641979 936
-355.0557791 -13.87600616 938
-321.7837961 -13.90559253 940
-316.2482026 -13.87600616 938
-311.0652756 -13.86121298 937
-305.2390748 -13.81683343 934
-298.1573562 -13.71328114 927
-292.4139008 -13.66890159 924
-287.0127685 -13.63931522 922
-280.4078343 -13.55055612 916
-273.2630581 -13.43221065 908
-267.6799218 -13.3878311 905
-262.4184224 -13.35824474 903
-256.8921736 -13.31386518 900
-121.7783361 -13.299072 899
-117.5199455 -13.34345155 902
-112.9802921 -13.35824474 903
-108.1904055 -13.34345155 902
-103.2960886 -13.31386518 900
-98.42245814 -13.28427882 898
-93.46508371 -13.23989927 895
-88.34022144 -13.16593335 890
-82.5143783 -12.97362196 877
-77.00082739 -12.81089694 866
-71.93602704 -12.70734466 859
-67.02220122 -12.61858556 853
-53.40976883 -12.52982646 847
-48.97155005 -12.51503327 846
-44.64910325 -12.52982646 847
-40.41139892 -12.57420601 850
-36.10029385 -12.60379237 852
-31.69410313 -12.60379237 852
-27.31994047 -12.61858556 853
-22.93543465 -12.63337874 854
-18.56227055 -12.66296511 856
-14.13539349 -12.66296511 856
-9.719858151 -12.67775829 857
-5.33100048 -12.78131058 864
-0.8677435069 -12.8552765 869
3.64722932 -12.92924241 874
8.279330317 -13.10676062 886
117.4471452 -13.01800151 880
122.9685801 -13.1215538 887
127.9871938 -13.16593335 890
133.9307016 -13.299072 899
138.7341058 -13.31386518 900
143.8664944 -13.35824474 903
148.536436 -13.35824474 903
153.0367138 -13.34345155 902
157.1769777 -13.299072 899
161.646226 -13.28427882 898
165.9199526 -13.25469245 896
170.363343 -13.23989927 895
174.9919119 -13.23989927 895
179.4197875 -13.22510608 894
183.6314551 -13.19551972 892
188.0334728 -13.18072653 891
192.6413553 -13.18072653 891
197.4706175 -13.19551972 892
203.4429788 -13.28427882 898
208.5505081 -13.31386518 900
229.4398975 -13.44700384 909
234.65603 -13.4765902 911
238.8418397 -13.44700384 909
243.5428107 -13.44700384 909
247.9706864 -13.43221065 908
252.3882188 -13.41741747 907
256.5119694 -13.3878311 905
446.480019 -22.88505493 1547
453.3053343 -22.8258822 1543
-384.2619719 -8.697924761 904
-380.0067557 -8.707546359 905
-376.5706471 -8.736411154 908
-374.7417241 -8.803762341 915
-371.2228702 -8.832627136 918
-367.2737761 -8.851870332 920
-363.6980347 -8.880735126 923
-358.9246614 -8.880735126 923
-354.534984 -8.890356725 924
-320.4145033 -9.005815903 936
-314.8995962 -8.986572707 934
-309.0733955 -8.957707912 931
-303.6050326 -8.938464716 929
-296.5491719 -8.871113528 922
-290.8315744 -8.842248734 919
-285.1450065 -8.813383939 916
-278.8772239 -8.765275948 911
-272.9621076 -8.726789555 907
-266.2010272 -8.659438368 900
-243.1818387 -8.505492797 884
-238.6101573 -8.505492797 884
-234.3032252 -8.515114395 885
-125.1619091 -8.563222386 890
-121.236497 -8.611330377 895
-116.7382163 -8.620951975 896
-112.1044759 -8.620951975 896
-107.3507904 -8.611330377 895
-102.6074481 -8.601708779 894
-97.54564337 -8.563222386 890
-92.62964162 -8.534357592 887
-87.44689336 -8.476628003 881
-81.76168158 -8.361168824 869
-76.91191189 -8.322682432 865
-72.01977096 -8.274574441 860
-67.25791822 -8.236088048 856
-62.53743816 -8.197601655 852
-58.06301828 -8.187980057 851
-49.02943604 -8.149493664 847
-44.64910325 -8.149493664 847
-40.41139892 -8.178358459 850
-36.10029385 -8.197601655 852
-31.73130278 -8.207223253 853
-27.35196854 -8.216844852 854
-23.01600409 -8.245709646 857
-18.60564034 -8.255331244 858
-14.18493342 -8.264952843 859
-9.787908499 -8.303439235 863
-5.355681038 -8.351547226 868
-0.8687420609 -8.370790423 870
3.651402351 -8.418898413 875
8.241951851 -8.486249601 882
112.7678591 -8.457384806 879
122.6913116 -8.515114395 885
147.8784673 -8.64981677 899
152.0187312 -8.620951975 896
156.4776363 -8.611330377 895
160.5661844 -8.582465583 892
164.99406 -8.572843984 891
169.4115925 -8.563222386 890
174.0143035 -8.563222386 890
178.4163211 -8.553600788 889
182.6021308 -8.534357592 887
186.9782906 -8.524735994 886
191.7765232 -8.534357592 887
196.3637194 -8.534357592 887
202.0836716 -8.582465583 892
232.852965 -8.697924761 904
237.5280782 -8.697924761 904
246.8783045 -8.697924761 904
251.2751506 -8.688303163 903
255.0947762 -8.659438368 900
259.749203 -8.659438368 900
452.1302071 -14.80763961 1539
458.8934633 -14.76915322 1535
-380.8614234 -3.9872115 896
-377.4873739 -4.000561539 899
-374.0822948 -4.013911577 902
-371.8748476 -4.040611654 908
-367.5834303 -4.045061667 909
-364.0800911 -4.058411706 912
-360.9397614 -4.076211757 916
-355.8137218 -4.071761744 915
-351.465417 -4.076211757 916
-346.7282449 -4.076211757 916
-323.1701386 -4.138511937 930
-317.3335946 -4.125161898 927
-313.2138382 -4.134061924 929
-306.0855753 -4.102911834 922
-300.3369483 -4.089561795 919
-294.297714 -4.071761744 915
-288.2998524 -4.053961693 911
-282.3433634 -4.036161641 907
-276.7343692 -4.022811603 904
-270.5545035 -4.000561539 899
-265.0179116 -3.9872115 896
-258.6405271 -3.960511423 890
-253.1815089 -3.947161385 887
-248.0337843 -3.938261359 885
-242.356561 -3.920461308 881
-238.0703153 -3.924911321 882
-234.0384758 -3.933811346 884
-133.6124584 -3.938261359 885
-129.6188172 -3.95606141 889
-125.1619091 -3.960511423 890
-120.694658 -3.964961436 891
-116.47764 -3.978311475 894
-111.8542427 -3.978311475 894
-106.8710103 -3.964961436 891
-102.0335809 -3.95606141 889
-96.99763414 -3.938261359 885
-92.10749032 -3.924911321 882
-87.04985866 -3.902661256 877
-81.47942031 -3.853711115 866
-76.73408088 -3.840361077 863
-71.93602704 -3.822561025 859
-67.25791822 -3.809210987 856
-62.53743816 -3.791410935 852
-57.99478912 -3.78251091 850
-53.40976883 -3.769160871 847
-48.97155005 -3.764710858 846
-36.01555137 -3.78251091 850
-31.65690347 -3.786960923 851
-27.28791241 -3.791410935 852
-23.01600409 -3.813661 857
-18.60564034 -3.818111012 858
-14.18493342 -3.822561025 859
-9.753883325 -3.827011038 860
-5.355681038 -3.862611141 868
-0.8687420609 -3.871511167 870
3.638883258 -3.880411192 872
8.223262617 -3.916011295 880
12.78877393 -3.920461308 881
112.5112769 -3.902661256 877
147.0560064 -3.978311475 894
151.3400762 -3.969411449 892
155.6034596 -3.960511423 890
160.0261636 -3.95606141 889
164.0681675 -3.942711372 886
168.459842 -3.938261359 885
173.036695 -3.938261359 885
177.4128548 -3.933811346 884
181.5728065 -3.924911321 882
185.9231083 -3.920461308 881
190.479275 -3.920461308 881
195.0354417 -3.920461308 881
200.7243644 -3.942711372 886
206.0015574 -3.95606141 889
210.8359912 -3.960511423 890
215.922834 -3.969411449 892
222.266551 -4.000561539 899
226.9158062 -4.000561539 899
231.8226421 -4.005011552 900
236.477069 -4.005011552 900
241.6673435 -4.013911577 902
245.5128271 -4.000561539 899
249.8838153 -3.996111526 898
253.677583 -3.982761487 895
258.0175417 -3.978311475 894
262.640939 -3.978311475 894
458.8934633 -6.830769702 1535
464.702972 -6.799619612 1528
-378.7360807 0.6429211124 891
-375.387889 0.64508583 894
-372.4233932 0.64797212 898
-370.2366324 0.6523015551 904
-366.7746659 0.6544662727 907
-362.4832486 0.6551878452 908
-349.9306336 0.6580741353 912
-345.592672 0.6587957078 913
-321.7801595 0.6681761505 926
-316.3066251 0.6667330055 924
-304.0936952 0.6609604253 916
-298.0492893 0.6580741353 912
-292.3678929 0.6559094177 909
-286.4010608 0.6530231276 905
-280.786895 0.6508584101 902
-275.2037588 0.6486936925 899
-269.3507015 0.6458074025 895
-262.9474591 0.6414779674 889
-257.4780977 0.6393132498 886
-251.7543301 0.6364269598 882
-246.6324635 0.6349838147 880
-241.2561907 0.6328190972 877
-237.2605523 0.6342622422 879
-232.7147288 0.6342622422 879
-228.4284831 0.6349838147 880
-224.1318942 0.6357053872 881
-141.1529875 0.6313759521 875
-136.9401425 0.6328190972 877
-133.4614839 0.6378701048 884
-129.1814083 0.6393132498 886
-124.7400151 0.6400348223 887
-120.5591982 0.6421995399 890
-116.0867754 0.6429211124 891
-111.4788929 0.6429211124 891
-106.7510653 0.6421995399 890
-101.4597137 0.6378701048 884
-96.4496249 0.6349838147 880
-91.48090875 0.6320975247 876
-86.35504793 0.6277680896 870
-81.19715904 0.6227170819 863
-76.46733436 0.6205523644 860
-71.85228312 0.6191092194 858
-67.10077355 0.6162229293 854
-62.46403741 0.6140582117 851
-57.92655995 0.6126150667 849
-53.34671125 0.6104503492 846
-48.91366405 0.6097287766 845
-44.54367443 0.6097287766 845
-40.22122763 0.6104503492 846
-35.88843766 0.6111719217 847
-31.58250417 0.6126150667 849
-27.25588434 0.6140582117 851
-22.93543465 0.6162229293 854
-18.58395544 0.6183876468 857
-14.16842011 0.6191092194 858
-9.753883325 0.6205523644 860
-5.33717062 0.624160227 865
-0.8667449528 0.6263249445 868
3.630537195 0.6277680896 870
8.176539534 0.6313759521 875
12.71619292 0.6320975247 876
105.7596456 0.6198307919 859
110.3303285 0.6205523644 860
116.2459813 0.6284896621 871
120.0572609 0.6248817995 866
141.7953267 0.6421995399 890
145.4110846 0.6378701048 884
149.4737748 0.6357053872 881
154.0299415 0.6357053872 881
158.4061012 0.6349838147 880
162.0312038 0.6313759521 875
166.5563409 0.6313759521 875
170.8859564 0.6306543796 874
175.0045355 0.6292112346 872
179.308293 0.6284896621 871
183.6017074 0.6277680896 870
188.1009867 0.6277680896 870
192.3788863 0.627046517 869
196.872994 0.627046517 869
201.8305472 0.6284896621 871
207.0456812 0.6306543796 874
212.0497787 0.6320975247 876
217.3218001 0.6342622422 879
222.624851 0.6364269598 882
227.9589314 0.6385916773 885
232.7985368 0.6393132498 886
237.3805614 0.6393132498 886
241.6894906 0.6385916773 885
246.2663436 0.6385916773 885
249.7094421 0.6357053872 881
253.9769985 0.6349838147 880
257.6466482 0.6328190972 877
261.8831752 0.6320975247 876
266.109359 0.6313759521 875
-378.6113217 5.185978924 880
-377.0358065 5.227231029 887
-373.7083012 5.244910503 890
-370.7644917 5.268483134 894
-368.5984172 5.303842082 900
-365.157137 5.321521555 903
-360.8864061 5.327414713 904
-357.39341 5.345094187 907
-353.0916496 5.350987345 908
-348.3958501 5.350987345 908
-344.0785749 5.356880502 909
-309.5051706 5.409918923 918
-303.0977552 5.380453134 913
-297.068864 5.356880502 909
-291.7246192 5.345094187 907
-285.7681303 5.321521555 903
-280.1643077 5.303842082 900
-274.2853925 5.28026945 896
-268.44785 5.256696819 892
-261.7643434 5.215444714 885
-256.3156684 5.19776524 882
-251.1834586 5.185978924 880
-245.791671 5.168299451 877
-240.7060055 5.156513135 875
-236.4507893 5.162406293 876
-232.18523 5.168299451 877
-228.1689053 5.180085766 879
-223.877488 5.185978924 880
-219.5757275 5.191872082 881
-215.0195608 5.191872082 881
-210.2245026 5.185978924 880
-204.2711882 5.150619977 874
-198.8370293 5.127047346 870
-193.8909966 5.11526103 868
-188.52924 5.091688398 864
-183.4218896 5.074008925 861
-178.7612926 5.068115767 860
-174.3137292 5.068115767 860
-169.8661658 5.068115767 860
-165.4186024 5.068115767 860
-161.7197415 5.091688398 864
-157.4334958 5.097581556 865
-152.9600745 5.097581556 865
-149.0016358 5.11526103 868
-145.0121675 5.132940503 871
-141.1529875 5.156513135 875
-136.7839964 5.162406293 876
-133.1595348 5.19776524 882
-129.0356054 5.215444714 885
-124.5993837 5.221337872 886
-120.1528189 5.227231029 887
-115.826199 5.239017345 889
-110.9784264 5.227231029 887
-106.2712852 5.221337872 886
-101.1153934 5.191872082 881
-96.12081936 5.168299451 877
-91.0631877 5.138833661 872
-86.15653057 5.11526103 868
-80.72672358 5.056329451 858
-76.11167234 5.044543135 856
-71.43356352 5.026863662 853
-66.86505655 5.015077346 851
-62.17043442 4.991504715 847
-57.6536433 4.979718399 845
-53.15753852 4.967932083 843
-48.74000607 4.962038925 842
-44.38553121 4.962038925 842
-40.07859916 4.967932083 843
-35.76132395 4.973825241 844
-31.47090522 4.985611557 846
-27.12777207 4.991504715 847
-22.85486521 5.015077346 851
-18.49721586 5.026863662 853
-14.10236687 5.03275682 854
-9.719858151 5.050436293 857
-5.306319923 5.068115767 860
-0.8597550741 5.074008925 861
3.601325976 5.085795241 863
8.083093368 5.097581556 865
12.5565147 5.097581556 865
144.2596394 5.168299451 877
148.4557922 5.156513135 875
152.9809294 5.156513135 875
157.3260596 5.150619977 874
161.1053112 5.127047346 870
165.2238902 5.11526103 868
169.7128263 5.11526103 868
173.8003758 5.103474714 866
178.0731039 5.097581556 865
182.3354888 5.091688398 864
186.8037385 5.091688398 864
191.0506086 5.085795241 863
195.740238 5.091688398 864
200.6719333 5.103474714 866
205.624315 5.11526103 868
210.355317 5.121154188 869
215.5911373 5.138833661 872
220.8579871 5.156513135 875
225.8982857 5.168299451 877
230.4337661 5.168299451 877
234.9692464 5.168299451 877
239.2316313 5.162406293 876
243.483673 5.156513135 875
247.7253716 5.150619977 874
251.6681167 5.138833661 872
255.5901755 5.127047346 870
259.7905014 5.121154188 869
468.0483468 9.06956996 1539
471.3679681 8.981172592 1524
-376.8903611 9.692715061 876
-374.9104637 9.75910352 882
-371.6088163 9.79229775 885
-368.6908648 9.836556723 889
-366.5506482 9.902945182 895
-363.135226 9.936139412 898
-358.8903529 9.947204155 899
-356.2112929 10.00252787 904
-325.1583821 10.20169325 922
-319.6951909 10.17956376 920
-307.8194126 10.10211056 913
-302.4337951 10.07998107 911
-296.4152471 10.0357221 907
-290.7597087 10.00252787 904
-284.8187345 9.958268898 900
-278.919133 9.914009925 896
-273.0609041 9.869750953 892
-266.9430975 9.814427236 887
-259.9896699 9.725909291 879
-254.2814171 9.681650318 875
-248.8999726 9.648456088 872
-243.8298219 9.626326602 870
-239.0554501 9.615261858 869
-235.1011844 9.637391345 871
-230.5967335 9.637391345 871
-226.3518605 9.648456088 872
-221.8422381 9.648456088 872
-218.5787889 9.703779804 877
-213.7992455 9.692715061 876
-209.0300452 9.681650318 875
-201.7002693 9.548873399 863
-196.3229979 9.504614426 859
-191.6572294 9.493549683 858
-186.7835989 9.471420197 856
-181.7176211 9.438225967 853
-177.3062588 9.438225967 853
-172.8948965 9.438225967 853
-169.0760906 9.471420197 856
-165.033908 9.493549683 858
-161.1582146 9.526743913 861
-157.2514918 9.559938142 864
-152.9600745 9.571002886 865
-148.658314 9.582067629 866
-145.0121675 9.637391345 871
-140.9916698 9.670585575 874
-136.7839964 9.692715061 876
-132.8575858 9.736974034 880
-128.4523936 9.748038777 881
-123.7555956 9.736974034 880
-119.2046005 9.736974034 880
-114.5233172 9.725909291 879
-109.7272604 9.703779804 877
-104.831945 9.670585575 874
-99.62333883 9.604197115 868
-94.80559721 9.571002886 865
-90.12331535 9.548873399 863
-85.36246117 9.515679169 860
-80.35037522 9.44929071 854
-75.75601032 9.427161224 852
-71.26607568 9.41609648 851
-66.70791188 9.393966994 849
-62.02363292 9.349708021 845
-57.58541413 9.338643278 844
-53.09448094 9.316513792 842
-48.62423409 9.294384305 840
-44.28010239 9.294384305 840
-40.03105634 9.316513792 842
-35.71895271 9.327578535 843
-31.39650591 9.338643278 844
-27.06371594 9.349708021 845
-22.82800872 9.405031737 850
-18.47553097 9.427161224 852
-14.08585356 9.438225967 853
-9.685832976 9.44929071 854
-5.293979644 9.493549683 858
-0.8567594118 9.493549683 858
3.584633851 9.504614426 859
8.036370285 9.515679169 860
12.48393369 9.515679169 860
16.9118093 9.504614426 859
21.30448237 9.48248494 857
118.1163813 9.427161224 852
144.0951472 9.692715061 876
148.2861284 9.670585575 874
152.281588 9.637391345 871
156.6060319 9.626326602 870
160.1794186 9.571002886 865
164.4624898 9.559938142 864
168.3441745 9.526743913 861
172.7969095 9.526743913 861
177.0437796 9.515679169 860
181.491343 9.515679169 860
185.7226984 9.504614426 859
190.1650902 9.504614426 859
194.8340332 9.515679169 860
199.976765 9.548873399 863
204.9136319 9.571002886 865
209.6291191 9.582067629 866
214.8494247 9.615261858 869
219.5959415 9.626326602 870
224.0952207 9.626326602 870
228.5945 9.626326602 870
232.8258554 9.615261858 869
236.5006766 9.582067629 866
240.7010025 9.571002886 865
245.4578625 9.582067629 866
249.6478452 9.571002886 865
253.8274847 9.559938142 864
257.996781 9.548873399 863
262.4598592 9.548873399 863
470.1307819 16.81840969 1520
465.4128655 16.37581997 1480
-377.0665527 14.06066054 866
-373.8786802 14.10936953 869
-370.6597782 14.15807851 872
-367.8297436 14.22302383 876
-364.543611 14.27173281 879
-361.2264489 14.3204418 882
-358.6870216 14.40162344 887
-354.8982467 14.4340961 889
-331.4276997 14.82376799 913
-326.7060423 14.82376799 913
-321.6317185 14.80753166 912
-319.3476961 14.92118596 919
-304.7850482 14.67764103 904
-299.777955 14.6614047 903
-294.1275881 14.61269571 900
-289.1515245 14.59645939 899
-283.5528735 14.5477504 896
-277.6739583 14.48280509 892
-272.1425379 14.4340961 889
-266.040246 14.35291446 884
-260.2854488 14.28796914 880
-253.4095951 14.15807851 872
-248.0436654 14.10936953 869
-242.7087652 14.06066054 866
-238.2301723 14.06066054 866
-233.7515794 14.06066054 866
-230.0672347 14.10936953 869
-225.3135492 14.0931332 868
-220.8246131 14.0931332 868
-200.5316698 13.93076991 858
-195.637353 13.89829726 856
-190.7637225 13.8658246 854
-186.1289835 13.84958827 853
-181.291554 13.81711561 851
-176.8905349 13.81711561 851
-172.4895158 13.81711561 851
-168.4835342 13.84958827 853
-164.8415608 13.91453359 857
-160.971039 13.96324257 860
-157.0694877 14.01195156 863
-152.9600745 14.04442421 865
-148.658314 14.06066054 866
-144.8456783 14.12560586 870
-140.5077167 14.14184219 871
-136.4717042 14.19055117 874
-132.4046622 14.23926016 877
-127.8691818 14.23926016 877
-123.3337015 14.23926016 877
-118.7982211 14.23926016 877
-114.0021644 14.2067875 875
-109.3519106 14.19055117 874
-104.47211 14.14184219 871
-99.1642451 14.02818789 864
-94.36718982 13.9794789 861
-89.70559431 13.94700624 859
-85.06468514 13.91453359 857
-80.16220104 13.83335194 852
-75.57817931 13.80087929 850
-71.09858784 13.78464296 849
-66.47219488 13.73593397 846
-62.02363292 13.71969764 845
-57.51718497 13.68722499 843
-53.09448094 13.67098866 842
-48.62423409 13.638516 840
-44.28010239 13.638516 840
-39.9359707 13.638516 840
-35.67658148 13.67098866 842
-31.35930626 13.68722499 843
-27.03168788 13.70346131 844
-22.74743928 13.7521703 847
-18.43216118 13.80087929 850
-14.05282694 13.81711561 851
-9.663149527 13.83335194 852
-5.269299086 13.8658246 854
-0.8527651955 13.8658246 854
3.572114757 13.89829726 856
7.998991819 13.89829726 856
12.42586888 13.89829726 856
16.81337037 13.8658246 854
21.22990426 13.8658246 854
25.55634527 13.81711561 851
29.88695932 13.78464296 849
85.53168271 13.55733436 835
89.84995648 13.55733436 835
94.28100657 13.57357069 836
98.72239983 13.58980701 837
103.2972558 13.62227967 839
107.7645069 13.638516 840
112.6424893 13.70346131 844
117.7004786 13.78464296 849
127.5246725 13.89829726 856
133.9554866 14.10936953 869
143.4371785 14.15807851 872
147.4378096 14.10936953 869
151.4074113 14.06066054 866
155.7059972 14.04442421 865
159.253526 13.96324257 860
163.5107393 13.94700624 859
167.7576094 13.93076991 858
172.1948296 13.93076991 858
176.426185 13.91453359 857
180.8582336 13.91453359 857
185.2902823 13.91453359 857
189.5009513 13.89829726 856
194.1543796 13.91453359 857
199.0498738 13.94700624 859
203.72916 13.96324257 860
208.4187894 13.9794789 861
213.3659994 14.01195156 863
218.0814867 14.02818789 864
222.8073172 14.04442421 865
227.2807385 14.04442421 865
231.2183121 14.01195156 863
235.1351993 13.9794789 861
239.3096672 13.96324257 860
243.7572306 13.96324257 860
247.9161838 13.94700624 859
252.0647938 13.93076991 858
256.2030606 13.91453359 857
260.6351093 13.91453359 857
263.2113785 13.81711561 851
455.6643528 23.5264401 1449
-374.8894941 18.43221389 861
-371.7274795 18.49643763 864
-369.3845725 18.6034772 869
-366.1501557 18.66770094 872
-362.8847095 18.73192468 875
-359.1786799 18.77474051 877
-356.6651106 18.88178008 882
-353.3014042 18.94600382 885
-329.9756616 19.45979376 909
-325.2746905 19.45979376 909
-320.2210531 19.43838584 908
-315.1777588 19.41697793 907
-304.7850482 19.35275419 904
-293.8007797 19.24571462 899
-282.9199429 19.13867505 894
-276.7400773 19.03163548 889
-270.9180495 18.94600382 885
-265.1373945 18.86037217 881
-252.5377731 18.6034772 869
-246.9019224 18.51784554 865
-242.1482369 18.49643763 864
-237.4048946 18.47502972 863
-232.9418164 18.47502972 863
-229.0082371 18.51784554 865
-224.2752379 18.49643763 864
-219.8069882 18.49643763 864
-215.0895038 18.47502972 863
-205.446673 18.41080597 860
-200.2979499 18.34658223 857
-194.4946114 18.21813475 851
-190.0935923 18.21813475 851
-185.474368 18.19672684 850
-181.0785205 18.19672684 850
-176.6826729 18.19672684 850
-172.2868254 18.19672684 850
-168.2860154 18.23954266 852
-164.2645191 18.28235849 854
-160.7838634 18.38939806 859
-156.7054797 18.43221389 861
-152.6064096 18.47502972 863
-148.4866532 18.51784554 865
-144.679189 18.6034772 869
-140.346399 18.62488511 870
-136.0032659 18.64629303 871
-132.1027131 18.73192468 875
-127.577576 18.73192468 875
-123.0524388 18.73192468 875
-118.1209223 18.66770094 872
-113.4810117 18.64629303 871
-108.8514442 18.62488511 870
-104.1122749 18.58206929 868
-98.81992481 18.43221389 861
-94.14798613 18.38939806 859
-89.49673379 18.34658223 857
-84.76690911 18.28235849 854
-80.06811395 18.21813475 851
-75.48926381 18.17531892 849
-70.84735608 18.11109518 846
-66.47219488 18.11109518 846
-62.02363292 18.08968727 845
-57.51718497 18.04687144 843
-53.09448094 18.02546352 842
-48.62423409 17.9826477 840
-44.38553121 18.02546352 842
-40.07859916 18.04687144 843
-35.71895271 18.04687144 843
-31.39650591 18.06827935 844
-27.06371594 18.08968727 845
-22.74743928 18.13250309 847
-18.41047628 18.17531892 849
-14.03631363 18.19672684 850
-9.640466077 18.19672684 850
-5.256958807 18.23954266 852
-0.8507680873 18.23954266 852
3.555422632 18.23954266 852
7.961613352 18.23954266 852
12.36780407 18.23954266 852
16.754307 18.21813475 851
21.15532614 18.21813475 851
25.43622144 18.13250309 847
29.78135169 18.11109518 846
34.07576464 18.06827935 844
38.34949125 18.02546352 842
42.50109692 17.93983187 838
46.77899656 17.91842395 837
51.04655303 17.89701604 836
55.36999838 17.89701604 836
59.62204009 17.87560813 835
63.86373864 17.85420021 834
68.25858763 17.87560813 835
72.489943 17.85420021 834
76.80304519 17.85420021 834
80.82436267 17.78997647 831
85.01951694 17.76856856 830
89.31193278 17.76856856 830
93.71712495 17.78997647 831
98.01471238 17.78997647 831
102.6816583 17.85420021 834
106.9947605 17.85420021 834
111.4413253 17.87560813 835
116.8686731 18.04687144 843
151.0577406 18.49643763 864
154.4459487 18.36799015 858
158.6979904 18.34658223 857
162.3686386 18.26095058 853
166.780001 18.26095058 853
171.1913633 18.26095058 853
175.6027256 18.26095058 853
179.8030514 18.23954266 852
184.2092421 18.23954266 852
188.3940532 18.21813475 851
193.0216236 18.23954266 852
197.6595371 18.26095058 853
202.0708994 18.26095058 853
206.7243277 18.28235849 854
211.1408615 18.28235849 854
215.5573954 18.28235849 854
220.4890908 18.32517432 856
224.9159678 18.32517432 856
228.5390732 18.26095058 853
232.4042446 18.21813475 851
236.5269967 18.19672684 850
240.6394056 18.17531892 849
244.1642509 18.11109518 846
248.8331939 18.13250309 847
252.9145733 18.11109518 846
257.2897345 18.11109518 846
261.3555991 18.08968727 845
451.5762668 30.74176439 1436
454.8473468 30.46346151 1423
-377.5798958 22.77863088 857
-374.0186706 22.83178988 859
-370.0065189 22.85836938 860
-367.6842983 22.99126687 865
-364.4705679 23.07100537 868
-360.8110825 23.12416437 870
-356.7213571 23.15074387 871
-328.5236235 24.05444684 905
-323.8433387 24.05444684 905
-318.8103876 24.02786735 904
-313.4402849 23.97470835 902
-307.7485454 23.89496985 899
-281.3376166 23.62917486 889
-275.4949026 23.52285686 885
-263.9335924 23.31022086 877
-257.9192175 23.17732337 872
-251.3753437 22.99126687 865
-246.3310509 22.93810787 863
-241.0271803 22.85836938 860
-236.3045243 22.83178988 859
-232.1320535 22.85836938 860
-227.68449 22.85836938 860
-222.9773488 22.83178988 859
-218.534957 22.83178988 859
-209.1620472 22.77863088 857
-204.0133242 22.69889238 854
-199.3630704 22.67231288 853
-193.5804182 22.51283589 847
-189.2000854 22.51283589 847
-184.8197526 22.51283589 847
-180.4394198 22.51283589 847
-176.059087 22.51283589 847
-172.084135 22.56599489 849
-167.8909778 22.59257438 850
-164.0721719 22.67231288 853
-160.4095121 22.77863088 857
-156.3414716 22.83178988 859
-152.0759122 22.85836938 860
-147.8000097 22.88494888 861
-144.1797211 23.01784637 866
-139.7011282 23.01784637 866
-135.5348275 23.07100537 868
-131.498815 23.15074387 871
-126.9943642 23.15074387 871
-122.4899133 23.15074387 871
-117.8500027 23.12416437 870
-113.0901471 23.07100537 868
-108.3509778 23.01784637 866
-103.2726598 22.88494888 861
-98.59037794 22.83178988 859
-93.59997689 22.69889238 854
-89.07901274 22.67231288 853
-84.46913309 22.61915388 851
-79.87993977 22.56599489 849
-75.22251729 22.48625639 846
-70.76361216 22.45967689 845
-66.31505021 22.43309739 844
-61.95023217 22.43309739 844
-57.51718497 22.40651789 843
-53.09448094 22.37993839 842
-48.74000607 22.37993839 842
-44.38553121 22.37993839 842
-40.07859916 22.40651789 843
-35.76132395 22.43309739 844
-31.39650591 22.43309739 844
-27.06371594 22.45967689 845
-22.7205828 22.48625639 846
-18.36710649 22.51283589 847
-13.97026039 22.48625639 846
-9.595099178 22.48625639 846
-5.21993797 22.48625639 846
-0.8447767627 22.48625639 846
3.530384445 22.48625639 846
7.905545653 22.48625639 846
12.26619066 22.45967689 845
16.63618028 22.45967689 845
20.98131053 22.43309739 844
25.28606665 22.37993839 842
29.57013643 22.32677939 840
33.83351987 22.27362039 838
38.12176268 22.24704089 837
42.29822772 22.1673024 834
46.55544102 22.1407229 833
50.74125068 22.0875639 831
55.0388381 22.0875639 831
59.33642553 22.0875639 831
63.63401296 22.0875639 831
67.93160039 22.0875639 831
72.14226942 22.0609844 830
76.43468526 22.0609844 830
80.7271011 22.0609844 830
85.01951694 22.0609844 830
89.31193278 22.0609844 830
93.60434863 22.0609844 830
98.01471238 22.0875639 831
102.6816583 22.1673024 834
106.9947605 22.1673024 834
111.574788 22.22046139 836
116.7300388 22.37993839 842
131.9515495 22.75205138 856
158.1424549 22.69889238 854
162.1782885 22.64573338 852
166.5844793 22.64573338 852
170.99067 22.64573338 852
175.3968607 22.64573338 852
179.592015 22.61915388 851
183.9930341 22.61915388 851
188.3940532 22.61915388 851
192.7950724 22.61915388 851
197.1960915 22.61915388 851
206.4822617 22.67231288 853
210.893624 22.67231288 853
215.3049863 22.67231288 853
219.7163486 22.67231288 853
224.1277109 22.67231288 853
227.7353016 22.59257438 850
231.8580536 22.56599489 849
235.4139284 22.48625639 846
239.505651 22.45967689 845
243.8756406 22.45967689 845
248.2456303 22.45967689 845
252.3166665 22.43309739 844
256.3773595 22.40651789 843
260.737006 22.40651789 843
265.4111206 22.43309739 844
454.8473468 37.82262747 1423
451.8125504 36.97208349 1391
-376.2581459 27.11542627 854
-372.7124354 27.17892844 856
-368.7157985 27.21067953 857
-366.8341612 27.40118603 863
-362.79098 27.43293712 864
-358.7374556 27.4646882 865
-354.6735881 27.49643929 866
-332.2839025 28.25846532 890
-329.5220971 28.41722074 895
-325.9825568 28.512474 898
-317.0470559 28.54422508 899
-293.4703347 28.06795881 884
-284.9702455 28.13146098 886
-279.7552903 28.06795881 884
-272.6932595 27.81395013 876
-266.9384623 27.6869458 872
-261.5259884 27.59169254 869
-255.8487651 27.4646882 865
-249.3410924 27.24243061 858
-244.3330007 27.17892844 856
-239.3455953 27.11542627 854
-234.6539688 27.08367519 853
-230.2426065 27.08367519 853
-225.8312442 27.08367519 853
-221.1603041 27.0519241 852
-216.4997071 27.02017302 851
-211.8494533 26.98842193 850
-207.4536058 26.98842193 850
-202.3410838 26.89316868 847
-197.7270311 26.86141759 846
-192.8947733 26.79791543 844
-188.3065785 26.76616434 843
-183.9469321 26.76616434 843
-179.8003192 26.79791543 844
-175.4355011 26.79791543 844
-171.2733735 26.82966651 845
-167.1009027 26.86141759 846
-163.3027831 26.95667085 849
-159.2864584 27.02017302 851
-155.0674433 27.0519241 852
-150.838085 27.08367519 853
-146.4267227 27.08367519 853
-142.6813175 27.21067953 857
-138.4105866 27.24243061 858
-133.9733664 27.24243061 858
-129.6871207 27.2741817 859
-125.5363347 27.33768386 861
-121.0835997 27.33768386 861
-116.6308648 27.33768386 861
-111.9175534 27.2741817 859
-107.350045 27.24243061 858
-102.7928797 27.21067953 857
-98.01651078 27.11542627 854
-93.16156951 26.98842193 850
-88.6612917 26.95667085 849
-83.97283971 26.86141759 846
-79.50359141 26.82966651 845
-74.86685527 26.73441326 842
-70.34489257 26.67091109 840
-66.00076087 26.67091109 840
-61.65662918 26.67091109 840
-57.24426832 26.63916 839
-40.17368481 26.82966651 845
-35.80369519 26.82966651 845
-31.43370556 26.82966651 845
-27.03168788 26.79791543 844
-22.66686984 26.79791543 844
-18.3020518 26.79791543 844
-13.92072046 26.76616434 843
-9.561074004 26.76616434 843
-5.195257413 26.73441326 842
-0.8407825463 26.73441326 842
3.51369232 26.73441326 842
7.849477953 26.67091109 840
12.19360965 26.67091109 840
16.53774134 26.67091109 840
20.85701367 26.63916 839
25.13591186 26.57565783 837
29.42932626 26.54390675 836
33.71239748 26.51215566 835
37.93957982 26.44865349 833
42.09535852 26.35340024 830
46.2759966 26.28989807 828
50.4970088 26.25814699 827
54.77390988 26.25814699 827
59.05081097 26.25814699 827
63.32771205 26.25814699 827
67.60461314 26.25814699 827
71.88151423 26.25814699 827
76.15841531 26.25814699 827
80.4353164 26.25814699 827
84.71221748 26.25814699 827
89.09672331 26.28989807 828
93.37879598 26.28989807 828
97.77881656 26.32164916 829
102.1891803 26.35340024 830
106.4815962 26.35340024 830
111.1744 26.44865349 833
116.1755018 26.60740892 838
120.796902 26.67091109 840
125.587966 26.76616434 843
131.0266555 26.98842193 850
144.3838619 27.02017302 851
148.4352103 26.95667085 849
152.8258863 26.95667085 849
156.8462052 26.89316868 847
161.0361879 26.86141759 846
165.6068708 26.89316868 847
169.9872036 26.89316868 847
174.3675364 26.89316868 847
178.7478692 26.89316868 847
183.128202 26.89316868 847
187.2871552 26.86141759 846
191.6623164 26.86141759 846
196.2692004 26.89316868 847
200.6495332 26.89316868 847
205.5139979 26.95667085 849
209.9046738 26.95667085 849
213.7905315 26.89316868 847
218.1708643 26.89316868 847
222.5511971 26.89316868 847
226.663606 26.86141759 846
230.4925763 26.79791543 844
234.3008602 26.73441326 842
238.0884578 26.67091109 840
242.4325895 26.67091109 840
246.4829394 26.63916 839
251.1208529 26.67091109 840
255.4649846 26.67091109 840
259.4998197 26.63916 839
263.8387798 26.63916 839
269.1366592 26.73441326 842
448.5644372 43.84824787 1381
-375.7713759 31.12581079 843
-372.7334794 31.2365788 846
-370.0999651 31.38426948 850
-366.5645978 31.45811482 852
-363.0085442 31.53196016 854
-359.8517012 31.64272817 857
-355.4196526 31.64272817 857
-351.3971577 31.67965084 858
-348.9818486 31.86426419 863
-342.5227173 31.67965084 858
-334.1991029 32.15964555 871
-328.9237282 32.52887225 881
-325.840286 32.67656293 885
-321.989452 32.75040827 887
-314.225725 32.89809895 891
-307.5328738 32.67656293 885
-302.9560208 32.67656293 885
-271.4480848 32.19656822 872
-266.0200961 32.08580021 869
-260.3221864 31.93810953 865
-254.6656494 31.79041885 861
-248.1786631 31.53196016 854
-243.1912577 31.45811482 852
-238.5048028 31.42119215 851
-233.8286911 31.38426948 850
-229.4328435 31.38426948 850
-225.3017454 31.42119215 851
-220.6411484 31.38426948 850
-215.9908946 31.34734681 849
-211.1017494 31.27350147 847
-206.7214166 31.27350147 847
-202.1021923 31.2365788 846
-197.2595913 31.16273346 844
-192.4376767 31.08888812 842
-188.0832018 31.08888812 842
-183.7287269 31.08888812 842
-179.3742521 31.08888812 842
-175.2276392 31.12581079 843
-170.8679927 31.12581079 843
-166.7058651 31.16273346 844
-162.5333942 31.19965613 845
-158.3505802 31.2365788 846
-154.5214312 31.34734681 849
-150.1307552 31.34734681 849
-145.7400792 31.34734681 849
-141.6823818 31.42119215 851
-137.2813627 31.42119215 851
-132.8803436 31.42119215 851
-128.630299 31.45811482 852
-124.3699112 31.49503749 853
-120.0991802 31.53196016 854
-115.6826463 31.53196016 854
-111.1358243 31.49503749 853
-106.5993454 31.45811482 852
-102.0732096 31.42119215 851
-97.55741706 31.38426948 850
-92.72316212 31.2365788 846
-88.24357065 31.19965613 845
-83.67506368 31.12581079 843
-79.22133014 31.08888812 842
-74.68902426 31.01504278 840
-70.26114865 30.97812011 839
-65.92218854 30.97812011 839
-61.50982768 30.94119744 838
-35.80369519 31.19965613 845
-31.43370556 31.19965613 845
-26.99965981 31.12581079 843
-22.64001336 31.12581079 843
-18.25868201 31.08888812 842
-13.87118052 31.01504278 840
-9.515707104 30.97812011 839
-5.170576855 30.94119744 838
-0.83678833 30.94119744 838
3.497000195 30.94119744 838
7.821444103 30.90427477 837
12.15006104 30.90427477 837
16.47867798 30.90427477 837
20.78243555 30.8673521 836
25.07584994 30.83042943 835
29.35892117 30.79350676 834
33.55090097 30.68273875 831
37.80294268 30.64581608 830
41.94320662 30.53504807 827
46.16421883 30.4981254 826
50.37488786 30.46120273 825
54.57521372 30.42428006 824
58.7651964 30.38735739 823
63.09798638 30.42428006 824
67.35937271 30.42428006 824
71.70767743 30.46120273 825
75.97423535 30.46120273 825
80.24079326 30.46120273 825
84.50735118 30.46120273 825
88.88151383 30.4981254 826
93.15324333 30.4981254 826
97.54292074 30.53504807 827
101.8198218 30.53504807 827
106.225014 30.57197074 828
110.6405493 30.60889341 829
115.6209648 30.79350676 834
160.2747875 31.08888812 842
164.8247841 31.12581079 843
169.3851238 31.16273346 844
173.7499418 31.16273346 844
178.1147599 31.16273346 844
182.4795779 31.16273346 844
186.6230163 31.12581079 843
191.209214 31.16273346 844
195.574032 31.16273346 844
200.1757444 31.19965613 845
204.545734 31.19965613 845
208.9157237 31.19965613 845
213.2857133 31.19965613 845
217.3981222 31.16273346 844
221.7629402 31.16273346 844
225.8598344 31.12581079 843
229.4001944 31.01504278 840
233.4660591 30.97812011 839
237.5215805 30.94119744 838
240.7009282 30.79350676 834
245.0140303 30.79350676 834
249.3271325 30.79350676 834
253.6402347 30.79350676 834
257.6440403 30.75658409 833
261.9519709 30.75658409 833
266.2599015 30.75658409 833
270.8926434 30.79350676 834
445.8069093 49.88252714 1351
-373.5426015 35.27498597 838
-371.4117295 35.48545724 843
-367.9229065 35.56964575 845
-365.2738774 35.73802278 849
-361.30827 35.78011703 850
-357.7522164 35.86430554 852
-353.760751 35.9063998 853
-349.3493887 35.9063998 853
-344.9380264 35.9063998 853
-341.724296 36.03268256 856
-334.4260117 36.20105958 860
-333.0480153 36.53781363 868
-331.2087492 36.83247341 875
-327.4303174 36.91666193 877
-323.9993804 37.04294469 880
-319.4483853 37.04294469 880
-315.613066 37.1271332 882
-309.9937287 37.00085044 879
-288.4906344 36.57990788 869
-284.9769521 36.70619065 872
-280.1456928 36.66409639 871
-275.6412419 36.66409639 871
-268.9577354 36.36943661 864
-264.1833635 36.32734235 863
-258.8174339 36.20105958 860
-253.4825337 36.07477682 857
-247.0162337 35.78011703 850
-242.3349504 35.73802278 849
-237.103482 35.61174001 846
-232.7283208 35.61174001 846
-228.3531596 35.61174001 846
-223.9779984 35.61174001 846
-219.3432593 35.56964575 845
-214.7188635 35.5275515 844
-210.1048108 35.48545724 843
-205.7451643 35.48545724 843
-201.1466264 35.44336299 842
-196.3247117 35.35917448 840
-191.5234834 35.27498597 838
-187.1896949 35.27498597 838
-182.8559064 35.27498597 838
-178.7351514 35.31708022 839
-174.3961913 35.31708022 839
-170.2599216 35.35917448 840
-165.9157899 35.35917448 840
-161.9563526 35.44336299 842
-157.7890534 35.48545724 843
-153.4294069 35.48545724 843
-149.0697605 35.48545724 843
-144.8817749 35.5275515 844
-140.5169568 35.5275515 844
-136.3134565 35.56964575 845
-131.9434669 35.56964575 845
-127.5734773 35.56964575 845
-123.7866994 35.73802278 849
-119.5366548 35.78011703 850
-115.1408073 35.78011703 850
-110.6146715 35.73802278 849
-105.9737623 35.65383427 847
-101.5934296 35.65383427 847
-97.09832333 35.61174001 846
-92.39435658 35.48545724 843
-87.72141935 35.35917448 840
-83.27802898 35.31708022 839
-78.84498178 35.27498597 838
-74.33336224 35.19079746 836
-70.00991689 35.19079746 836
-65.68647153 35.19079746 836
-61.36302618 35.19079746 836
-40.07859916 35.48545724 843
-35.71895271 35.48545724 843
-31.35930626 35.48545724 843
-26.90357561 35.35917448 840
-22.53258743 35.31708022 839
-18.19362732 35.31708022 839
-13.82164059 35.23289171 837
-9.48168193 35.19079746 836
-5.152066436 35.1487032 835
-0.8327941136 35.10660895 834
3.48030807 35.10660895 834
7.784065637 35.06451469 833
12.09199623 35.06451469 833
16.39992683 35.06451469 833
20.70785743 35.06451469 833
24.92569515 34.93823192 830
29.218111 34.93823192 830
33.42977858 34.85404341 828
37.66630554 34.81194916 827
41.79105473 34.68566639 824
45.94066329 34.60147788 822
50.06958551 34.51728937 820
54.31028549 34.51728937 820
58.47958184 34.47519512 819
62.48538457 34.34891235 816
66.78714502 34.39100661 817
71.01233026 34.39100661 817
75.32960547 34.43310086 818
79.55996229 34.43310086 818
83.89275226 34.47519512 819
88.12828066 34.47519512 819
92.36380907 34.47519512 819
96.71728538 34.51728937 820
101.2042244 34.60147788 822
105.4552675 34.60147788 822
109.8397733 34.64357214 823
114.7891593 34.85404341 828
119.2150378 34.89613767 829
124.2471692 35.10660895 834
129.3310164 35.31708022 839
133.3513353 35.23289171 837
138.5024132 35.44336299 842
141.6692417 35.1487032 835
145.6378448 35.06451469 833
149.9457754 35.06451469 833
154.253706 35.06451469 833
158.5616366 35.06451469 833
162.8695672 35.06451469 833
167.378191 35.10660895 834
171.8971581 35.1487032 835
176.2154319 35.1487032 835
180.5337056 35.1487032 835
184.8519794 35.1487032 835
189.3968044 35.19079746 836
193.7202497 35.19079746 836
198.2805894 35.23289171 837
202.8512723 35.27498597 838
207.1850609 35.27498597 838
211.2664403 35.23289171 837
215.5950572 35.23289171 837
219.9236741 35.23289171 837
223.9843672 35.19079746 836
227.7616216 35.10660895 834
231.7964567 35.06451469 833
236.1043873 35.06451469 833
239.8350975 34.98032618 831
243.8389031 34.93823192 830
248.4302723 34.98032618 831
252.4237348 34.93823192 830
256.7161506 34.93823192 830
260.3796302 34.85404341 828
264.3420631 34.81194916 827
268.9437755 34.85404341 828
-374.7199046 39.27791361 831
-371.7595819 39.41971113 834
-368.3276463 39.51424281 836
-365.7458479 39.70330617 840
-363.1226767 39.89236954 844
-359.6079958 39.98690122 846
-356.4925255 40.12869874 849
-352.1018495 40.12869874 849
-348.1207274 40.17596458 850
-343.7248798 40.17596458 850
-340.1274535 40.27049626 852
-336.5093409 40.36502794 854
-333.6482768 40.55409131 858
-332.2806235 40.93221803 866
-330.0731763 41.21581308 872
-326.3102593 41.31034476 874
-322.1584748 41.3576106 875
-317.9963472 41.40487644 876
-313.8238763 41.45214228 877
-308.2303969 41.31034476 874
-285.1708343 40.60135715 859
-282.3624846 40.83768635 864
-278.2158717 40.88495219 865
-273.1095199 40.79042051 863
-267.0899733 40.55409131 858
-262.346631 40.50682547 857
-257.0117308 40.36502794 854
-252.0036391 40.27049626 852
-246.7256264 40.12869874 849
-240.9077717 39.89236954 844
-236.2626895 39.8451037 843
-231.903043 39.8451037 843
-227.5433966 39.8451037 843
-223.4484995 39.89236954 844
-218.8241037 39.8451037 843
-214.210051 39.79783785 842
-209.8555761 39.79783785 842
-205.0129751 39.70330617 840
-200.6688434 39.70330617 840
-196.0909918 39.65604033 839
-191.0663868 39.51424281 836
-186.7429414 39.51424281 836
-182.4194961 39.51424281 836
-178.3090843 39.56150865 837
-173.9804674 39.56150865 837
-169.6518504 39.56150865 837
-165.5207523 39.60877449 838
-161.1869637 39.60877449 838
-157.0403508 39.65604033 839
-152.5193867 39.60877449 838
-148.1855982 39.60877449 838
-143.8518096 39.60877449 838
-139.5180211 39.60877449 838
-135.3455503 39.65604033 839
-131.0065902 39.65604033 839
-126.8186046 39.70330617 840
-121.8912611 39.51424281 836
-117.8490785 39.60877449 838
-113.6507497 39.65604033 839
-109.3117896 39.65604033 839
-104.8477129 39.60877449 838
-100.5139244 39.60877449 838
-96.18013588 39.60877449 838
-91.51754181 39.46697697 835
-87.09483778 39.41971113 834
-82.68247692 39.37244529 833
-78.37454632 39.37244529 833
-74.06661573 39.37244529 833
-69.75868513 39.37244529 833
-65.45075453 39.37244529 833
-61.14282393 39.37244529 833
-39.88842788 39.65604033 839
-35.50709653 39.60877449 838
-31.173308 39.60877449 838
-26.77546335 39.51424281 836
-22.42516151 39.46697697 835
-18.08520285 39.41971113 834
-13.75558735 39.37244529 833
-9.424973306 39.27791361 831
-5.1150456 39.18338193 829
-0.826802789 39.13611609 828
3.455269882 39.13611609 828
7.727997937 39.08885024 827
12.00489902 39.08885024 827
16.28180011 39.08885024 827
20.53384182 39.0415844 826
24.80557132 39.0415844 826
29.04209828 38.99431856 825
33.22790794 38.89978688 823
37.43857697 38.85252104 822
41.53746823 38.71072352 819
45.60532998 38.568926 816
49.76428315 38.52166016 815
53.91289316 38.47439432 814
58.05116 38.42712848 813
62.25565889 38.42712848 813
66.54190459 38.47439432 814
70.75157507 38.47439432 814
75.05333552 38.52166016 815
79.26817759 38.52166016 815
83.5854528 38.568926 816
87.91307119 38.61619184 817
92.13825642 38.61619184 817
96.48138956 38.66345768 818
100.7117464 38.66345768 818
105.0703943 38.71072352 819
109.4393853 38.75798936 820
114.2346223 38.94705272 824
118.6398145 38.99431856 825
136.6929992 39.27791361 831
140.8209229 39.23064777 830
144.9385034 39.18338193 829
149.4057546 39.23064777 830
153.6981704 39.23064777 830
157.8002362 39.18338193 829
161.8919587 39.13611609 828
166.3747247 39.18338193 829
170.8678338 39.23064777 830
175.1602496 39.23064777 830
179.6688735 39.27791361 831
183.9664609 39.27791361 831
188.7171508 39.37244529 833
193.2568041 39.41971113 834
197.8068007 39.46697697 835
202.3671404 39.51424281 836
206.6905858 39.51424281 836
210.761622 39.46697697 835
214.8223151 39.41971113 834
219.1354172 39.41971113 834
223.4485194 39.41971113 834
226.9423352 39.27791361 831
230.9616556 39.23064777 830
235.2540714 39.23064777 830
239.257877 39.18338193 829
243.2513395 39.13611609 828
247.2344587 39.08885024 827
251.5113598 39.08885024 827
255.1696678 38.99431856 825
259.1217575 38.94705272 824
263.0635041 38.89978688 823
266.9949076 38.85252104 822
436.5673878 62.53270722 1323
-376.2809037 43.26087648 825
-373.3671252 43.41818876 828
-369.9765623 43.52306361 830
-366.1247298 43.57550103 831
-364.4396127 43.89012559 837
-360.971476 43.99500044 839
-357.9077216 44.15231272 842
-354.3930406 44.25718757 844
-350.442948 44.309625 845
-346.4825122 44.36206243 846
-342.5117332 44.41449985 847
-339.3290323 44.57181213 850
-336.1153018 44.72912441 853
-332.8705419 44.88643669 856
-331.5132318 45.30593609 864
-328.5590792 45.5156858 868
-322.950085 45.35837352 865
-318.8448448 45.41081095 866
-315.0922709 45.5156858 868
-311.6768487 45.67299808 871
-278.113975 44.62424956 851
-272.4264085 44.41449985 847
-268.6790062 44.5193747 849
-263.6657429 44.41449985 847
-260.2037764 44.57181213 850
-254.9050773 44.41449985 847
-249.0458499 44.15231272 842
-244.1101604 44.04743787 840
-239.1951572 43.94256302 838
-234.5811045 43.89012559 837
-229.977395 43.83768816 836
-225.9238706 43.89012559 837
-221.5952537 43.89012559 837
-217.2666367 43.89012559 837
-212.9380198 43.89012559 837
-208.3601682 43.83768816 836
-204.0367229 43.83768816 836
-199.474386 43.78525074 835
-194.9223924 43.73281331 834
-189.9236453 43.57550103 831
-185.6260578 43.57550103 831
-181.3284704 43.57550103 831
-177.030883 43.57550103 831
-172.7332955 43.57550103 831
-168.4357081 43.57550103 831
-164.1381207 43.57550103 831
-159.8405333 43.57550103 831
-155.3557702 43.52306361 830
-150.8813503 43.47062618 829
-146.5941061 43.47062618 829
-142.1352009 43.41818876 828
-137.8531283 43.41818876 828
-133.5710556 43.41818876 828
-129.2889829 43.41818876 828
-125.1578848 43.47062618 829
-121.0164435 43.52306361 830
-117.1459217 43.68037589 833
-112.9734509 43.73281331 834
-108.6603487 43.73281331 834
-104.4723631 43.78525074 835
-100.0341443 43.73281331 834
-95.72104215 43.73281331 834
-91.07913443 43.57550103 831
-86.67711674 43.52306361 830
-82.28544222 43.47062618 829
-78.09228505 43.52306361 830
-73.79986921 43.52306361 830
-69.42370945 43.47062618 829
-65.21503753 43.52306361 830
-56.97135166 43.78525074 835
-39.79334223 43.89012559 837
-35.46472529 43.89012559 837
-31.0989087 43.83768816 836
-26.71140721 43.73281331 834
-22.31773559 43.57550103 831
-18.02014816 43.57550103 831
-13.70604742 43.52306361 830
-9.390948132 43.41818876 828
-5.102705321 43.36575133 827
-0.8248056809 43.3133139 826
3.44692382 43.3133139 826
7.709308704 43.26087648 825
11.96135042 43.20843905 824
16.22273675 43.20843905 824
20.48412308 43.20843905 824
24.74550941 43.20843905 824
28.93649065 43.1035642 822
33.10678555 42.99868935 820
37.25639411 42.8938145 818
41.43603363 42.84137707 817
45.43766332 42.63162737 813
49.58110174 42.57918994 812
53.71419699 42.52675251 811
57.83694907 42.47431509 810
62.02593321 42.47431509 810
66.21491734 42.47431509 810
70.49081988 42.52675251 811
74.6849756 42.52675251 811
78.97639288 42.57918994 812
83.27815334 42.63162737 813
87.59025697 42.68406479 814
91.91270377 42.73650222 815
96.12754583 42.73650222 815
100.4655074 42.78893964 816
104.8138121 42.84137707 817
109.0389973 42.84137707 817
113.5414511 42.94625192 819
117.7769795 42.94625192 819
140.1422678 43.3133139 826
144.4139973 43.3133139 826
148.6857268 43.3133139 826
152.9574563 43.3133139 826
157.2291858 43.3133139 826
161.3053937 43.26087648 825
165.5719516 43.26087648 825
170.0443743 43.3133139 826
174.3161038 43.3133139 826
178.8040414 43.36575133 827
183.3023221 43.41818876 828
187.8109459 43.47062618 829
192.329913 43.52306361 830
196.8592232 43.57550103 831
201.6409425 43.68037589 833
205.9488731 43.68037589 833
209.7519855 43.57550103 831
214.0495729 43.57550103 831
218.3471603 43.57550103 831
222.6447478 43.57550103 831
226.6692397 43.52306361 830
230.6833885 43.47062618 829
234.6871941 43.41818876 828
238.9692668 43.41818876 828
242.6637759 43.3133139 826
246.3375986 43.20843905 824
250.5989849 43.20843905 824
254.5510747 43.15600163 823
257.5494168 42.94625192 819
261.4653055 42.8938145 818
265.3708509 42.84137707 817
433.5975417 68.90277781 1314
440.3930048 68.90277781 1314
447.188468 68.90277781 1314
452.9474381 68.74546553 1311
-373.0882172 47.12417131 818
-369.3087869 47.18178033 819
-366.856278 47.41221637 823
-363.4812299 47.52743439 825
-360.9563189 47.75787044 829
-357.5295549 47.87308846 831
-354.0821046 47.98830648 833
