# .PCD v0.7 - Point Cloud Data file format
VERSION 0.7
FIELDS x y z
SIZE 4 4 4
TYPE F F F
COUNT 1 1 1
WIDTH 1630
HEIGHT 1
VIEWPOINT 0 0 0 1 0 0 0
POINTS 1630
DATA ascii
574.9865093 -60.073554 1311
581.7664577 -60.073554 1311
587.6485473 -59.98190861 1309
594.4181525 -59.98190861 1309
601.1877578 -59.98190861 1309
607.957363 -59.98190861 1309
614.7269682 -59.98190861 1309
621.4965734 -59.98190861 1309
626.826302 -59.84444052 1306
632.1250011 -59.70697243 1303
638.8635768 -59.70697243 1303
645.6021525 -59.70697243 1303
650.8387925 -59.56950434 1300
657.5618535 -59.56950434 1300
663.2629377 -59.47785895 1298
669.9756555 -59.47785895 1298
676.6883732 -59.47785895 1298
683.401091 -59.47785895 1298
688.5187846 -59.34039087 1295
693.6054487 -59.20292278 1292
700.2871369 -59.20292278 1292
706.9688252 -59.20292278 1292
713.6505135 -59.20292278 1292
720.3322018 -59.20292278 1292
728.7020028 -59.34039087 1295
735.3992058 -59.34039087 1295
742.0964088 -59.34039087 1295
748.7936119 -59.34039087 1295
755.4908149 -59.34039087 1295
760.4223314 -59.20292278 1292
767.1040197 -59.20292278 1292
773.785708 -59.20292278 1292
779.2592424 -59.11127739 1290
785.9305875 -59.11127739 1290
792.6019326 -59.11127739 1290
799.2732777 -59.11127739 1290
805.9446228 -59.11127739 1290
812.6159679 -59.11127739 1290
820.5575259 -59.20292278 1292
829.1600482 -59.34039087 1295
833.9209024 -59.20292278 1292
842.5544543 -59.34039087 1295
849.2516573 -59.34039087 1295
853.9659673 -59.20292278 1292
860.6476555 -59.20292278 1292
867.3293438 -59.20292278 1292
874.0110321 -59.20292278 1292
880.6927203 -59.20292278 1292
887.3744086 -59.20292278 1292
894.0560969 -59.20292278 1292
900.7377852 -59.20292278 1292
907.4194734 -59.20292278 1292
914.1011617 -59.20292278 1292
919.3574895 -59.11127739 1290
923.8752792 -58.9738093 1287
930.5311096 -58.9738093 1287
937.1869399 -58.9738093 1287
941.6426706 -58.83634121 1284
950.4986006 -58.9738093 1287
957.154431 -58.9738093 1287
963.8102613 -58.9738093 1287
972.7282504 -59.11127739 1290
979.3995955 -59.11127739 1290
987.5997327 -59.20292278 1292
996.590124 -59.34039087 1295
1003.287327 -59.34039087 1295
1009.98453 -59.34039087 1295
1019.03698 -59.47785895 1298
1025.749698 -59.47785895 1298
1032.462416 -59.47785895 1298
1040.776328 -59.56950434 1300
1049.916695 -59.70697243 1303
1054.22245 -59.56950434 1300
1060.945511 -59.56950434 1300
1067.668572 -59.56950434 1300
477.9303081 -57.96848328 1426
479.8597716 -57.31806552 1410
481.6237443 -56.66764775 1394
483.2222263 -56.01722999 1378
486.0785809 -55.52941667 1366
485.5617056 -54.67574335 1345
489.5880159 -54.35053447 1337
494.2742919 -54.10662781 1331
500.0280905 -53.98467448 1328
503.8423658 -53.65946559 1320
509.5082474 -53.53751226 1317
515.1430995 -53.41555893 1314
521.9385626 -53.41555893 1314
528.7340258 -53.41555893 1314
535.529489 -53.41555893 1314
541.0867673 -53.2936056 1311
547.8667157 -53.2936056 1311
554.6466641 -53.2936056 1311
561.4266125 -53.2936056 1311
568.2065609 -53.2936056 1311
574.9865093 -53.2936056 1311
581.7664577 -53.2936056 1311
587.6485473 -53.21230338 1309
594.4181525 -53.21230338 1309
601.1877578 -53.21230338 1309
606.5640306 -53.09035005 1306
613.3181211 -53.09035005 1306
620.0722115 -53.09035005 1306
625.3864254 -52.96839672 1303
630.6696097 -52.84644339 1300
637.3926706 -52.84644339 1300
644.1157316 -52.84644339 1300
650.8387925 -52.84644339 1300
656.5502199 -52.76514117 1298
663.2629377 -52.76514117 1298
669.9756555 -52.76514117 1298
676.6883732 -52.76514117 1298
683.401091 -52.76514117 1298
688.5187846 -52.64318784 1295
695.2159876 -52.64318784 1295
701.9131907 -52.64318784 1295
706.9688252 -52.5212345 1292
713.6505135 -52.5212345 1292
720.3322018 -52.5212345 1292
727.01389 -52.5212345 1292
733.6955783 -52.5212345 1292
742.0964088 -52.64318784 1295
748.7936119 -52.64318784 1295
753.7406431 -52.5212345 1292
759.2452071 -52.43993228 1290
765.9165522 -52.43993228 1290
772.5878973 -52.43993228 1290
779.2592424 -52.43993228 1290
784.1028419 -52.31797895 1287
790.7586723 -52.31797895 1287
799.2732777 -52.43993228 1290
805.9446228 -52.43993228 1290
812.6159679 -52.43993228 1290
820.5575259 -52.5212345 1292
827.2392142 -52.5212345 1292
833.9209024 -52.5212345 1292
840.6025907 -52.5212345 1292
847.284279 -52.5212345 1292
853.9659673 -52.5212345 1292
860.6476555 -52.5212345 1292
865.9867287 -52.43993228 1290
872.6580738 -52.43993228 1290
879.3294189 -52.43993228 1290
886.000764 -52.43993228 1290
892.6721091 -52.43993228 1290
897.2519578 -52.31797895 1287
903.9077882 -52.31797895 1287
910.5636185 -52.31797895 1287
915.0814082 -52.19602562 1284
921.7217238 -52.19602562 1284
926.9159926 -52.1147234 1282
933.545965 -52.1147234 1282
940.1759374 -52.1147234 1282
946.8059099 -52.1147234 1282
953.4358823 -52.1147234 1282
960.0658547 -52.1147234 1282
966.6958271 -52.1147234 1282
974.8442485 -52.19602562 1284
981.4845641 -52.19602562 1284
990.4335827 -52.31797895 1287
994.7651953 -52.19602562 1284
1001.405511 -52.19602562 1284
1010.401074 -52.31797895 1287
1017.056904 -52.31797895 1287
1026.099011 -52.43993228 1290
1034.371551 -52.5212345 1292
1041.053239 -52.5212345 1292
1047.734927 -52.5212345 1292
1054.416615 -52.5212345 1292
1061.098304 -52.5212345 1292
471.2272182 -49.88421207 1406
473.3935761 -49.3520192 1391
475.0592887 -48.7843468 1375
476.9101798 -48.25215393 1360
479.6734458 -47.82639963 1348
480.5075317 -47.2232477 1331
485.1938078 -47.01037055 1325
491.3034472 -46.9394115 1323
498.1454546 -46.9394115 1323
502.6972695 -46.72653435 1317
508.3476363 -46.62009578 1314
513.9669737 -46.5136572 1311
520.7469221 -46.5136572 1311
527.5268705 -46.5136572 1311
534.3068189 -46.5136572 1311
541.0867673 -46.5136572 1311
547.8667157 -46.5136572 1311
554.6466641 -46.5136572 1311
561.4266125 -46.5136572 1311
568.2065609 -46.5136572 1311
574.9865093 -46.5136572 1311
580.8789421 -46.44269815 1309
587.6485473 -46.44269815 1309
594.4181525 -46.44269815 1309
599.8099401 -46.33625958 1306
606.5640306 -46.33625958 1306
611.9092739 -46.229821 1303
618.6478496 -46.229821 1303
625.3864254 -46.229821 1303
630.6696097 -46.12338243 1300
637.3926706 -46.12338243 1300
644.1157316 -46.12338243 1300
650.8387925 -46.12338243 1300
656.5502199 -46.05242338 1298
663.2629377 -46.05242338 1298
669.9756555 -46.05242338 1298
676.6883732 -46.05242338 1298
683.401091 -46.05242338 1298
690.1138088 -46.05242338 1298
695.2159876 -45.9459848 1295
701.9131907 -45.9459848 1295
708.6103937 -45.9459848 1295
713.6505135 -45.83954623 1292
720.3322018 -45.83954623 1292
727.01389 -45.83954623 1292
733.6955783 -45.83954623 1292
740.3772666 -45.83954623 1292
747.0589549 -45.83954623 1292
753.7406431 -45.83954623 1292
759.2452071 -45.76858718 1290
765.9165522 -45.76858718 1290
772.5878973 -45.76858718 1290
779.2592424 -45.76858718 1290
785.9305875 -45.76858718 1290
790.7586723 -45.66214861 1287
797.4145026 -45.66214861 1287
804.070333 -45.66214861 1287
812.6159679 -45.76858718 1290
819.287313 -45.76858718 1290
825.9586581 -45.76858718 1290
832.6300032 -45.76858718 1290
840.6025907 -45.83954623 1292
847.284279 -45.83954623 1292
852.6440385 -45.76858718 1290
859.3153836 -45.76858718 1290
863.9728061 -45.66214861 1287
870.6286364 -45.66214861 1287
877.2844668 -45.66214861 1287
883.9402971 -45.66214861 1287
890.5961275 -45.66214861 1287
895.1604614 -45.55571003 1284
901.800777 -45.55571003 1284
908.4410926 -45.55571003 1284
913.6560478 -45.48475098 1282
920.2860202 -45.48475098 1282
924.7469224 -45.37831241 1279
929.1767951 -45.27187383 1276
934.3090049 -45.20091478 1274
940.8976046 -45.20091478 1274
947.4862044 -45.20091478 1274
954.0748041 -45.20091478 1274
960.6634039 -45.20091478 1274
967.2520036 -45.20091478 1274
973.8406033 -45.20091478 1274
981.9683384 -45.27187383 1276
988.5672813 -45.27187383 1276
995.1662242 -45.27187383 1276
1004.120414 -45.37831241 1279
1010.734872 -45.37831241 1279
1017.34933 -45.37831241 1279
1026.365579 -45.48475098 1282
1032.995551 -45.48475098 1282
1039.625524 -45.48475098 1282
1046.255496 -45.48475098 1282
1050.421618 -45.37831241 1279
473.5732997 -42.82511865 1413
467.9483588 -41.67341694 1375
469.8768237 -41.21879785 1360
472.7021488 -40.85510257 1348
475.7591966 -40.52171524 1337
478.3414572 -40.15801996 1325
484.4614398 -40.09740408 1323
490.1893804 -40.00648026 1320
495.8862916 -39.91555645 1317
501.5521732 -39.82463263 1314
507.1870253 -39.73370881 1311
513.1828898 -39.67309293 1309
520.7469221 -39.73370881 1311
527.5268705 -39.73370881 1311
534.3068189 -39.73370881 1311
541.0867673 -39.73370881 1311
547.8667157 -39.73370881 1311
554.6466641 -39.73370881 1311
561.4266125 -39.73370881 1311
568.2065609 -39.73370881 1311
574.9865093 -39.73370881 1311
580.8789421 -39.67309293 1309
587.6485473 -39.67309293 1309
594.4181525 -39.67309293 1309
599.8099401 -39.58216911 1306
605.1706982 -39.49124529 1303
611.9092739 -39.49124529 1303
618.6478496 -39.49124529 1303
623.9465487 -39.40032147 1300
630.6696097 -39.40032147 1300
637.3926706 -39.40032147 1300
644.1157316 -39.40032147 1300
650.8387925 -39.40032147 1300
656.5502199 -39.33970559 1298
663.2629377 -39.33970559 1298
671.0079754 -39.40032147 1300
677.7310364 -39.40032147 1300
683.401091 -39.33970559 1298
690.1138088 -39.33970559 1298
696.8265266 -39.33970559 1298
703.5392444 -39.33970559 1298
708.6103937 -39.24878177 1295
713.6505135 -39.15785796 1292
720.3322018 -39.15785796 1292
727.01389 -39.15785796 1292
733.6955783 -39.15785796 1292
740.3772666 -39.15785796 1292
747.0589549 -39.15785796 1292
753.7406431 -39.15785796 1292
760.4223314 -39.15785796 1292
767.1040197 -39.15785796 1292
772.5878973 -39.09724208 1290
779.2592424 -39.09724208 1290
785.9305875 -39.09724208 1290
790.7586723 -39.00631826 1287
797.4145026 -39.00631826 1287
804.070333 -39.00631826 1287
810.7261633 -39.00631826 1287
819.287313 -39.09724208 1290
827.2392142 -39.15785796 1292
832.6300032 -39.09724208 1290
839.3013483 -39.09724208 1290
845.9726934 -39.09724208 1290
852.6440385 -39.09724208 1290
859.3153836 -39.09724208 1290
863.9728061 -39.00631826 1287
868.5991991 -38.91539444 1284
875.2395146 -38.91539444 1284
881.8798302 -38.91539444 1284
888.5201458 -38.91539444 1284
893.7661305 -38.85477856 1282
900.3961029 -38.85477856 1282
907.0260753 -38.85477856 1282
911.5180071 -38.76385474 1279
915.9789093 -38.67293092 1276
922.5778522 -38.67293092 1276
929.1767951 -38.67293092 1276
934.3090049 -38.61231504 1274
940.8976046 -38.61231504 1274
945.2550752 -38.52139122 1271
951.8281602 -38.52139122 1271
958.4012451 -38.52139122 1271
964.9743301 -38.52139122 1271
973.8406033 -38.61231504 1274
980.4292031 -38.61231504 1274
987.0178028 -38.61231504 1274
993.6064026 -38.61231504 1274
1001.765167 -38.67293092 1276
1010.734872 -38.76385474 1279
1017.34933 -38.76385474 1279
1023.963787 -38.76385474 1279
1030.578245 -38.76385474 1279
1037.192703 -38.76385474 1279
1043.80716 -38.76385474 1279
1046.3152 -38.61231504 1274
469.2162913 -35.19089594 1400
463.8644458 -34.26085083 1363
466.7673447 -33.95921458 1351
469.8967948 -33.68271468 1340
472.5566291 -33.38107843 1328
476.5363951 -33.1799876 1320
483.3628878 -33.1799876 1320
489.0753137 -33.10457854 1317
494.75671 -33.02916947 1314
501.5521732 -33.02916947 1314
507.1870253 -32.95376041 1311
513.9669737 -32.95376041 1311
519.9524951 -32.9034877 1309
526.7221003 -32.9034877 1309
533.4917055 -32.9034877 1309
540.2613107 -32.9034877 1309
547.030916 -32.9034877 1309
553.8005212 -32.9034877 1309
561.4266125 -32.95376041 1311
568.2065609 -32.95376041 1311
574.9865093 -32.95376041 1311
580.8789421 -32.9034877 1309
587.6485473 -32.9034877 1309
593.0558497 -32.82807864 1306
599.8099401 -32.82807864 1306
605.1706982 -32.75266958 1303
611.9092739 -32.75266958 1303
617.2234878 -32.67726051 1300
623.9465487 -32.67726051 1300
630.6696097 -32.67726051 1300
637.3926706 -32.67726051 1300
644.1157316 -32.67726051 1300
650.8387925 -32.67726051 1300
656.5502199 -32.62698781 1298
664.2849145 -32.67726051 1300
671.0079754 -32.67726051 1300
677.7310364 -32.67726051 1300
684.4540973 -32.67726051 1300
690.1138088 -32.62698781 1298
696.8265266 -32.62698781 1298
703.5392444 -32.62698781 1298
710.2519622 -32.62698781 1298
716.96468 -32.62698781 1298
723.6773977 -32.62698781 1298
730.3901155 -32.62698781 1298
737.1028333 -32.62698781 1298
743.8155511 -32.62698781 1298
750.5282689 -32.62698781 1298
757.2409867 -32.62698781 1298
763.9537045 -32.62698781 1298
770.6664222 -32.62698781 1298
775.582424 -32.55157874 1295
782.279627 -32.55157874 1295
787.1490845 -32.47616968 1292
793.8307728 -32.47616968 1292
799.2732777 -32.42589697 1290
805.9446228 -32.42589697 1290
812.6159679 -32.42589697 1290
820.5575259 -32.47616968 1292
827.2392142 -32.47616968 1292
833.9209024 -32.47616968 1292
842.5544543 -32.55157874 1295
849.2516573 -32.55157874 1295
853.9659673 -32.47616968 1292
860.6476555 -32.47616968 1292
863.9728061 -32.35048791 1287
870.6286364 -32.35048791 1287
877.2844668 -32.35048791 1287
883.9402971 -32.35048791 1287
890.5961275 -32.35048791 1287
895.1604614 -32.27507885 1284
901.800777 -32.27507885 1284
907.0260753 -32.22480614 1282
913.6560478 -32.22480614 1282
918.1324647 -32.14939708 1279
922.5778522 -32.07398801 1276
929.1767951 -32.07398801 1276
934.3090049 -32.0237153 1274
940.8976046 -32.0237153 1274
947.4862044 -32.0237153 1274
951.8281602 -31.94830624 1271
958.4012451 -31.94830624 1271
964.9743301 -31.94830624 1271
971.5474151 -31.94830624 1271
978.1205001 -31.94830624 1271
984.6935851 -31.94830624 1271
993.6064026 -32.0237153 1274
1001.765167 -32.07398801 1276
1008.36411 -32.07398801 1276
1017.34933 -32.14939708 1279
1023.963787 -32.14939708 1279
1030.578245 -32.14939708 1279
1037.192703 -32.14939708 1279
1041.358825 -32.07398801 1276
1043.85135 -31.94830624 1271
468.2108278 -27.89078214 1397
462.8434676 -27.15208569 1360
465.7308517 -26.91250846 1348
468.844787 -26.69289601 1337
472.5566291 -26.51321309 1328
476.5363951 -26.35349494 1320
482.2643357 -26.29360063 1317
487.9612469 -26.23370632 1314
494.75671 -26.23370632 1314
501.5521732 -26.23370632 1314
507.1870253 -26.17381202 1311
513.9669737 -26.17381202 1311
519.9524951 -26.13388248 1309
526.7221003 -26.13388248 1309
533.4917055 -26.13388248 1309
540.2613107 -26.13388248 1309
547.030916 -26.13388248 1309
553.8005212 -26.13388248 1309
560.5701264 -26.13388248 1309
567.3397316 -26.13388248 1309
574.1093369 -26.13388248 1309
580.8789421 -26.13388248 1309
586.3017592 -26.07398817 1306
593.0558497 -26.07398817 1306
599.8099401 -26.07398817 1306
605.1706982 -26.01409386 1303
611.9092739 -26.01409386 1303
618.6478496 -26.01409386 1303
623.9465487 -25.95419956 1300
632.1250011 -26.01409386 1303
638.8635768 -26.01409386 1303
644.1157316 -25.95419956 1300
650.8387925 -25.95419956 1300
656.5502199 -25.91427002 1298
664.2849145 -25.95419956 1300
671.0079754 -25.95419956 1300
677.7310364 -25.95419956 1300
684.4540973 -25.95419956 1300
691.1771583 -25.95419956 1300
697.9002192 -25.95419956 1300
704.6232802 -25.95419956 1300
711.3463412 -25.95419956 1300
718.0694021 -25.95419956 1300
724.7924631 -25.95419956 1300
731.515524 -25.95419956 1300
738.238585 -25.95419956 1300
744.9616459 -25.95419956 1300
751.6847069 -25.95419956 1300
758.4077679 -25.95419956 1300
765.1308288 -25.95419956 1300
771.8538898 -25.95419956 1300
777.37914 -25.91427002 1298
784.0918578 -25.91427002 1298
788.9768301 -25.85437571 1295
793.8307728 -25.79448141 1292
800.5124611 -25.79448141 1292
807.1941493 -25.79448141 1292
813.8758376 -25.79448141 1292
820.5575259 -25.79448141 1292
829.1600482 -25.85437571 1295
835.8572513 -25.85437571 1295
842.5544543 -25.85437571 1295
849.2516573 -25.85437571 1295
855.9488604 -25.85437571 1295
860.6476555 -25.79448141 1292
865.9867287 -25.75455187 1290
872.6580738 -25.75455187 1290
879.3294189 -25.75455187 1290
883.9402971 -25.69465756 1287
890.5961275 -25.69465756 1287
897.2519578 -25.69465756 1287
903.9077882 -25.69465756 1287
908.4410926 -25.63476326 1284
913.6560478 -25.59483372 1282
918.1324647 -25.53493941 1279
924.7469224 -25.53493941 1279
929.1767951 -25.4750451 1276
934.3090049 -25.43511557 1274
940.8976046 -25.43511557 1274
947.4862044 -25.43511557 1274
954.0748041 -25.43511557 1274
958.4012451 -25.37522126 1271
962.6966566 -25.31532695 1268
969.2542269 -25.31532695 1268
978.1205001 -25.37522126 1271
984.6935851 -25.37522126 1271
993.6064026 -25.43511557 1274
1000.195002 -25.43511557 1274
1008.36411 -25.4750451 1276
1017.34933 -25.53493941 1279
1023.963787 -25.53493941 1279
1030.578245 -25.53493941 1279
1034.759882 -25.4750451 1276
1041.358825 -25.4750451 1276
1043.85135 -25.37522126 1271
468.2108278 -20.6660774 1397
462.8434676 -20.11872961 1360
465.7308517 -19.94121141 1348
468.844787 -19.77848639 1337
472.5566291 -19.64534774 1328
476.5363951 -19.52700227 1320
482.2643357 -19.48262272 1317
487.9612469 -19.43824317 1314
494.75671 -19.43824317 1314
501.5521732 -19.43824317 1314
507.1870253 -19.39386362 1311
513.9669737 -19.39386362 1311
520.7469221 -19.39386362 1311
526.7221003 -19.36427725 1309
533.4917055 -19.36427725 1309
540.2613107 -19.36427725 1309
547.030916 -19.36427725 1309
553.8005212 -19.36427725 1309
560.5701264 -19.36427725 1309
567.3397316 -19.36427725 1309
574.1093369 -19.36427725 1309
579.5476687 -19.3198977 1306
586.3017592 -19.3198977 1306
591.6935468 -19.27551815 1303
598.4321225 -19.27551815 1303
605.1706982 -19.27551815 1303
611.9092739 -19.27551815 1303
618.6478496 -19.27551815 1303
625.3864254 -19.27551815 1303
632.1250011 -19.27551815 1303
638.8635768 -19.27551815 1303
645.6021525 -19.27551815 1303
652.3407282 -19.27551815 1303
657.5618535 -19.2311386 1300
664.2849145 -19.2311386 1300
672.5564554 -19.27551815 1303
677.7310364 -19.2311386 1300
684.4540973 -19.2311386 1300
691.1771583 -19.2311386 1300
697.9002192 -19.2311386 1300
704.6232802 -19.2311386 1300
711.3463412 -19.2311386 1300
719.7264853 -19.27551815 1303
724.7924631 -19.2311386 1300
733.2036368 -19.27551815 1303
739.9422125 -19.27551815 1303
746.6807882 -19.27551815 1303
753.4193639 -19.27551815 1303
760.1579396 -19.27551815 1303
766.8965153 -19.27551815 1303
773.6350911 -19.27551815 1303
778.5769507 -19.2311386 1300
784.0918578 -19.20155223 1298
790.8045756 -19.20155223 1298
795.6740331 -19.15717268 1295
802.3712361 -19.15717268 1295
807.1941493 -19.11279313 1292
813.8758376 -19.11279313 1292
822.4628452 -19.15717268 1295
831.0808823 -19.20155223 1298
835.8572513 -19.15717268 1295
842.5544543 -19.15717268 1295
849.2516573 -19.15717268 1295
855.9488604 -19.15717268 1295
862.6460634 -19.15717268 1295
867.3293438 -19.11279313 1292
872.6580738 -19.08320676 1290
879.3294189 -19.08320676 1290
886.000764 -19.08320676 1290
892.6721091 -19.08320676 1290
897.2519578 -19.03882721 1287
903.9077882 -19.03882721 1287
910.5636185 -19.03882721 1287
915.0814082 -18.99444766 1284
920.2860202 -18.9648613 1282
924.7469224 -18.92048175 1279
931.3613801 -18.92048175 1279
935.775738 -18.8761022 1276
940.8976046 -18.84651583 1274
947.4862044 -18.84651583 1274
954.0748041 -18.84651583 1274
958.4012451 -18.80213628 1271
962.6966566 -18.75775673 1268
969.2542269 -18.75775673 1268
975.8117971 -18.75775673 1268
984.6935851 -18.80213628 1271
991.26667 -18.80213628 1271
1000.195002 -18.84651583 1274
1008.36411 -18.8761022 1276
1014.963053 -18.8761022 1276
1021.561996 -18.8761022 1276
1028.160939 -18.8761022 1276
1033.138001 -18.84651583 1274
1039.726601 -18.84651583 1274
1039.744932 -18.72817036 1266
468.2108278 -13.44137267 1397
462.8434676 -13.08537353 1360
465.7308517 -12.96991436 1348
468.844787 -12.86407678 1337
472.5566291 -12.77748239 1328
476.5363951 -12.70050961 1320
482.2643357 -12.67164481 1317
489.0753137 -12.67164481 1317
494.75671 -12.64278002 1314
501.5521732 -12.64278002 1314
507.1870253 -12.61391522 1311
513.9669737 -12.61391522 1311
519.9524951 -12.59467203 1309
526.7221003 -12.59467203 1309
532.2690354 -12.56580723 1306
539.0231259 -12.56580723 1306
545.7772164 -12.56580723 1306
552.5313068 -12.56580723 1306
559.2853973 -12.56580723 1306
566.0394878 -12.56580723 1306
572.7935783 -12.56580723 1306
579.5476687 -12.56580723 1306
586.3017592 -12.56580723 1306
591.6935468 -12.53694244 1303
598.4321225 -12.53694244 1303
605.1706982 -12.53694244 1303
613.3181211 -12.56580723 1306
618.6478496 -12.53694244 1303
625.3864254 -12.53694244 1303
632.1250011 -12.53694244 1303
638.8635768 -12.53694244 1303
645.6021525 -12.53694244 1303
652.3407282 -12.53694244 1303
659.0793039 -12.53694244 1303
665.8178796 -12.53694244 1303
672.5564554 -12.53694244 1303
679.2950311 -12.53694244 1303
686.0336068 -12.53694244 1303
692.7721825 -12.53694244 1303
699.5107582 -12.53694244 1303
706.2493339 -12.53694244 1303
714.6294781 -12.56580723 1306
721.3835686 -12.56580723 1306
728.1376591 -12.56580723 1306
734.8917495 -12.56580723 1306
741.64584 -12.56580723 1306
750.1190727 -12.59467203 1309
756.8886779 -12.59467203 1309
763.6582832 -12.59467203 1309
768.6622019 -12.56580723 1306
775.4162923 -12.56580723 1306
780.3736668 -12.53694244 1303
787.1122425 -12.53694244 1303
792.0230726 -12.50807764 1300
797.5172934 -12.48883445 1298
804.2300112 -12.48883445 1298
809.0684391 -12.45996965 1295
815.7656422 -12.45996965 1295
824.3681645 -12.48883445 1298
831.0808823 -12.48883445 1298
835.8572513 -12.45996965 1295
842.5544543 -12.45996965 1295
849.2516573 -12.45996965 1295
855.9488604 -12.45996965 1295
862.6460634 -12.45996965 1295
867.3293438 -12.43110486 1292
872.6580738 -12.41186166 1290
879.3294189 -12.41186166 1290
886.000764 -12.41186166 1290
892.6721091 -12.41186166 1290
897.2519578 -12.38299687 1287
903.9077882 -12.38299687 1287
910.5636185 -12.38299687 1287
915.0814082 -12.35413207 1284
920.2860202 -12.33488888 1282
926.9159926 -12.33488888 1282
933.545965 -12.33488888 1282
937.9758377 -12.30602408 1279
942.3746809 -12.27715929 1276
947.4862044 -12.25791609 1274
954.0748041 -12.25791609 1274
960.6634039 -12.25791609 1274
964.9743301 -12.2290513 1271
971.5474151 -12.2290513 1271
978.1205001 -12.2290513 1271
984.6935851 -12.2290513 1271
991.26667 -12.2290513 1271
1000.195002 -12.25791609 1274
1006.783602 -12.25791609 1274
1014.963053 -12.27715929 1276
1019.960802 -12.25791609 1274
1026.549401 -12.25791609 1274
1030.70518 -12.2290513 1271
1034.829929 -12.2001865 1268
1037.281082 -12.15207851 1263
468.2108278 -6.216667931 1397
462.8434676 -6.052017456 1360
465.7308517 -5.998617302 1348
468.844787 -5.94966716 1337
472.5566291 -5.909617045 1328
476.5363951 -5.874016942 1320
482.2643357 -5.860666904 1317
489.0753137 -5.860666904 1317
494.75671 -5.847316865 1314
501.5521732 -5.847316865 1314
507.1870253 -5.833966827 1311
513.1828898 -5.825066801 1309
519.9524951 -5.825066801 1309
525.514945 -5.811716763 1306
532.2690354 -5.811716763 1306
539.0231259 -5.811716763 1306
544.5235168 -5.798366724 1303
551.2620925 -5.798366724 1303
558.0006682 -5.798366724 1303
564.7392439 -5.798366724 1303
572.7935783 -5.811716763 1306
579.5476687 -5.811716763 1306
584.9549711 -5.798366724 1303
591.6935468 -5.798366724 1303
598.4321225 -5.798366724 1303
605.1706982 -5.798366724 1303
613.3181211 -5.811716763 1306
620.0722115 -5.811716763 1306
626.826302 -5.811716763 1306
633.5803925 -5.811716763 1306
640.334483 -5.811716763 1306
645.6021525 -5.798366724 1303
652.3407282 -5.798366724 1303
659.0793039 -5.798366724 1303
667.3508448 -5.811716763 1306
674.1049353 -5.811716763 1306
680.8590258 -5.811716763 1306
687.6131162 -5.811716763 1306
695.9622309 -5.825066801 1309
702.7318361 -5.825066801 1309
709.5014414 -5.825066801 1309
716.2710466 -5.825066801 1309
724.145374 -5.833966827 1311
730.9253224 -5.833966827 1311
737.7052708 -5.833966827 1311
744.4852192 -5.833966827 1311
751.2651676 -5.833966827 1311
758.045116 -5.833966827 1311
764.8250644 -5.833966827 1311
771.6050128 -5.833966827 1311
778.3849611 -5.833966827 1311
783.9670988 -5.825066801 1309
790.7367041 -5.825066801 1309
793.8508182 -5.798366724 1303
800.5893939 -5.798366724 1303
807.3279696 -5.798366724 1303
812.1922555 -5.785016686 1300
817.6554468 -5.77611666 1298
825.6383774 -5.785016686 1300
832.3614384 -5.785016686 1300
837.7936001 -5.77611666 1298
844.5063179 -5.77611666 1298
849.2516573 -5.762766621 1295
855.9488604 -5.762766621 1295
862.6460634 -5.762766621 1295
867.3293438 -5.749416583 1292
872.6580738 -5.740516557 1290
880.6927203 -5.749416583 1292
886.000764 -5.740516557 1290
892.6721091 -5.740516557 1290
897.2519578 -5.727166519 1287
903.9077882 -5.727166519 1287
910.5636185 -5.727166519 1287
915.0814082 -5.71381648 1284
921.7217238 -5.71381648 1284
926.9159926 -5.704916455 1282
933.545965 -5.704916455 1282
940.1759374 -5.704916455 1282
942.3746809 -5.678216378 1276
948.9736239 -5.678216378 1276
954.0748041 -5.669316352 1274
960.6634039 -5.669316352 1274
964.9743301 -5.655966313 1271
971.5474151 -5.655966313 1271
978.1205001 -5.655966313 1271
984.6935851 -5.655966313 1271
993.6064026 -5.669316352 1274
1000.195002 -5.669316352 1274
1006.783602 -5.669316352 1274
1013.372202 -5.669316352 1274
1019.960802 -5.669316352 1274
1024.132095 -5.655966313 1271
1028.272359 -5.642616275 1268
1033.197705 -5.633716249 1266
1035.638515 -5.611466185 1261
468.2108278 1.008036806 1397
462.8434676 0.9813386228 1360
464.6943587 0.970515035 1345
468.844787 0.9647424549 1337
472.5566291 0.9582483022 1328
477.6194324 0.9546404396 1323
483.3628878 0.9524757221 1320
489.0753137 0.9503110045 1317
494.75671 0.948146287 1314
501.5521732 0.948146287 1314
507.1870253 0.9459815694 1311
513.1828898 0.9445384244 1309
519.9524951 0.9445384244 1309
525.514945 0.9423737069 1306
531.0463654 0.9402089893 1303
537.7849411 0.9402089893 1303
544.5235168 0.9402089893 1303
551.2620925 0.9402089893 1303
558.0006682 0.9402089893 1303
564.7392439 0.9402089893 1303
571.4778197 0.9402089893 1303
578.2163954 0.9402089893 1303
584.9549711 0.9402089893 1303
591.6935468 0.9402089893 1303
598.4321225 0.9402089893 1303
606.5640306 0.9423737069 1306
613.3181211 0.9423737069 1306
620.0722115 0.9423737069 1306
628.2661787 0.9445384244 1309
633.5803925 0.9423737069 1306
640.334483 0.9423737069 1306
647.0885734 0.9423737069 1306
653.8426639 0.9423737069 1306
660.5967544 0.9423737069 1306
667.3508448 0.9423737069 1306
674.1049353 0.9423737069 1306
680.8590258 0.9423737069 1306
687.6131162 0.9423737069 1306
695.9622309 0.9445384244 1309
702.7318361 0.9445384244 1309
710.5854772 0.9459815694 1311
717.3654256 0.9459815694 1311
725.8024572 0.948146287 1314
732.5979204 0.948146287 1314
739.3933835 0.948146287 1314
746.1888467 0.948146287 1314
752.9843098 0.948146287 1314
759.779773 0.948146287 1314
766.5752361 0.948146287 1314
771.6050128 0.9459815694 1311
778.3849611 0.9459815694 1311
785.1649095 0.9459815694 1311
790.7367041 0.9445384244 1309
795.6785637 0.9423737069 1306
802.4326542 0.9423737069 1306
807.3279696 0.9402089893 1303
814.0665453 0.9402089893 1303
818.9153165 0.9380442718 1300
825.6383774 0.9380442718 1300
832.3614384 0.9380442718 1300
837.7936001 0.9366011267 1298
842.5544543 0.9344364092 1295
849.2516573 0.9344364092 1295
855.9488604 0.9344364092 1295
862.6460634 0.9344364092 1295
865.9867287 0.9308285466 1290
872.6580738 0.9308285466 1290
879.3294189 0.9308285466 1290
886.000764 0.9308285466 1290
892.6721091 0.9308285466 1290
897.2519578 0.928663829 1287
903.9077882 0.928663829 1287
910.5636185 0.928663829 1287
915.0814082 0.9264991115 1284
921.7217238 0.9264991115 1284
926.9159926 0.9250559665 1282
933.545965 0.9250559665 1282
940.1759374 0.9250559665 1282
944.5902954 0.9228912489 1279
951.2047531 0.9228912489 1279
955.5725668 0.9207265314 1276
960.6634039 0.9192833863 1274
964.9743301 0.9171186688 1271
971.5474151 0.9171186688 1271
978.1205001 0.9171186688 1271
987.0178028 0.9192833863 1274
993.6064026 0.9192833863 1274
1000.195002 0.9192833863 1274
1006.783602 0.9192833863 1274
1013.372202 0.9192833863 1274
1017.55901 0.9171186688 1271
1021.714789 0.9149539512 1268
1026.650478 0.9135108062 1266
1030.749369 0.9113460886 1263
1033.174664 0.9077382261 1258
468.2108278 8.232741542 1397
461.8224894 7.997015228 1357
464.6943587 7.926297333 1345
468.844787 7.87915207 1337
472.5566291 7.826113649 1328
478.3414572 7.808434176 1325
483.3628878 7.778968386 1320
489.0753137 7.761288913 1317
494.75671 7.743609439 1314
501.5521732 7.743609439 1314
507.1870253 7.725929966 1311
513.1828898 7.71414365 1309
518.7608545 7.696464176 1306
525.514945 7.696464176 1306
531.0463654 7.678784703 1303
537.7849411 7.678784703 1303
544.5235168 7.678784703 1303
551.2620925 7.678784703 1303
558.0006682 7.678784703 1303
564.7392439 7.678784703 1303
571.4778197 7.678784703 1303
578.2163954 7.678784703 1303
584.9549711 7.678784703 1303
591.6935468 7.678784703 1303
598.4321225 7.678784703 1303
606.5640306 7.696464176 1306
613.3181211 7.696464176 1306
621.4965734 7.71414365 1309
628.2661787 7.71414365 1309
635.0357839 7.71414365 1309
640.334483 7.696464176 1306
647.0885734 7.696464176 1306
653.8426639 7.696464176 1306
660.5967544 7.696464176 1306
667.3508448 7.696464176 1306
674.1049353 7.696464176 1306
680.8590258 7.696464176 1306
689.1926257 7.71414365 1309
697.0255804 7.725929966 1311
703.8055288 7.725929966 1311
710.5854772 7.725929966 1311
717.3654256 7.725929966 1311
725.8024572 7.743609439 1314
732.5979204 7.743609439 1314
739.3933835 7.743609439 1314
747.8924742 7.761288913 1317
754.7034521 7.761288913 1317
761.51443 7.761288913 1317
766.5752361 7.743609439 1314
773.3706993 7.743609439 1314
778.3849611 7.725929966 1311
785.1649095 7.725929966 1311
790.7367041 7.71414365 1309
797.5063093 7.71414365 1309
802.4326542 7.696464176 1306
809.1867447 7.696464176 1306
814.0665453 7.678784703 1303
820.8051211 7.678784703 1303
825.6383774 7.661105229 1300
831.0808823 7.649318913 1298
837.7936001 7.649318913 1298
840.6025907 7.613959966 1292
847.284279 7.613959966 1292
853.9659673 7.613959966 1292
860.6476555 7.613959966 1292
867.3293438 7.613959966 1292
872.6580738 7.60217365 1290
879.3294189 7.60217365 1290
886.000764 7.60217365 1290
892.6721091 7.60217365 1290
899.3434542 7.60217365 1290
903.9077882 7.584494177 1287
910.5636185 7.584494177 1287
915.0814082 7.566814703 1284
921.7217238 7.566814703 1284
926.9159926 7.555028387 1282
933.545965 7.555028387 1282
940.1759374 7.555028387 1282
944.5902954 7.537348914 1279
951.2047531 7.537348914 1279
957.8192107 7.537348914 1279
962.1715097 7.51966944 1276
967.2520036 7.507883125 1274
971.5474151 7.490203651 1271
978.1205001 7.490203651 1271
987.0178028 7.507883125 1274
991.26667 7.490203651 1271
997.839755 7.490203651 1271
1004.41284 7.490203651 1271
1008.599648 7.472524177 1268
1013.556024 7.460737862 1266
1020.103251 7.460737862 1266
1022.595776 7.431272072 1261
1026.66881 7.413592599 1258
1027.42568 7.372340494 1251
466.1999008 15.39105782 1391
461.8224894 15.01485655 1357
464.6943587 14.88207963 1345
468.844787 14.79356169 1337
473.6241516 14.72717323 1331
479.4244945 14.693979 1328
484.4614398 14.63865528 1323
490.1893804 14.60546105 1320
495.8862916 14.57226682 1317
501.5521732 14.53907259 1314
507.1870253 14.50587836 1311
512.006764 14.45055465 1306
518.7608545 14.45055465 1306
525.514945 14.45055465 1306
531.0463654 14.41736042 1303
537.7849411 14.41736042 1303
544.5235168 14.41736042 1303
549.9928782 14.38416619 1300
556.7159391 14.38416619 1300
563.4390001 14.38416619 1300
570.1620611 14.38416619 1300
576.885122 14.38416619 1300
583.608183 14.38416619 1300
591.6935468 14.41736042 1303
598.4321225 14.41736042 1303
606.5640306 14.45055465 1306
614.7269682 14.48374888 1309
621.4965734 14.48374888 1309
628.2661787 14.48374888 1309
635.0357839 14.48374888 1309
641.8053891 14.48374888 1309
647.0885734 14.45055465 1306
653.8426639 14.45055465 1306
660.5967544 14.45055465 1306
667.3508448 14.45055465 1306
674.1049353 14.45055465 1306
680.8590258 14.45055465 1306
689.1926257 14.48374888 1309
697.0255804 14.50587836 1311
703.8055288 14.50587836 1311
710.5854772 14.50587836 1311
719.0069941 14.53907259 1314
727.4595404 14.57226682 1317
734.2705184 14.57226682 1317
741.0814963 14.57226682 1317
747.8924742 14.57226682 1317
754.7034521 14.57226682 1317
761.51443 14.57226682 1317
766.5752361 14.53907259 1314
773.3706993 14.53907259 1314
778.3849611 14.50587836 1311
785.1649095 14.50587836 1311
790.7367041 14.48374888 1309
797.5063093 14.48374888 1309
804.2759145 14.48374888 1309
811.0455198 14.48374888 1309
815.9408352 14.45055465 1306
820.8051211 14.41736042 1303
824.3681645 14.3620367 1298
831.0808823 14.3620367 1298
835.8572513 14.32884247 1295
840.6025907 14.29564824 1292
845.9726934 14.27351875 1290
852.6440385 14.27351875 1290
859.3153836 14.27351875 1290
865.9867287 14.27351875 1290
870.6286364 14.24032452 1287
879.3294189 14.27351875 1290
886.000764 14.27351875 1290
892.6721091 14.27351875 1290
897.2519578 14.24032452 1287
901.800777 14.20713029 1284
908.4410926 14.20713029 1284
915.0814082 14.20713029 1284
921.7217238 14.20713029 1284
926.9159926 14.18500081 1282
933.545965 14.18500081 1282
940.1759374 14.18500081 1282
944.5902954 14.15180658 1279
951.2047531 14.15180658 1279
957.8192107 14.15180658 1279
962.1715097 14.11861235 1276
967.2520036 14.09648286 1274
973.8406033 14.09648286 1274
978.1205001 14.06328863 1271
984.6935851 14.06328863 1271
991.26667 14.06328863 1271
995.4845078 14.0300944 1268
1002.042078 14.0300944 1268
1007.008797 14.00796492 1266
1013.556024 14.00796492 1266
1017.685945 13.97477069 1263
1020.162955 13.91944697 1258
1025.036586 13.89731748 1256
1024.961829 13.80879954 1248
461.8428924 22.37366077 1378
459.7805329 21.9352799 1351
464.0033634 21.80538927 1343
468.844787 21.7079713 1337
474.6916741 21.65926232 1334
479.4244945 21.56184434 1328
484.4614398 21.4806627 1323
490.1893804 21.43195372 1320
495.8862916 21.38324473 1317
501.5521732 21.33453574 1314
506.4132846 21.2533541 1309
512.006764 21.20464512 1306
517.5692139 21.15593613 1303
524.3077897 21.15593613 1303
529.8236953 21.10722714 1300
536.5467563 21.10722714 1300
543.2698172 21.10722714 1300
549.1467353 21.07475449 1298
555.8594531 21.07475449 1298
563.4390001 21.10722714 1300
570.1620611 21.10722714 1300
576.885122 21.10722714 1300
583.608183 21.10722714 1300
591.6935468 21.15593613 1303
598.4321225 21.15593613 1303
606.5640306 21.20464512 1306
613.3181211 21.20464512 1306
621.4965734 21.2533541 1309
628.2661787 21.2533541 1309
635.0357839 21.2533541 1309
641.8053891 21.2533541 1309
647.0885734 21.20464512 1306
655.3445996 21.2533541 1309
662.1142048 21.2533541 1309
667.3508448 21.20464512 1306
675.6534152 21.2533541 1309
682.4230205 21.2533541 1309
689.1926257 21.2533541 1309
697.0255804 21.28582676 1311
703.8055288 21.28582676 1311
712.2115309 21.33453574 1314
720.6485625 21.38324473 1317
729.1166237 21.43195372 1320
735.9431163 21.43195372 1320
742.769609 21.43195372 1320
749.5961017 21.43195372 1320
754.7034521 21.38324473 1317
761.51443 21.38324473 1317
766.5752361 21.33453574 1314
771.6050128 21.28582676 1311
778.3849611 21.28582676 1311
785.1649095 21.28582676 1311
790.7367041 21.2533541 1309
797.5063093 21.2533541 1309
804.2759145 21.2533541 1309
809.1867447 21.20464512 1306
814.0665453 21.15593613 1303
818.9153165 21.10722714 1300
824.3681645 21.07475449 1298
829.1600482 21.0260455 1295
833.9209024 20.97733652 1292
840.6025907 20.97733652 1292
844.005315 20.89615487 1287
850.6611454 20.89615487 1287
857.3169757 20.89615487 1287
863.9728061 20.89615487 1287
870.6286364 20.89615487 1287
877.2844668 20.89615487 1287
883.9402971 20.89615487 1287
890.5961275 20.89615487 1287
895.1604614 20.84744589 1284
901.800777 20.84744589 1284
908.4410926 20.84744589 1284
915.0814082 20.84744589 1284
921.7217238 20.84744589 1284
926.9159926 20.81497323 1282
933.545965 20.81497323 1282
940.1759374 20.81497323 1282
944.5902954 20.76626424 1279
951.2047531 20.76626424 1279
957.8192107 20.76626424 1279
962.1715097 20.71755526 1276
964.9743301 20.63637362 1271
971.5474151 20.63637362 1271
978.1205001 20.63637362 1271
984.6935851 20.63637362 1271
988.9269375 20.58766463 1268
995.4845078 20.58766463 1268
1002.042078 20.58766463 1268
1007.008797 20.55519197 1266
1011.154233 20.50648299 1263
1016.074407 20.47401033 1261
1018.541075 20.39282869 1256
1022.58825 20.3441197 1253
1024.961829 20.26293806 1248
458.826502 29.30743416 1369
457.7385764 28.79364423 1345
462.9668704 28.68660466 1340
467.7927793 28.55815717 1334
474.6916741 28.55815717 1334
479.4244945 28.42970969 1328
485.1938078 28.36548595 1325
491.3034472 28.32267012 1323
495.8862916 28.19422264 1317
501.5521732 28.1299989 1314
506.4132846 28.02295933 1309
512.006764 27.95873558 1306
517.5692139 27.89451184 1303
524.3077897 27.89451184 1303
529.8236953 27.8302881 1300
536.5467563 27.8302881 1300
542.4340175 27.78747227 1298
549.1467353 27.78747227 1298
555.8594531 27.78747227 1298
563.4390001 27.8302881 1300
570.1620611 27.8302881 1300
576.885122 27.8302881 1300
583.608183 27.8302881 1300
591.6935468 27.89451184 1303
599.8099401 27.95873558 1306
606.5640306 27.95873558 1306
613.3181211 27.95873558 1306
621.4965734 28.02295933 1309
629.2260964 28.06577515 1311
636.0060448 28.06577515 1311
642.7859932 28.06577515 1311
648.5749943 28.02295933 1309
655.3445996 28.02295933 1309
662.1142048 28.02295933 1309
668.88381 28.02295933 1309
675.6534152 28.02295933 1309
682.4230205 28.02295933 1309
689.1926257 28.02295933 1309
697.0255804 28.06577515 1311
705.4160678 28.1299989 1314
712.2115309 28.1299989 1314
720.6485625 28.19422264 1317
729.1166237 28.25844638 1320
735.9431163 28.25844638 1320
742.769609 28.25844638 1320
749.5961017 28.25844638 1320
754.7034521 28.19422264 1317
761.51443 28.19422264 1317
766.5752361 28.1299989 1314
771.6050128 28.06577515 1311
778.3849611 28.06577515 1311
785.1649095 28.06577515 1311
790.7367041 28.02295933 1309
797.5063093 28.02295933 1309
802.4326542 27.95873558 1306
809.1867447 27.95873558 1306
814.0665453 27.89451184 1303
817.6554468 27.78747227 1298
822.4628452 27.72324853 1295
829.1600482 27.72324853 1295
833.9209024 27.65902479 1292
840.6025907 27.65902479 1292
844.005315 27.55198522 1287
850.6611454 27.55198522 1287
857.3169757 27.55198522 1287
863.9728061 27.55198522 1287
868.5991991 27.48776148 1284
875.2395146 27.48776148 1284
881.8798302 27.48776148 1284
888.5201458 27.48776148 1284
895.1604614 27.48776148 1284
901.800777 27.48776148 1284
908.4410926 27.48776148 1284
913.6560478 27.44494565 1282
921.7217238 27.48776148 1284
928.3620394 27.48776148 1284
933.545965 27.44494565 1282
937.9758377 27.38072191 1279
944.5902954 27.38072191 1279
948.9736239 27.31649817 1276
957.8192107 27.38072191 1279
960.6634039 27.27368234 1274
964.9743301 27.2094586 1271
971.5474151 27.2094586 1271
978.1205001 27.2094586 1271
984.6935851 27.2094586 1271
988.9269375 27.14523486 1268
995.4845078 27.14523486 1268
1000.46157 27.10241903 1266
1004.62252 27.03819529 1263
1009.553038 26.99537946 1261
1016.074407 26.99537946 1261
1018.541075 26.88833989 1256
1020.956026 26.78130032 1251
1024.961829 26.71707658 1248
456.815575 36.22785751 1363
457.0579243 35.69626753 1343
461.9303774 35.53679053 1337
467.7927793 35.45705203 1334
473.6241516 35.37731354 1331
479.4244945 35.29757504 1328
484.4614398 35.16467754 1323
490.1893804 35.08493904 1320
495.8862916 35.00520055 1317
501.5521732 34.92546205 1314
506.4132846 34.79256455 1309
510.8306382 34.63308756 1303
517.5692139 34.63308756 1303
524.3077897 34.63308756 1303
529.8236953 34.55334906 1300
536.5467563 34.55334906 1300
543.2698172 34.55334906 1300
549.9928782 34.55334906 1300
556.7159391 34.55334906 1300
563.4390001 34.55334906 1300
570.1620611 34.55334906 1300
576.885122 34.55334906 1300
583.608183 34.55334906 1300
593.0558497 34.71282605 1306
599.8099401 34.71282605 1306
606.5640306 34.71282605 1306
613.3181211 34.71282605 1306
622.446148 34.84572355 1311
629.2260964 34.84572355 1311
636.0060448 34.84572355 1311
642.7859932 34.84572355 1311
649.5659416 34.84572355 1311
655.3445996 34.79256455 1309
662.1142048 34.79256455 1309
668.88381 34.79256455 1309
675.6534152 34.79256455 1309
682.4230205 34.79256455 1309
689.1926257 34.79256455 1309
697.0255804 34.84572355 1311
705.4160678 34.92546205 1314
713.8375846 35.00520055 1317
720.6485625 35.00520055 1317
729.1166237 35.08493904 1320
735.9431163 35.08493904 1320
744.4577218 35.16467754 1323
749.5961017 35.08493904 1320
756.4225943 35.08493904 1320
761.51443 35.00520055 1317
766.5752361 34.92546205 1314
771.6050128 34.84572355 1311
778.3849611 34.84572355 1311
785.1649095 34.84572355 1311
790.7367041 34.79256455 1309
795.6785637 34.71282605 1306
800.5893939 34.63308756 1303
807.3279696 34.63308756 1303
814.0665453 34.63308756 1303
817.6554468 34.50019006 1298
822.4628452 34.42045156 1295
827.2392142 34.34071306 1292
833.9209024 34.34071306 1292
839.3013483 34.28755407 1290
844.005315 34.20781557 1287
848.6782523 34.12807707 1284
855.3185679 34.12807707 1284
861.9588835 34.12807707 1284
868.5991991 34.12807707 1284
875.2395146 34.12807707 1284
881.8798302 34.12807707 1284
888.5201458 34.12807707 1284
895.1604614 34.12807707 1284
901.800777 34.12807707 1284
908.4410926 34.12807707 1284
915.0814082 34.12807707 1284
921.7217238 34.12807707 1284
928.3620394 34.12807707 1284
931.3613801 33.99517957 1279
937.9758377 33.99517957 1279
942.3746809 33.91544108 1276
948.9736239 33.91544108 1276
955.5725668 33.91544108 1276
960.6634039 33.86228208 1274
964.9743301 33.78254358 1271
969.2542269 33.70280508 1268
975.8117971 33.70280508 1268
982.3693673 33.70280508 1268
987.3671159 33.64964608 1266
991.5590957 33.56990759 1263
998.090808 33.56990759 1263
1003.031669 33.51674859 1261
1007.151247 33.43701009 1258
1012.045564 33.38385109 1256
1016.108254 33.30411259 1253
1020.956026 33.25095359 1251
1024.961829 33.1712151 1248
453.7991846 42.99096859 1354
457.0579243 42.64170665 1343
460.8938844 42.35594689 1334
466.7407715 42.26069364 1331
473.6241516 42.26069364 1331
479.4244945 42.16544039 1328
484.4614398 42.00668496 1323
490.1893804 41.91143171 1320
495.8862916 41.81617845 1317
501.5521732 41.7209252 1314
505.2526736 41.46691652 1306
510.8306382 41.37166327 1303
517.5692139 41.37166327 1303
524.3077897 41.37166327 1303
529.8236953 41.27641002 1300
536.5467563 41.27641002 1300
543.2698172 41.27641002 1300
549.9928782 41.27641002 1300
556.7159391 41.27641002 1300
564.7392439 41.37166327 1303
570.1620611 41.27641002 1300
576.885122 41.27641002 1300
584.9549711 41.37166327 1303
593.0558497 41.46691652 1306
599.8099401 41.46691652 1306
606.5640306 41.46691652 1306
614.7269682 41.56216978 1309
622.446148 41.62567195 1311
629.2260964 41.62567195 1311
636.0060448 41.62567195 1311
642.7859932 41.62567195 1311
649.5659416 41.62567195 1311
656.34589 41.62567195 1311
662.1142048 41.56216978 1309
668.88381 41.56216978 1309
675.6534152 41.56216978 1309
682.4230205 41.56216978 1309
689.1926257 41.56216978 1309
697.0255804 41.62567195 1311
705.4160678 41.7209252 1314
713.8375846 41.81617845 1317
720.6485625 41.81617845 1317
730.7737069 42.00668496 1323
737.6157143 42.00668496 1323
744.4577218 42.00668496 1323
749.5961017 41.91143171 1320
756.4225943 41.91143171 1320
761.51443 41.81617845 1317
766.5752361 41.7209252 1314
771.6050128 41.62567195 1311
778.3849611 41.62567195 1311
783.9670988 41.56216978 1309
788.9244733 41.46691652 1306
793.8508182 41.37166327 1303
800.5893939 41.37166327 1303
805.4691946 41.27641002 1300
810.942729 41.21290785 1298
815.7656422 41.11765459 1295
820.5575259 41.02240134 1292
825.9586581 40.95889917 1290
832.6300032 40.95889917 1290
837.3494847 40.86364592 1287
842.0379367 40.76839266 1284
848.6782523 40.76839266 1284
855.3185679 40.76839266 1284
861.9588835 40.76839266 1284
868.5991991 40.76839266 1284
875.2395146 40.76839266 1284
881.8798302 40.76839266 1284
888.5201458 40.76839266 1284
895.1604614 40.76839266 1284
901.800777 40.76839266 1284
908.4410926 40.76839266 1284
915.0814082 40.76839266 1284
921.7217238 40.76839266 1284
928.3620394 40.76839266 1284
933.545965 40.70489049 1282
937.9758377 40.60963724 1279
942.3746809 40.51438398 1276
948.9736239 40.51438398 1276
955.5725668 40.51438398 1276
960.6634039 40.45088182 1274
962.6966566 40.26037531 1268
969.2542269 40.26037531 1268
974.2726618 40.19687314 1266
980.8198888 40.19687314 1266
985.0273834 40.10161988 1263
991.5590957 40.10161988 1263
996.5103 40.03811772 1261
1000.645392 39.94286446 1258
1007.151247 39.94286446 1258
1012.045564 39.87936229 1256
1016.108254 39.78410904 1253
1020.956026 39.72060687 1251
1024.961829 39.62535362 1248
450.7827941 49.66099112 1345
455.0159678 49.36560976 1337
457.7844054 48.92253772 1325
464.636756 48.92253772 1325
471.4891066 48.92253772 1325
477.6194324 48.84869238 1323
482.2643357 48.62715636 1317
489.0753137 48.62715636 1317
494.75671 48.51638835 1314
500.4070769 48.40562034 1311
505.2526736 48.22100699 1306
510.8306382 48.11023898 1303
517.5692139 48.11023898 1303
524.3077897 48.11023898 1303
531.0463654 48.11023898 1303
536.5467563 47.99947097 1300
543.2698172 47.99947097 1300
549.9928782 47.99947097 1300
556.7159391 47.99947097 1300
564.7392439 48.11023898 1303
571.4778197 48.11023898 1303
578.2163954 48.11023898 1303
584.9549711 48.11023898 1303
593.0558497 48.22100699 1306
599.8099401 48.22100699 1306
606.5640306 48.22100699 1306
614.7269682 48.331775 1309
622.446148 48.40562034 1311
629.2260964 48.40562034 1311
637.4614362 48.51638835 1314
644.2568994 48.51638835 1314
651.0523625 48.51638835 1314
657.8478257 48.51638835 1314
663.1258384 48.40562034 1311
669.9057868 48.40562034 1311
675.6534152 48.331775 1309
683.4656836 48.40562034 1311
689.1926257 48.331775 1309
697.0255804 48.40562034 1311
705.4160678 48.51638835 1314
713.8375846 48.62715636 1317
720.6485625 48.62715636 1317
730.7737069 48.84869238 1323
737.6157143 48.84869238 1323
744.4577218 48.84869238 1323
751.2997292 48.84869238 1323
756.4225943 48.73792437 1320
763.249087 48.73792437 1320
768.3254079 48.62715636 1317
771.6050128 48.40562034 1311
778.3849611 48.40562034 1311
782.1703828 48.22100699 1306
788.9244733 48.22100699 1306
793.8508182 48.11023898 1303
798.7461336 47.99947097 1300
804.2300112 47.92562563 1298
810.942729 47.92562563 1298
815.7656422 47.81485762 1295
819.287313 47.63024427 1290
825.9586581 47.63024427 1290
830.6936544 47.51947626 1287
837.3494847 47.51947626 1287
842.0379367 47.40870825 1284
848.6782523 47.40870825 1284
855.3185679 47.40870825 1284
861.9588835 47.40870825 1284
868.5991991 47.40870825 1284
875.2395146 47.40870825 1284
881.8798302 47.40870825 1284
888.5201458 47.40870825 1284
897.2519578 47.51947626 1287
903.9077882 47.51947626 1287
910.5636185 47.51947626 1287
915.0814082 47.40870825 1284
921.7217238 47.40870825 1284
928.3620394 47.40870825 1284
933.545965 47.33486291 1282
937.9758377 47.2240949 1279
942.3746809 47.11332689 1276
948.9736239 47.11332689 1276
954.0748041 47.03948155 1274
958.4012451 46.92871354 1271
962.6966566 46.81794553 1268
967.7254347 46.74410019 1266
974.2726618 46.74410019 1266
978.4956711 46.63333218 1263
983.4675617 46.55948684 1261
989.9889308 46.55948684 1261
994.139538 46.44871883 1258
1000.645392 46.44871883 1258
1007.151247 46.44871883 1258
1012.045564 46.37487349 1256
1016.108254 46.26410548 1253
1020.956026 46.19026014 1251
1024.961829 46.07949213 1248
456.0569171 55.56441704 1320
462.8834098 55.56441704 1320
469.7099024 55.56441704 1320
476.5363951 55.56441704 1320
482.2643357 55.43813427 1317
487.9612469 55.31185151 1314
493.6271285 55.18556874 1311
500.4070769 55.18556874 1311
506.4132846 55.10138023 1309
512.006764 54.97509746 1306
518.7608545 54.97509746 1306
525.514945 54.97509746 1306
532.2690354 54.97509746 1306
539.0231259 54.97509746 1306
545.7772164 54.97509746 1306
552.5313068 54.97509746 1306
559.2853973 54.97509746 1306
566.0394878 54.97509746 1306
572.7935783 54.97509746 1306
579.5476687 54.97509746 1306
586.3017592 54.97509746 1306
594.4181525 55.10138023 1309
601.1877578 55.10138023 1309
607.957363 55.10138023 1309
615.6661996 55.18556874 1311
622.446148 55.18556874 1311
630.6659731 55.31185151 1314
637.4614362 55.31185151 1314
644.2568994 55.31185151 1314
651.0523625 55.31185151 1314
657.8478257 55.31185151 1314
664.6432888 55.31185151 1314
669.9057868 55.18556874 1311
676.6857352 55.18556874 1311
683.4656836 55.18556874 1311
