# .PCD v0.7 - Point Cloud Data file format
VERSION 0.7
FIELDS x y z rgb
SIZE 4 4 4 4
TYPE F F F F
COUNT 1 1 1 1
WIDTH 1061
HEIGHT 1
VIEWPOINT 0 0 0 1 0 0 0
POINTS 1061
DATA ascii
366.7877975 553.2200598 1369 4.701977123e-39
396.8077173 587.1648991 1453 4.701977123e-39
452.0846312 644.5478418 1595 4.701977123e-39
473.6093802 663.1366824 1641 4.701977123e-39
495.3161333 681.3214177 1686 4.701977123e-39
499.8500786 675.6639445 1672 4.701977123e-39
504.2392196 670.0064713 1658 4.701977123e-39
504.7719974 659.4997353 1632 4.701977123e-39
502.8345756 646.1642627 1599 4.701977123e-39
489.6880782 619.0892123 1532 4.701977123e-39
486.567362 605.3496345 1498 4.701977123e-39
482.764995 591.2059514 1463 4.701977123e-39
482.2873165 581.5074259 1439 4.701977123e-39
481.901728 572.2130056 1416 4.701977123e-39
-397.7795437 475.5796594 1162 4.701977123e-39
-385.7014326 468.2126767 1144 4.701977123e-39
-373.1455387 460.0271404 1124 4.701977123e-39
-367.3326767 460.0271404 1124 4.701977123e-39
-360.8765411 459.2085868 1122 4.701977123e-39
-355.7069529 460.0271404 1124 4.701977123e-39
-350.5166783 460.845694 1126 4.701977123e-39
-345.9179615 462.4828013 1130 4.701977123e-39
-340.6759711 463.3013549 1132 4.701977123e-39
-334.8217365 463.3013549 1132 4.701977123e-39
-329.5487165 464.1199086 1134 4.701977123e-39
173.3212487 552.9329775 1351 4.701977123e-39
174.7026286 535.7433512 1309 4.701977123e-39
175.9423343 483.3559189 1181 4.701977123e-39
178.6586985 474.3518289 1159 4.701977123e-39
184.6525659 474.3518289 1159 4.701977123e-39
189.9884646 472.7147217 1155 4.701977123e-39
195.6223182 471.8961681 1153 4.701977123e-39
201.5851561 471.8961681 1153 4.701977123e-39
207.547994 471.8961681 1153 4.701977123e-39
213.1404749 471.0776144 1151 4.701977123e-39
219.4736698 471.8961681 1153 4.701977123e-39
225.8275511 472.7147217 1155 4.701977123e-39
232.6035053 474.3518289 1159 4.701977123e-39
240.4501565 478.0353203 1168 4.701977123e-39
247.9678233 480.900258 1175 4.701977123e-39
256.8551405 486.2208566 1188 4.701977123e-39
265.6555392 491.1321784 1200 4.701977123e-39
289.1900378 510.7774655 1248 4.701977123e-39
299.9082751 518.1444482 1266 4.701977123e-39
312.749217 528.7856454 1292 4.701977123e-39
320.9143305 531.2413063 1298 4.701977123e-39
329.6463214 534.5155208 1306 4.701977123e-39
340.779284 541.4732267 1323 4.701977123e-39
351.2998236 547.2031021 1337 4.701977123e-39
368.3953408 562.755621 1375 4.701977123e-39
398.4462901 597.1348735 1459 4.701977123e-39
431.5922022 634.7883405 1551 4.701977123e-39
453.2183858 654.4336277 1599 4.701977123e-39
474.7638211 673.2603612 1645 4.701977123e-39
495.3161333 690.0407106 1686 4.701977123e-39
499.8500786 684.3108352 1672 4.701977123e-39
503.0227197 676.9438525 1654 4.701977123e-39
503.5348111 666.3026553 1628 4.701977123e-39
502.8345756 654.4336277 1599 4.701977123e-39
490.6469974 628.2399115 1535 4.701977123e-39
486.567362 613.0966693 1498 4.701977123e-39
483.7549437 599.9998112 1466 4.701977123e-39
482.2873165 588.9493372 1439 4.701977123e-39
481.901728 579.5359705 1416 4.701977123e-39
-396.0679277 479.5167996 1157 4.701977123e-39
-383.678523 471.64228 1138 4.701977123e-39
-371.8176186 464.1822087 1120 4.701977123e-39
-366.025443 464.1822087 1120 4.701977123e-39
-359.5899937 463.3533119 1118 4.701977123e-39
-355.0740223 465.0111055 1122 4.701977123e-39
-349.8940909 465.8400023 1124 4.701977123e-39
-345.9179615 468.3266927 1130 4.701977123e-39
-340.6759711 469.1555895 1132 4.701977123e-39
-336.0048521 470.8133832 1136 4.701977123e-39
-330.7111459 471.64228 1138 4.701977123e-39
172.5515022 557.4330989 1345 4.701977123e-39
176.6872214 491.5358032 1186 4.701977123e-39
179.1211455 481.5890416 1162 4.701977123e-39
184.6525659 480.3456964 1159 4.701977123e-39
190.317449 479.5167996 1157 4.701977123e-39
195.9616457 478.6879028 1155 4.701977123e-39
201.5851561 477.859006 1153 4.701977123e-39
207.547994 477.859006 1153 4.701977123e-39
213.881189 478.6879028 1155 4.701977123e-39
220.2350702 479.5167996 1157 4.701977123e-39
226.6096379 480.3456964 1159 4.701977123e-39
233.2055851 481.5890416 1162 4.701977123e-39
241.8912105 486.9768708 1175 4.701977123e-39
249.2340419 489.4635612 1181 4.701977123e-39
257.9361806 494.436942 1193 4.701977123e-39
266.5410577 498.9958744 1204 4.701977123e-39
279.3376313 511.014878 1233 4.701977123e-39
289.1900378 517.231604 1248 4.701977123e-39
299.1975919 523.44833 1263 4.701977123e-39
311.5388872 533.3950916 1287 4.701977123e-39
320.1726179 536.7106789 1295 4.701977123e-39
328.889094 540.0262661 1303 4.701977123e-39
340.0065418 547.0718889 1320 4.701977123e-39
351.2998236 554.1175117 1337 4.701977123e-39
368.3953408 569.8665509 1375 4.701977123e-39
399.538672 606.3380102 1463 4.701977123e-39
433.5400715 645.7106082 1558 4.701977123e-39
454.3521403 664.3607863 1603 4.701977123e-39
476.2068723 683.8398611 1650 4.701977123e-39
495.3161333 698.7600035 1686 4.701977123e-39
499.8500786 692.9577259 1672 4.701977123e-39
503.0227197 685.4976547 1654 4.701977123e-39
503.5348111 674.7219963 1628 4.701977123e-39
501.576703 661.0451991 1595 4.701977123e-39
489.6880782 634.9349498 1532 4.701977123e-39
487.8666073 622.5014978 1502 4.701977123e-39
483.7549437 607.5813554 1466 4.701977123e-39
482.2873165 596.3912486 1439 4.701977123e-39
482.9227063 588.1022805 1419 4.701977123e-39
-381.6556134 475.0098242 1132 4.701977123e-39
-370.4896985 468.2959044 1116 4.701977123e-39
-364.0645924 467.4566644 1114 4.701977123e-39
-358.3034463 467.4566644 1114 4.701977123e-39
-353.8081613 469.1351444 1118 4.701977123e-39
-349.2715036 470.8136243 1122 4.701977123e-39
-345.9179615 474.1705842 1130 4.701977123e-39
-340.6759711 475.0098242 1132 4.701977123e-39
-336.59641 477.5275441 1138 4.701977123e-39
176.9851763 498.5085434 1188 4.701977123e-39
179.1211455 487.5984237 1162 4.701977123e-39
184.6525659 486.3395638 1159 4.701977123e-39
190.317449 485.5003238 1157 4.701977123e-39
195.9616457 484.6610838 1155 4.701977123e-39
201.9348268 484.6610838 1155 4.701977123e-39
207.9080079 484.6610838 1155 4.701977123e-39
213.881189 484.6610838 1155 4.701977123e-39
220.6157704 486.3395638 1159 4.701977123e-39
227.1962029 487.5984237 1162 4.701977123e-39
233.6069717 488.4376637 1164 4.701977123e-39
242.3029402 493.8927235 1177 4.701977123e-39
250.2892242 497.6693034 1186 4.701977123e-39
258.8010127 502.2851233 1197 4.701977123e-39
267.6479558 507.3205631 1209 4.701977123e-39
280.0172849 518.6503027 1236 4.701977123e-39
289.1900378 523.6857425 1248 4.701977123e-39
298.0131201 527.8819424 1258 4.701977123e-39
308.8761617 535.4351022 1276 4.701977123e-39
317.4530049 538.792062 1284 4.701977123e-39
326.1125936 542.1490219 1292 4.701977123e-39
340.0065418 553.8983815 1320 4.701977123e-39
352.8763374 563.5496412 1343 4.701977123e-39
370.0028841 579.4952007 1381 4.701977123e-39
401.4503402 616.8413794 1470 4.701977123e-39
425.1920599 641.1793386 1528 4.701977123e-39
456.6196495 676.0077975 1611 4.701977123e-39
478.5157541 695.7299368 1658 4.701977123e-39
495.3161333 707.4792964 1686 4.701977123e-39
499.8500786 701.6046166 1672 4.701977123e-39
503.0227197 694.0514569 1654 4.701977123e-39
503.5348111 683.1413372 1628 4.701977123e-39
502.8345756 670.9723576 1599 4.701977123e-39
490.6469974 644.1166785 1535 4.701977123e-39
488.8410412 631.5280789 1505 4.701977123e-39
485.0748754 616.8413794 1470 4.701977123e-39
483.29278 605.0920198 1442 4.701977123e-39
-381.6556134 480.8640588 1132 4.701977123e-39
-369.8257385 473.2178105 1114 4.701977123e-39
-363.4109756 472.3682274 1112 4.701977123e-39
-357.6601726 472.3682274 1112 4.701977123e-39
-353.1752308 474.0673936 1116 4.701977123e-39
-348.6489162 475.7665599 1120 4.701977123e-39
-345.9179615 480.0144756 1130 4.701977123e-39
-341.8797731 482.5632251 1136 4.701977123e-39
-337.1879678 484.2623914 1140 4.701977123e-39
175.6443795 500.8292626 1179 4.701977123e-39
179.1211455 493.6078059 1162 4.701977123e-39
184.6525659 492.3334312 1159 4.701977123e-39
190.317449 491.4838481 1157 4.701977123e-39
196.3009732 491.4838481 1157 4.701977123e-39
201.9348268 490.6342649 1155 4.701977123e-39
208.2680217 491.4838481 1157 4.701977123e-39
214.251546 491.4838481 1157 4.701977123e-39
221.1868208 493.6078059 1162 4.701977123e-39
227.5872463 494.4573891 1164 4.701977123e-39
234.4097448 496.1565554 1168 4.701977123e-39
242.7146699 500.8292626 1179 4.701977123e-39
250.7112971 504.6523868 1188 4.701977123e-39
259.4496368 509.7498856 1200 4.701977123e-39
267.6479558 513.5730098 1209 4.701977123e-39
279.3376313 523.7680075 1233 4.701977123e-39
288.0314239 528.0159232 1243 4.701977123e-39
297.5393313 533.5382136 1256 4.701977123e-39
308.3920298 541.1844619 1274 4.701977123e-39
316.2168172 543.3084198 1279 4.701977123e-39
324.8505479 546.7067523 1287 4.701977123e-39
339.2337997 559.4504995 1317 4.701977123e-39
354.1900988 572.6190382 1348 4.701977123e-39
373.4858946 592.1594505 1394 4.701977123e-39
407.1853451 633.3642329 1491 4.701977123e-39
428.2529975 653.7542283 1539 4.701977123e-39
465.1228087 697.0829686 1641 4.701977123e-39
485.1537892 714.0746315 1681 4.701977123e-39
497.9601696 720.0217135 1695 4.701977123e-39
502.5406592 714.0746315 1681 4.701977123e-39
505.7598445 706.4283832 1663 4.701977123e-39
504.7719974 693.2598445 1632 4.701977123e-39
504.0924482 680.9408889 1603 4.701977123e-39
491.9255563 653.7542283 1539 4.701977123e-39
488.8410412 639.3113149 1505 4.701977123e-39
486.0648241 625.7179846 1473 4.701977123e-39
485.6388615 615.5229869 1449 4.701977123e-39
-396.0679277 497.4673723 1157 4.701977123e-39
-381.6556134 486.7182934 1132 4.701977123e-39
-369.1617785 478.1190303 1112 4.701977123e-39
-362.1037418 476.3991776 1108 4.701977123e-39
-356.3736253 476.3991776 1108 4.701977123e-39
-351.9093697 478.1190303 1112 4.701977123e-39
-348.0263289 480.6988092 1118 4.701977123e-39
-346.5302057 486.7182934 1132 4.701977123e-39
-341.8797731 488.438146 1136 4.701977123e-39
-337.1879678 490.1579987 1140 4.701977123e-39
175.7703299 566.2614774 1317 4.701977123e-39
175.3464246 506.0666355 1177 4.701977123e-39
179.4294435 500.4771144 1164 4.701977123e-39
184.6525659 498.3272986 1159 4.701977123e-39
190.317449 497.4673723 1157 4.701977123e-39
195.9616457 496.607446 1155 4.701977123e-39
201.9348268 496.607446 1155 4.701977123e-39
208.2680217 497.4673723 1157 4.701977123e-39
214.251546 497.4673723 1157 4.701977123e-39
221.1868208 499.6171881 1162 4.701977123e-39
227.5872463 500.4771144 1164 4.701977123e-39
234.4097448 502.196967 1168 4.701977123e-39
243.1263996 507.7864881 1181 4.701977123e-39
251.3444064 512.0861196 1191 4.701977123e-39
259.4496368 515.9557881 1200 4.701977123e-39
267.6479558 519.8254565 1209 4.701977123e-39
278.8845289 529.2846459 1231 4.701977123e-39
288.0314239 534.4442038 1243 4.701977123e-39
296.8286482 538.7438354 1253 4.701977123e-39
306.939634 545.1932827 1268 4.701977123e-39
315.4751046 548.632988 1276 4.701977123e-39
324.0933205 552.0726932 1284 4.701977123e-39
338.4610575 564.9715879 1314 4.701977123e-39
354.9783557 580.8802247 1351 4.701977123e-39
374.2896662 600.6585299 1397 4.701977123e-39
409.0970134 644.0848088 1498 4.701977123e-39
431.5922022 666.8728561 1551 4.701977123e-39
469.9412655 712.8789138 1658 4.701977123e-39
489.1943324 728.7875506 1695 4.701977123e-39
499.1352968 730.5074033 1699 4.701977123e-39
504.0354262 724.9178822 1686 4.701977123e-39
506.9763444 716.7485822 1667 4.701977123e-39
507.5556665 705.5695402 1641 4.701977123e-39
505.3503209 690.9507928 1607 4.701977123e-39
493.2041153 663.4331508 1543 4.701977123e-39
490.1402865 648.8144035 1509 4.701977123e-39
487.3847557 635.0555825 1477 4.701977123e-39
485.6388615 623.0166141 1449 4.701977123e-39
-399.8334828 508.2373787 1168 4.701977123e-39
-385.0271294 496.9238754 1142 4.701977123e-39
-371.8176186 487.3509111 1120 4.701977123e-39
-362.7573587 482.9995637 1110 4.701977123e-39
-356.3736253 482.1292942 1108 4.701977123e-39
-351.9093697 483.8698332 1112 4.701977123e-39
-348.0263289 486.4806416 1118 4.701977123e-39
-346.5302057 492.572528 1132 4.701977123e-39
-342.4816741 495.1833365 1138 4.701977123e-39
-338.3710835 497.7941449 1144 4.701977123e-39
169.2724197 531.2995201 1221 4.701977123e-39
171.8479737 519.9860168 1195 4.701977123e-39
175.0484698 511.2833219 1175 4.701977123e-39
179.4294435 506.4968398 1164 4.701977123e-39
184.6525659 504.3211661 1159 4.701977123e-39
189.9884646 502.5806271 1155 4.701977123e-39
195.9616457 502.5806271 1155 4.701977123e-39
201.9348268 502.5806271 1155 4.701977123e-39
207.9080079 502.5806271 1155 4.701977123e-39
214.251546 503.4508966 1157 4.701977123e-39
221.1868208 505.6265703 1162 4.701977123e-39
227.9782897 507.3671093 1166 4.701977123e-39
234.4097448 508.2373787 1168 4.701977123e-39
243.1263996 513.8941304 1181 4.701977123e-39
251.3444064 518.2454778 1191 4.701977123e-39
259.4496368 522.1616905 1200 4.701977123e-39
267.6479558 526.0779032 1209 4.701977123e-39
278.8845289 535.6508675 1231 4.701977123e-39
287.5679783 540.0022149 1241 4.701977123e-39
296.3548595 544.3535623 1251 4.701977123e-39
306.4555021 550.8805835 1266 4.701977123e-39
314.2389169 553.0562572 1271 4.701977123e-39
322.8312749 556.5373351 1279 4.701977123e-39
338.4610575 571.7670511 1314 4.701977123e-39
355.7666126 589.1724408 1354 4.701977123e-39
375.0934379 609.1886389 1400 4.701977123e-39
410.1893953 653.5723826 1502 4.701977123e-39
433.5400715 677.9399281 1558 4.701977123e-39
472.4922133 725.369615 1667 4.701977123e-39
491.7918244 741.4696005 1704 4.701977123e-39
502.0731149 743.6452742 1709 4.701977123e-39
506.7260067 737.5533878 1695 4.701977123e-39
508.4969693 727.5452887 1672 4.701977123e-39
508.7928527 715.7966507 1645 4.701977123e-39
506.6081935 701.0020695 1611 4.701977123e-39
493.2041153 671.412907 1543 4.701977123e-39
491.4395318 658.3588647 1513 4.701977123e-39
487.3847557 642.694014 1477 4.701977123e-39
485.6388615 630.5102413 1449 4.701977123e-39
-388.0614939 506.7925829 1151 4.701977123e-39
-373.8094987 495.7849247 1126 4.701977123e-39
-362.7573587 488.7400234 1110 4.701977123e-39
-356.3736253 487.8594108 1108 4.701977123e-39
-351.2764392 488.7400234 1110 4.701977123e-39
-347.4037415 491.3818614 1116 4.701977123e-39
-346.5302057 498.4267626 1132 4.701977123e-39
-343.0835751 501.9492133 1140 4.701977123e-39
-340.4415359 506.7925829 1151 4.701977123e-39
168.9951512 536.7334131 1219 4.701977123e-39
171.2727504 524.404836 1191 4.701977123e-39
174.3035827 515.1584031 1170 4.701977123e-39
179.4294435 512.5165651 1164 4.701977123e-39
184.6525659 510.3150335 1159 4.701977123e-39
189.9884646 508.5538082 1155 4.701977123e-39
195.9616457 508.5538082 1155 4.701977123e-39
201.9348268 508.5538082 1155 4.701977123e-39
207.9080079 508.5538082 1155 4.701977123e-39
214.251546 509.4344208 1157 4.701977123e-39
220.6157704 510.3150335 1159 4.701977123e-39
227.5872463 512.5165651 1164 4.701977123e-39
234.0083582 513.3971778 1166 4.701977123e-39
242.3029402 518.2405474 1177 4.701977123e-39
249.8671513 521.3226917 1184 4.701977123e-39
257.9361806 525.2854486 1193 4.701977123e-39
266.5410577 530.1288182 1204 4.701977123e-39
277.0721193 538.4946384 1223 4.701977123e-39
285.714196 542.8977017 1233 4.701977123e-39
294.4597045 547.300765 1243 4.701977123e-39
305.7293042 556.1068915 1263 4.701977123e-39
313.4972043 558.3084232 1268 4.701977123e-39
322.0740475 561.8308738 1276 4.701977123e-39
337.173154 576.3609826 1309 4.701977123e-39
356.5548695 597.4956863 1357 4.701977123e-39
376.7009812 619.0706964 1406 4.701977123e-39
414.2858273 667.9446987 1517 4.701977123e-39
437.9923444 693.0421594 1574 4.701977123e-39
476.4603543 740.1549364 1681 4.701977123e-39
493.2348756 752.4835136 1709 4.701977123e-39
502.0731149 752.4835136 1709 4.701977123e-39
507.9218203 748.0804503 1699 4.701977123e-39
509.7134693 737.9534048 1676 4.701977123e-39
507.5556665 722.5426833 1641 4.701977123e-39
507.8660661 711.0947188 1615 4.701977123e-39
493.2041153 679.3926632 1543 4.701977123e-39
490.1402865 664.4222481 1509 4.701977123e-39
486.0648241 648.5712203 1473 4.701977123e-39
486.9794795 639.7650937 1453 4.701977123e-39
-390.0844035 515.4179451 1157 4.701977123e-39
-372.4815786 499.8262181 1122 4.701977123e-39
-364.0645924 496.2623948 1114 4.701977123e-39
-357.016899 494.4804832 1110 4.701977123e-39
-352.5423003 496.2623948 1114 4.701977123e-39
-348.0263289 498.0443065 1118 4.701977123e-39
-346.5302057 504.2809973 1132 4.701977123e-39
-344.2873771 509.6267322 1144 4.701977123e-39
-342.8077673 516.3089009 1159 4.701977123e-39
167.6291073 559.5202584 1256 4.701977123e-39
168.9951512 543.0375757 1219 4.701977123e-39
171.2727504 530.5641941 1191 4.701977123e-39
174.3035827 521.2091579 1170 4.701977123e-39
179.4294435 518.5362905 1164 4.701977123e-39
184.3339247 515.4179451 1157 4.701977123e-39
189.6594803 513.6360334 1153 4.701977123e-39
195.6223182 513.6360334 1153 4.701977123e-39
201.5851561 513.6360334 1153 4.701977123e-39
207.547994 513.6360334 1153 4.701977123e-39
213.881189 514.5269893 1155 4.701977123e-39
220.2350702 515.4179451 1157 4.701977123e-39
226.6096379 516.3089009 1159 4.701977123e-39
233.6069717 518.5362905 1164 4.701977123e-39
241.4794808 522.5455917 1173 4.701977123e-39
249.2340419 526.109415 1181 4.701977123e-39
256.8551405 529.2277604 1188 4.701977123e-39
264.9914004 533.2370616 1197 4.701977123e-39
275.4862609 541.7011419 1216 4.701977123e-39
284.5555821 547.0468769 1228 4.701977123e-39
293.2752326 551.501656 1238 4.701977123e-39
304.5189745 560.4112143 1258 4.701977123e-39
313.0027292 563.9750376 1266 4.701977123e-39
321.5692293 567.5388609 1274 4.701977123e-39
339.2337997 586.6944111 1317 4.701977123e-39
358.9196402 608.5228288 1366 4.701977123e-39
379.38022 630.7967245 1416 4.701977123e-39
439.1054126 702.9641464 1578 4.701977123e-39
480.4284952 755.0850621 1695 4.701977123e-39
495.8323676 765.3310541 1718 4.701977123e-39
503.2482422 763.1036646 1713 4.701977123e-39
506.7260067 755.0850621 1695 4.701977123e-39
509.7134693 746.6209818 1676 4.701977123e-39
507.5556665 731.0292549 1641 4.701977123e-39
506.6081935 717.6649175 1611 4.701977123e-39
491.9255563 685.5905078 1539 4.701977123e-39
488.8410412 670.4442587 1505 4.701977123e-39
485.0748754 654.8525318 1470 4.701977123e-39
485.6388615 645.4974956 1449 4.701977123e-39
-406.6799465 535.3716038 1188 4.701977123e-39
-396.1531323 529.5131603 1175 4.701977123e-39
-375.1374188 509.2339329 1130 4.701977123e-39
-365.3718261 503.8261389 1118 4.701977123e-39
-357.6601726 501.1222419 1112 4.701977123e-39
-352.5423003 502.0235409 1114 4.701977123e-39
-348.6489162 504.7274379 1120 4.701977123e-39
-347.7546941 511.9378299 1136 4.701977123e-39
-346.3940307 518.6975723 1151 4.701977123e-39
-345.4697776 526.3586138 1168 4.701977123e-39
169.5496882 551.1443362 1223 4.701977123e-39
171.5603621 537.6248513 1193 4.701977123e-39
174.3035827 527.2599128 1170 4.701977123e-39
179.7377415 525.4573148 1166 4.701977123e-39
184.6525659 522.3027683 1159 4.701977123e-39
189.3304959 518.6975723 1151 4.701977123e-39
195.2829907 518.6975723 1151 4.701977123e-39
201.2354854 518.6975723 1151 4.701977123e-39
207.1879801 518.6975723 1151 4.701977123e-39
213.5108319 519.5988713 1153 4.701977123e-39
219.85437 520.5001703 1155 4.701977123e-39
226.2185945 521.4014693 1157 4.701977123e-39
233.2055851 523.6547168 1162 4.701977123e-39
240.8618862 527.2599128 1170 4.701977123e-39
247.9678233 529.5131603 1175 4.701977123e-39
255.9903083 533.5690058 1184 4.701977123e-39
264.1058819 537.6248513 1193 4.701977123e-39
274.3535049 545.7365422 1211 4.701977123e-39
283.3969682 551.1443362 1223 4.701977123e-39
292.0907608 555.6508312 1233 4.701977123e-39
304.0348425 566.0157696 1256 4.701977123e-39
312.2610165 569.1703161 1263 4.701977123e-39
320.8120019 572.7755121 1271 4.701977123e-39
341.2944454 597.110585 1325 4.701977123e-39
359.7078971 616.9391629 1369 4.701977123e-39
382.8632305 643.9781328 1429 4.701977123e-39
420.2939276 693.5495776 1539 4.701977123e-39
442.4446173 716.532702 1590 4.701977123e-39
482.979443 767.9067448 1704 4.701977123e-39
495.8323676 774.2158378 1718 4.701977123e-39
503.2482422 771.9625903 1713 4.701977123e-39
506.7260067 763.8508993 1695 4.701977123e-39
508.4969693 753.4859609 1672 4.701977123e-39
507.5556665 739.5158264 1641 4.701977123e-39
505.3503209 724.1937435 1607 4.701977123e-39
490.6469974 691.7469796 1535 4.701977123e-39
486.567362 675.0729482 1498 4.701977123e-39
483.7549437 660.6521642 1466 4.701977123e-39
485.6388615 652.9911228 1449 4.701977123e-39
-399.8617999 540.603805 1186 4.701977123e-39
-386.4247393 530.5757412 1164 4.701977123e-39
-369.2935273 515.0778243 1130 4.701977123e-39
-360.8765411 511.4312557 1122 4.701977123e-39
-354.4410918 510.5196135 1120 4.701977123e-39
-350.5166783 513.25454 1126 4.701977123e-39
-351.7342812 523.7384249 1149 4.701977123e-39
-351.5101893 532.3990255 1168 4.701977123e-39
-353.4558084 544.7061948 1195 4.701977123e-39
169.5496882 557.4691851 1223 4.701977123e-39
171.8479737 544.7061948 1195 4.701977123e-39
174.750515 534.6781309 1173 4.701977123e-39
180.0460395 532.3990255 1168 4.701977123e-39
184.6525659 528.2966357 1159 4.701977123e-39
189.3304959 524.6500671 1151 4.701977123e-39
195.2829907 524.6500671 1151 4.701977123e-39
200.8858147 523.7384249 1149 4.701977123e-39
206.8279663 523.7384249 1149 4.701977123e-39
213.1404749 524.6500671 1151 4.701977123e-39
219.4736698 525.5617092 1153 4.701977123e-39
225.8275511 526.4733514 1155 4.701977123e-39
232.2021187 527.3849936 1157 4.701977123e-39
239.2149673 529.664099 1162 4.701977123e-39
247.5457504 534.6781309 1173 4.701977123e-39
254.9092682 537.4130574 1179 4.701977123e-39
262.9989838 541.5154472 1188 4.701977123e-39
273.4473001 550.1760478 1207 4.701977123e-39
281.7749087 554.2784375 1216 4.701977123e-39
290.4325002 558.8366483 1226 4.701977123e-39
302.0983149 568.8647122 1248 4.701977123e-39
311.0248288 573.422923 1258 4.701977123e-39
318.7927288 575.7020284 1263 4.701977123e-39
327.3850869 579.3485971 1271 4.701977123e-39
355.7666126 617.181747 1354 4.701977123e-39
384.7386977 654.5590759 1436 4.701977123e-39
424.6634552 708.8017848 1555 4.701977123e-39
448.2882255 734.3277655 1611 4.701977123e-39
485.5303908 780.821516 1713 4.701977123e-39
497.2754187 785.3797268 1723 4.701977123e-39
503.2482422 780.821516 1713 4.701977123e-39
507.9218203 774.4400208 1699 4.701977123e-39
508.4969693 762.1328516 1672 4.701977123e-39
506.3184802 746.1791136 1637 4.701977123e-39
504.0924482 730.6811968 1603 4.701977123e-39
488.4095192 696.4946155 1528 4.701977123e-39
484.2936827 679.6292355 1491 4.701977123e-39
481.4450634 665.0429608 1459 4.701977123e-39
484.633398 659.1172867 1446 4.701977123e-39
-382.7729591 531.5245472 1153 4.701977123e-39
-362.1630885 519.0777451 1126 4.701977123e-39
-355.7069529 518.1557598 1124 4.701977123e-39
-351.761853 520.9217158 1130 4.701977123e-39
-354.183258 533.3685178 1157 4.701977123e-39
-354.8206448 543.5103565 1179 4.701977123e-39
-358.1882711 558.2621219 1211 4.701977123e-39
-376.3364973 596.9855061 1295 4.701977123e-39
170.2428595 566.0989973 1228 4.701977123e-39
172.5670029 553.1912026 1200 4.701977123e-39
175.3464246 542.5883712 1177 4.701977123e-39
180.0460395 538.4394372 1168 4.701977123e-39
184.3339247 533.3685178 1157 4.701977123e-39
189.3304959 530.6025618 1151 4.701977123e-39
194.9436631 529.6805765 1149 4.701977123e-39
200.8858147 529.6805765 1149 4.701977123e-39
206.8279663 529.6805765 1149 4.701977123e-39
212.7701178 529.6805765 1149 4.701977123e-39
219.0929696 530.6025618 1151 4.701977123e-39
225.4365077 531.5245472 1153 4.701977123e-39
231.8007322 532.4465325 1155 4.701977123e-39
238.185643 533.3685178 1157 4.701977123e-39
246.0684953 537.5174519 1166 4.701977123e-39
253.61202 540.7444005 1173 4.701977123e-39
261.0065673 543.5103565 1179 4.701977123e-39
270.2755833 549.9642539 1193 4.701977123e-39
278.5307897 554.1131879 1202 4.701977123e-39
286.4052959 557.3401366 1209 4.701977123e-39
294.3522042 560.5670853 1216 4.701977123e-39
306.080078 570.708924 1238 4.701977123e-39
313.7445463 573.0138874 1243 4.701977123e-39
321.4607304 575.3188507 1248 4.701977123e-39
359.7078971 631.0989636 1369 4.701977123e-39
404.2971413 695.6379373 1509 4.701977123e-39
429.8522691 725.6024607 1574 4.701977123e-39
451.9056972 748.6520942 1624 4.701977123e-39
486.947584 791.985405 1718 4.701977123e-39
497.2754187 794.2903684 1723 4.701977123e-39
503.2482422 789.6804417 1713 4.701977123e-39
506.7260067 781.3825737 1695 4.701977123e-39
506.9763444 768.4747789 1667 4.701977123e-39
503.5348111 750.4960648 1628 4.701977123e-39
484.8934821 699.3258786 1517 4.701977123e-39
482.0200034 684.1131205 1484 4.701977123e-39
479.4651659 669.8223478 1453 4.701977123e-39
483.29278 664.7514284 1442 4.701977123e-39
-403.5704675 557.9986123 1197 4.701977123e-39
-385.7607793 541.6828634 1162 4.701977123e-39
-373.8688454 533.2919068 1144 4.701977123e-39
-357.6057444 526.7656072 1130 4.701977123e-39
-353.0070277 528.6302642 1134 4.701977123e-39
-356.9383568 543.5475204 1166 4.701977123e-39
-358.4320509 555.2016267 1191 4.701977123e-39
-362.6249549 571.5173756 1226 4.701977123e-39
-382.7298586 613.9383228 1317 4.701977123e-39
173.5736438 562.6602548 1207 4.701977123e-39
176.3892666 551.9384769 1184 4.701977123e-39
180.3543376 545.4121774 1170 4.701977123e-39
184.6525659 540.2843706 1159 4.701977123e-39
189.3304959 536.5550566 1151 4.701977123e-39
194.9436631 535.6227281 1149 4.701977123e-39
200.8858147 535.6227281 1149 4.701977123e-39
206.8279663 535.6227281 1149 4.701977123e-39
212.7701178 535.6227281 1149 4.701977123e-39
219.0929696 536.5550566 1151 4.701977123e-39
225.0454644 536.5550566 1151 4.701977123e-39
231.3993456 537.4873851 1153 4.701977123e-39
237.7739133 538.4197136 1155 4.701977123e-39
245.6464224 542.6151919 1164 4.701977123e-39
252.5309798 544.4798489 1168 4.701977123e-39
260.1210488 547.7429987 1175 4.701977123e-39
269.1428272 553.803134 1188 4.701977123e-39
276.9087302 557.0662837 1195 4.701977123e-39
284.7470353 560.3294335 1202 4.701977123e-39
292.1736106 562.6602548 1207 4.701977123e-39
302.3715148 570.1188829 1223 4.701977123e-39
309.9584094 572.4497041 1228 4.701977123e-39
334.8549275 606.0135304 1300 4.701977123e-39
441.0491833 752.8552705 1615 4.701977123e-39
470.2713228 787.8175896 1690 4.701977123e-39
486.947584 800.8701887 1718 4.701977123e-39
497.2754187 803.2010099 1723 4.701977123e-39
503.2482422 798.5393674 1713 4.701977123e-39
505.2312398 787.8175896 1690 4.701977123e-39
504.2392196 772.9003334 1658 4.701977123e-39
502.2976248 757.0507488 1624 4.701977123e-39
495.7612332 723.0207582 1551 4.701977123e-39
480.7207581 689.9230962 1480 4.701977123e-39
479.4651659 677.3366613 1453 4.701977123e-39
484.633398 674.0735115 1446 4.701977123e-39
-387.7526594 550.5202606 1168 4.701977123e-39
-376.1565044 542.5075513 1151 4.701977123e-39
-366.6660043 537.3228571 1140 4.701977123e-39
-359.504536 535.4375137 1136 4.701977123e-39
-354.8747897 537.3228571 1140 4.701977123e-39
-360.3056998 554.7622831 1177 4.701977123e-39
-367.460566 575.5010601 1221 4.701977123e-39
-379.7801322 605.195218 1284 4.701977123e-39
-386.7983613 627.3480024 1331 4.701977123e-39
-402.4644053 664.5835337 1410 4.701977123e-39
174.1488671 570.7877017 1211 4.701977123e-39
176.6872214 559.0043057 1186 4.701977123e-39
180.8167846 552.8769398 1173 4.701977123e-39
185.1305277 547.6922455 1162 4.701977123e-39
189.3304959 542.5075513 1151 4.701977123e-39
194.9436631 541.5648796 1149 4.701977123e-39
200.8858147 541.5648796 1149 4.701977123e-39
206.8279663 541.5648796 1149 4.701977123e-39
212.7701178 541.5648796 1149 4.701977123e-39
218.7122694 541.5648796 1149 4.701977123e-39
225.0454644 542.5075513 1151 4.701977123e-39
230.9979591 542.5075513 1151 4.701977123e-39
237.7739133 544.3928947 1155 4.701977123e-39
245.2243495 547.6922455 1162 4.701977123e-39
252.0985638 549.5775889 1166 4.701977123e-39
259.6782896 552.8769398 1173 4.701977123e-39
267.5569688 556.6476265 1181 4.701977123e-39
275.2866706 559.9469774 1188 4.701977123e-39
283.0887746 563.2463282 1195 4.701977123e-39
290.4791489 565.6030074 1200 4.701977123e-39
299.4046643 570.7877017 1211 4.701977123e-39
306.9294998 573.1443809 1216 4.701977123e-39
329.0105298 578.8004109 1228 4.701977123e-39
455.2501477 785.7168445 1667 4.701977123e-39
474.1670616 803.1562706 1704 4.701977123e-39
486.947584 809.7549723 1718 4.701977123e-39
497.2754187 812.1116515 1723 4.701977123e-39
503.2482422 807.3982931 1713 4.701977123e-39
505.2312398 796.5575688 1690 4.701977123e-39
504.2392196 781.4748219 1658 4.701977123e-39
502.2976248 765.4494034 1624 4.701977123e-39
494.4826743 729.1565438 1547 4.701977123e-39
479.7463242 696.163035 1477 4.701977123e-39
479.4651659 684.8509748 1453 4.701977123e-39
484.633398 681.551624 1446 4.701977123e-39
-380.405014 554.6546426 1164 4.701977123e-39
-371.490557 550.3660757 1155 4.701977123e-39
-364.8844454 549.4130609 1153 4.701977123e-39
-360.7893696 552.2721054 1159 4.701977123e-39
-368.5709962 573.7149396 1204 4.701977123e-39
-382.5080912 605.640937 1271 4.701977123e-39
-387.1746052 623.7482192 1309 4.701977123e-39
-393.48233 645.1910533 1354 4.701977123e-39
-407.0313773 679.4995879 1426 4.701977123e-39
174.1488671 577.0504915 1211 4.701977123e-39
176.9851763 566.0908208 1188 4.701977123e-39
181.1250826 559.8962242 1175 4.701977123e-39
185.1305277 553.7016277 1162 4.701977123e-39
189.3304959 548.460046 1151 4.701977123e-39
194.9436631 547.5070312 1149 4.701977123e-39
200.8858147 547.5070312 1149 4.701977123e-39
206.4679524 546.5540163 1147 4.701977123e-39
212.7701178 547.5070312 1149 4.701977123e-39
218.7122694 547.5070312 1149 4.701977123e-39
225.0454644 548.460046 1151 4.701977123e-39
231.3993456 549.4130609 1153 4.701977123e-39
237.7739133 550.3660757 1155 4.701977123e-39
245.2243495 553.7016277 1162 4.701977123e-39
251.6661477 554.6546426 1164 4.701977123e-39
258.5713915 556.5606723 1168 4.701977123e-39
266.650764 560.8492391 1177 4.701977123e-39
274.3597795 564.1847911 1184 4.701977123e-39
280.9567253 565.1378059 1186 4.701977123e-39
288.3005553 567.520343 1191 4.701977123e-39
296.6850514 571.8089099 1200 4.701977123e-39
303.395772 572.7619247 1202 4.701977123e-39
323.919976 576.0974767 1209 4.701977123e-39
459.0734843 801.0089812 1681 4.701977123e-39
476.6714651 816.2572188 1713 4.701977123e-39
488.3647772 821.0222931 1723 4.701977123e-39
497.2754187 821.0222931 1723 4.701977123e-39
504.7171512 818.6397559 1718 4.701977123e-39
504.0354262 803.3915184 1686 4.701977123e-39
504.2392196 790.0493105 1658 4.701977123e-39
500.751142 771.4655209 1619 4.701977123e-39
494.4826743 737.1569863 1547 4.701977123e-39
479.7463242 703.8014666 1477 4.701977123e-39
478.1452343 690.4592587 1449 4.701977123e-39
484.633398 689.0297364 1446 4.701977123e-39
-366.783237 558.2659729 1159 4.701977123e-39
-370.7507672 573.6797012 1191 4.701977123e-39
-372.2444613 585.7216764 1216 4.701977123e-39
-390.4281733 635.8162935 1320 4.701977123e-39
-395.225974 655.0834539 1360 4.701977123e-39
-407.8876845 688.3193056 1429 4.701977123e-39
174.5802846 584.7583184 1214 4.701977123e-39
176.9851763 572.2346642 1188 4.701977123e-39
181.4333806 566.936195 1177 4.701977123e-39
185.7678101 561.6377259 1166 4.701977123e-39
189.3304959 554.4125408 1151 4.701977123e-39
194.9436631 553.4491828 1149 4.701977123e-39
200.8858147 553.4491828 1149 4.701977123e-39
206.4679524 552.4858247 1147 4.701977123e-39
212.7701178 553.4491828 1149 4.701977123e-39
219.0929696 554.4125408 1151 4.701977123e-39
225.0454644 554.4125408 1151 4.701977123e-39
231.3993456 555.3758988 1153 4.701977123e-39
237.7739133 556.3392568 1155 4.701977123e-39
244.5912401 558.2659729 1159 4.701977123e-39
251.6661477 560.6743679 1164 4.701977123e-39
258.5713915 562.601084 1168 4.701977123e-39
265.7445592 565.009479 1173 4.701977123e-39
272.73772 566.936195 1177 4.701977123e-39
278.8246759 566.936195 1177 4.701977123e-39
285.3957638 567.8995531 1179 4.701977123e-39
293.2237258 571.2713061 1186 4.701977123e-39
299.357226 571.2713061 1186 4.701977123e-39
305.4907262 571.2713061 1186 4.701977123e-39
312.149731 572.2346642 1188 4.701977123e-39
319.0973461 573.6797012 1191 4.701977123e-39
466.7201575 823.1894285 1709 4.701977123e-39
479.4541356 829.9329346 1723 4.701977123e-39
488.3647772 829.9329346 1723 4.701977123e-39
497.2754187 829.9329346 1723 4.701977123e-39
504.7171512 827.5245396 1718 4.701977123e-39
504.0354262 812.1108113 1686 4.701977123e-39
504.2392196 798.623799 1658 4.701977123e-39
500.751142 779.8383176 1619 4.701977123e-39
494.4826743 745.1574288 1547 4.701977123e-39
479.7463242 711.4398981 1477 4.701977123e-39
479.4651659 699.8796019 1453 4.701977123e-39
484.633398 696.5078488 1446 4.701977123e-39
-368.3655633 566.6940933 1164 4.701977123e-39
-365.7700684 572.0494498 1175 4.701977123e-39
-374.3873159 595.4182784 1223 4.701977123e-39
-377.0909821 610.0237963 1253 4.701977123e-39
-393.6817414 647.9981427 1331 4.701977123e-39
-396.969618 665.0379136 1366 4.701977123e-39
-407.8876845 695.7095011 1429 4.701977123e-39
174.8678963 592.0103242 1216 4.701977123e-39
178.0280182 581.7864617 1195 4.701977123e-39
181.4333806 573.023151 1177 4.701977123e-39
185.7678101 567.6677945 1166 4.701977123e-39
189.3304959 560.3650355 1151 4.701977123e-39
195.2829907 560.3650355 1151 4.701977123e-39
200.8858147 559.3913343 1149 4.701977123e-39
206.8279663 559.3913343 1149 4.701977123e-39
212.7701178 559.3913343 1149 4.701977123e-39
219.0929696 560.3650355 1151 4.701977123e-39
225.4365077 561.3387367 1153 4.701977123e-39
231.3993456 561.3387367 1153 4.701977123e-39
238.185643 563.2861391 1157 4.701977123e-39
244.5912401 564.2598403 1159 4.701977123e-39
251.6661477 566.6940933 1164 4.701977123e-39
258.1286323 567.6677945 1166 4.701977123e-39
265.7445592 571.0757486 1173 4.701977123e-39
272.2742744 572.0494498 1175 4.701977123e-39
278.8246759 573.023151 1177 4.701977123e-39
284.9116319 573.023151 1177 4.701977123e-39
291.493063 573.9968522 1179 4.701977123e-39
298.0951803 574.9705534 1181 4.701977123e-39
304.2028226 574.9705534 1181 4.701977123e-39
310.3104649 574.9705534 1181 4.701977123e-39
317.2218789 576.4311052 1184 4.701977123e-39
470.543494 838.8435762 1723 4.701977123e-39
479.4541356 838.8435762 1723 4.701977123e-39
489.7819704 841.2778292 1728 4.701977123e-39
497.2754187 838.8435762 1723 4.701977123e-39
504.7171512 836.4093232 1718 4.701977123e-39
505.2312398 822.7775065 1690 4.701977123e-39
504.2392196 807.1982875 1658 4.701977123e-39
502.2976248 790.6453672 1624 4.701977123e-39
495.7612332 755.1052738 1551 4.701977123e-39
480.7207581 720.5388815 1480 4.701977123e-39
479.4651659 707.3939154 1453 4.701977123e-39
485.6388615 705.446513 1449 4.701977123e-39
-370.2643548 575.6659517 1170 4.701977123e-39
-377.4485368 606.6633491 1233 4.701977123e-39
-380.1004872 621.4240145 1263 4.701977123e-39
-394.5690781 656.3575894 1334 4.701977123e-39
-397.84144 673.5783657 1369 4.701977123e-39
-407.8876845 703.0996966 1429 4.701977123e-39
-402.4593382 706.5438518 1436 4.701977123e-39
175.8745371 601.7431273 1223 4.701977123e-39
181.4333806 579.110107 1177 4.701977123e-39
186.0864512 574.6819073 1168 4.701977123e-39
189.3304959 566.3175303 1151 4.701977123e-39
195.2829907 566.3175303 1151 4.701977123e-39
200.8858147 565.3334859 1149 4.701977123e-39
206.8279663 565.3334859 1149 4.701977123e-39
212.7701178 565.3334859 1149 4.701977123e-39
219.0929696 566.3175303 1151 4.701977123e-39
225.4365077 567.3015746 1153 4.701977123e-39
231.3993456 567.3015746 1153 4.701977123e-39
237.7739133 568.285619 1155 4.701977123e-39
244.5912401 570.2537077 1159 4.701977123e-39
251.2337317 571.7297742 1162 4.701977123e-39
258.1286323 573.697863 1166 4.701977123e-39
265.0649056 575.6659517 1170 4.701977123e-39
271.1156605 575.6659517 1170 4.701977123e-39
277.8770985 577.1420182 1173 4.701977123e-39
284.4275 578.1260626 1175 4.701977123e-39
290.9985879 579.110107 1177 4.701977123e-39
297.0855438 579.110107 1177 4.701977123e-39
303.6876612 580.0941513 1179 4.701977123e-39
310.3104649 581.0781957 1181 4.701977123e-39
317.2218789 582.5542622 1184 4.701977123e-39
470.543494 847.7542178 1723 4.701977123e-39
479.4541356 847.7542178 1723 4.701977123e-39
488.3647772 847.7542178 1723 4.701977123e-39
497.2754187 847.7542178 1723 4.701977123e-39
503.2482422 842.8339959 1713 4.701977123e-39
505.2312398 831.5174858 1690 4.701977123e-39
504.2392196 815.772776 1658 4.701977123e-39
502.2976248 799.0440218 1624 4.701977123e-39
497.0397922 765.0944914 1555 4.701977123e-39
482.0200034 730.1609165 1484 4.701977123e-39
480.4551147 716.3842954 1456 4.701977123e-39
486.9794795 714.9082289 1453 4.701977123e-39
-370.2643548 581.7167066 1170 4.701977123e-39
-378.3669031 614.5314951 1236 4.701977123e-39
-380.1004872 627.9557268 1263 4.701977123e-39
-394.5690781 663.2564842 1334 4.701977123e-39
-397.84144 680.658266 1369 4.701977123e-39
-407.8876845 710.489892 1429 4.701977123e-39
-402.4593382 713.9702484 1436 4.701977123e-39
176.3059546 609.5595575 1226 4.701977123e-39
181.1250826 584.2026754 1175 4.701977123e-39
186.0864512 580.722319 1168 4.701977123e-39
189.3304959 572.270025 1151 4.701977123e-39
194.9436631 571.2756375 1149 4.701977123e-39
200.8858147 571.2756375 1149 4.701977123e-39
206.8279663 571.2756375 1149 4.701977123e-39
212.7701178 571.2756375 1149 4.701977123e-39
219.0929696 572.270025 1151 4.701977123e-39
225.0454644 572.270025 1151 4.701977123e-39
231.3993456 573.2644125 1153 4.701977123e-39
237.7739133 574.2588001 1155 4.701977123e-39
244.5912401 576.2475751 1159 4.701977123e-39
251.2337317 577.7391564 1162 4.701977123e-39
257.6858731 578.733544 1164 4.701977123e-39
264.1587008 579.7279315 1166 4.701977123e-39
271.1156605 581.7167066 1170 4.701977123e-39
277.1664153 581.7167066 1170 4.701977123e-39
283.9433681 583.2082879 1173 4.701977123e-39
290.5041128 584.2026754 1175 4.701977123e-39
297.0855438 585.1970629 1177 4.701977123e-39
303.6876612 586.1914505 1179 4.701977123e-39
309.7849603 586.1914505 1179 4.701977123e-39
316.4181072 587.185838 1181 4.701977123e-39
471.9089714 859.1508281 1728 4.701977123e-39
480.8454709 859.1508281 1728 4.701977123e-39
489.7819704 859.1508281 1728 4.701977123e-39
498.7184698 859.1508281 1728 4.701977123e-39
504.7171512 854.1788905 1718 4.701977123e-39
505.2312398 840.257465 1690 4.701977123e-39
504.2392196 824.3472645 1658 4.701977123e-39
502.2976248 807.4426765 1624 4.701977123e-39
497.0397922 773.1363066 1555 4.701977123e-39
482.9944374 739.3271305 1487 4.701977123e-39
481.4450634 725.405705 1459 4.701977123e-39
-370.2643548 587.7674614 1170 4.701977123e-39
-368.5717114 594.8005763 1184 4.701977123e-39
-377.4485368 619.4164786 1233 4.701977123e-39
-390.6337548 652.0702264 1298 4.701977123e-39
-394.5690781 670.1553791 1334 4.701977123e-39
-397.84144 687.7381664 1369 4.701977123e-39
-408.7439918 719.3871835 1432 4.701977123e-39
-402.4593382 721.396645 1436 4.701977123e-39
-198.1776482 734.9605095 1463 4.701977123e-39
-190.6116189 734.9605095 1463 4.701977123e-39
-175.4795601 734.9605095 1463 4.701977123e-39
-167.9135308 734.9605095 1463 4.701977123e-39
-160.3475014 734.9605095 1463 4.701977123e-39
-152.781472 734.9605095 1463 4.701977123e-39
177.3125955 619.4164786 1233 4.701977123e-39
179.8157473 606.3549794 1207 4.701977123e-39
181.4333806 591.2840189 1177 4.701977123e-39
185.4491689 584.7532693 1164 4.701977123e-39
189.3304959 578.2225197 1151 4.701977123e-39
194.9436631 577.217789 1149 4.701977123e-39
200.8858147 577.217789 1149 4.701977123e-39
206.8279663 577.217789 1149 4.701977123e-39
212.7701178 577.217789 1149 4.701977123e-39
218.7122694 577.217789 1149 4.701977123e-39
225.0454644 578.2225197 1151 4.701977123e-39
231.3993456 579.2272504 1153 4.701977123e-39
237.3621836 579.2272504 1153 4.701977123e-39
244.1691672 581.2367118 1157 4.701977123e-39
250.5851076 582.2414426 1159 4.701977123e-39
257.2431138 583.7485386 1162 4.701977123e-39
263.7055984 584.7532693 1164 4.701977123e-39
270.6522149 586.7627307 1168 4.701977123e-39
276.6926266 586.7627307 1168 4.701977123e-39
283.2171702 587.7674614 1170 4.701977123e-39
290.0096377 589.2745575 1173 4.701977123e-39
296.5807256 590.2792882 1175 4.701977123e-39
302.6573384 590.2792882 1175 4.701977123e-39
309.2594557 591.2840189 1177 4.701977123e-39
315.8822595 592.2887496 1179 4.701977123e-39
473.2744487 870.5991544 1733 4.701977123e-39
482.2368061 870.5991544 1733 4.701977123e-39
491.1991636 870.5991544 1733 4.701977123e-39
498.7184698 868.0873276 1728 4.701977123e-39
504.7171512 863.0636741 1718 4.701977123e-39
506.7260067 851.509271 1695 4.701977123e-39
505.7598445 835.4335798 1663 4.701977123e-39
503.5348111 817.8507925 1628 4.701977123e-39
497.9987114 782.6852179 1558 4.701977123e-39
484.2936827 749.0267393 1491 4.701977123e-39
482.764995 734.9605095 1463 4.701977123e-39
-368.3655633 590.7729947 1164 4.701977123e-39
-366.3926557 597.3709748 1177 4.701977123e-39
-376.8362926 624.7779694 1231 4.701977123e-39
-380.1004872 641.0191514 1263 4.701977123e-39
-396.3437517 680.0994956 1340 4.701977123e-39
-399.585084 697.8632884 1375 4.701977123e-39
-408.7439918 726.7928938 1432 4.701977123e-39
-403.3001307 730.3456523 1439 4.701977123e-39
-220.8757364 742.5265388 1463 4.701977123e-39
-213.309707 742.5265388 1463 4.701977123e-39
-205.7436776 742.5265388 1463 4.701977123e-39
-198.1776482 742.5265388 1463 4.701977123e-39
-191.0024834 744.0491496 1466 4.701977123e-39
-183.4209393 744.0491496 1466 4.701977123e-39
-175.4795601 742.5265388 1463 4.701977123e-39
-167.9135308 742.5265388 1463 4.701977123e-39
-160.3475014 742.5265388 1463 4.701977123e-39
-153.0947628 744.0491496 1466 4.701977123e-39
-145.5132187 744.0491496 1466 4.701977123e-39
-137.9316746 744.0491496 1466 4.701977123e-39
-130.3501304 744.0491496 1466 4.701977123e-39
180.6201297 637.4663929 1256 4.701977123e-39
181.7416786 598.3860487 1179 4.701977123e-39
185.4491689 590.7729947 1164 4.701977123e-39
189.3304959 584.1750145 1151 4.701977123e-39
194.9436631 583.1599406 1149 4.701977123e-39
200.8858147 583.1599406 1149 4.701977123e-39
206.8279663 583.1599406 1149 4.701977123e-39
212.3997608 582.1448667 1147 4.701977123e-39
218.7122694 583.1599406 1149 4.701977123e-39
225.0454644 584.1750145 1151 4.701977123e-39
230.9979591 584.1750145 1151 4.701977123e-39
237.3621836 585.1900884 1153 4.701977123e-39
243.7470944 586.2051622 1155 4.701977123e-39
250.1526915 587.2202361 1157 4.701977123e-39
256.578975 588.23531 1159 4.701977123e-39
263.252496 589.7579208 1162 4.701977123e-39
270.1887693 591.7880685 1166 4.701977123e-39
276.6926266 592.8031424 1168 4.701977123e-39
283.2171702 593.8182163 1170 4.701977123e-39
290.0096377 595.3408271 1173 4.701977123e-39
296.0759073 595.3408271 1173 4.701977123e-39
302.6573384 596.355901 1175 4.701977123e-39
309.2594557 597.3709748 1177 4.701977123e-39
468.0630257 886.6670289 1747 4.701977123e-39
475.732308 884.1293442 1742 4.701977123e-39
484.7412096 884.1293442 1742 4.701977123e-39
492.3329181 881.5916596 1737 4.701977123e-39
500.161521 879.5615118 1733 4.701977123e-39
506.1860603 874.4861424 1723 4.701977123e-39
507.9218203 862.305256 1699 4.701977123e-39
506.9763444 846.064074 1667 4.701977123e-39
504.7719974 828.3002812 1632 4.701977123e-39
490.6469974 779.0691983 1535 4.701977123e-39
487.8666073 762.3204794 1502 4.701977123e-39
486.0648241 747.6019082 1473 4.701977123e-39
-366.1503065 593.2037604 1157 4.701977123e-39
-363.5910126 598.8435541 1168 4.701977123e-39
-375.3056822 628.5806484 1226 4.701977123e-39
-379.4985862 646.5254467 1261 4.701977123e-39
-397.2310884 688.5675455 1343 4.701977123e-39
-402.4911573 710.1013034 1385 4.701977123e-39
-409.8857348 736.2494381 1436 4.701977123e-39
-404.1409232 739.3256892 1442 4.701977123e-39
-397.7838674 741.3765233 1446 4.701977123e-39
-228.9102041 751.6306938 1466 4.701977123e-39
-221.3286599 751.6306938 1466 4.701977123e-39
-213.7471158 751.6306938 1466 4.701977123e-39
-206.1655717 751.6306938 1466 4.701977123e-39
-198.5840276 751.6306938 1466 4.701977123e-39
-191.0024834 751.6306938 1466 4.701977123e-39
-183.4209393 751.6306938 1466 4.701977123e-39
-175.8393952 751.6306938 1466 4.701977123e-39
-168.2578511 751.6306938 1466 4.701977123e-39
-160.6763069 751.6306938 1466 4.701977123e-39
-153.5124839 753.6815278 1470 4.701977123e-39
-145.9102534 753.6815278 1470 4.701977123e-39
-138.3080229 753.6815278 1470 4.701977123e-39
-130.7057925 753.6815278 1470 4.701977123e-39
-123.103562 753.6815278 1470 4.701977123e-39
182.5124236 607.0468905 1184 4.701977123e-39
185.1305277 595.767303 1162 4.701977123e-39
189.3304959 590.1275092 1151 4.701977123e-39
194.9436631 589.1020922 1149 4.701977123e-39
200.8858147 589.1020922 1149 4.701977123e-39
206.4679524 588.0766751 1147 4.701977123e-39
212.3997608 588.0766751 1147 4.701977123e-39
218.7122694 589.1020922 1149 4.701977123e-39
224.654421 589.1020922 1149 4.701977123e-39
230.9979591 590.1275092 1151 4.701977123e-39
236.9504538 590.1275092 1151 4.701977123e-39
243.3250215 591.1529263 1153 4.701977123e-39
249.7202754 592.1783433 1155 4.701977123e-39
256.1362158 593.2037604 1157 4.701977123e-39
262.5728424 594.2291774 1159 4.701977123e-39
269.7253238 596.79272 1164 4.701977123e-39
276.2188379 597.8181371 1166 4.701977123e-39
282.7330383 598.8435541 1168 4.701977123e-39
289.2679251 599.8689711 1170 4.701977123e-39
296.0759073 601.4070967 1173 4.701977123e-39
302.1421769 601.4070967 1173 4.701977123e-39
469.4026451 898.2653311 1752 4.701977123e-39
477.0977853 895.7017885 1747 4.701977123e-39
486.1325449 895.7017885 1747 4.701977123e-39
493.7501113 893.1382459 1742 4.701977123e-39
501.3159619 890.5747033 1737 4.701977123e-39
507.6549693 885.9603266 1728 4.701977123e-39
509.4165873 873.6553221 1704 4.701977123e-39
508.4969693 857.2486494 1672 4.701977123e-39
506.3184802 839.3038511 1637 4.701977123e-39
504.0924482 821.8717613 1603 4.701977123e-39
491.9255563 789.0584159 1539 4.701977123e-39
488.8410412 771.6263261 1505 4.701977123e-39
488.3747045 758.8086131 1480 4.701977123e-39
-364.8844454 597.1157642 1153 4.701977123e-39
-361.7232506 601.7766851 1162 4.701977123e-39
-374.3873159 633.3673717 1223 4.701977123e-39
-397.8226463 696.5487449 1345 4.701977123e-39
-404.2348013 720.3712298 1391 4.701977123e-39
-411.5983493 746.7831153 1442 4.701977123e-39
-405.2619798 748.8546357 1446 4.701977123e-39
-398.6091451 750.4082761 1449 4.701977123e-39
-228.9102041 759.2122379 1466 4.701977123e-39
-221.3286599 759.2122379 1466 4.701977123e-39
-213.7471158 759.2122379 1466 4.701977123e-39
-206.1655717 759.2122379 1466 4.701977123e-39
-199.1258667 761.2837583 1470 4.701977123e-39
-191.5236362 761.2837583 1470 4.701977123e-39
-183.9214057 761.2837583 1470 4.701977123e-39
-175.8393952 759.2122379 1466 4.701977123e-39
-168.2578511 759.2122379 1466 4.701977123e-39
-161.1147143 761.2837583 1470 4.701977123e-39
-153.5124839 761.2837583 1470 4.701977123e-39
-145.9102534 761.2837583 1470 4.701977123e-39
-138.3080229 761.2837583 1470 4.701977123e-39
-130.7057925 761.2837583 1470 4.701977123e-39
-123.103562 761.2837583 1470 4.701977123e-39
-115.5013315 761.2837583 1470 4.701977123e-39
184.9788078 621.4561292 1200 4.701977123e-39
186.8830542 607.4733663 1173 4.701977123e-39
189.6594803 597.1157642 1153 4.701977123e-39
194.9436631 595.0442437 1149 4.701977123e-39
200.536144 594.0084835 1147 4.701977123e-39
206.4679524 594.0084835 1147 4.701977123e-39
212.3997608 594.0084835 1147 4.701977123e-39
218.3315692 594.0084835 1147 4.701977123e-39
224.654421 595.0442437 1149 4.701977123e-39
230.5965725 595.0442437 1149 4.701977123e-39
236.9504538 596.080004 1151 4.701977123e-39
243.3250215 597.1157642 1153 4.701977123e-39
249.7202754 598.1515244 1155 4.701977123e-39
255.6934565 598.1515244 1155 4.701977123e-39
262.11974 599.1872846 1157 4.701977123e-39
269.2618782 601.7766851 1162 4.701977123e-39
275.7450491 602.8124454 1164 4.701977123e-39
282.7330383 604.8839658 1168 4.701977123e-39
289.2679251 605.919726 1170 4.701977123e-39
296.0759073 607.4733663 1173 4.701977123e-39
302.1421769 607.4733663 1173 4.701977123e-39
462.9695506 912.5047498 1762 4.701977123e-39
470.7422645 909.9153492 1757 4.701977123e-39
478.4632627 907.3259487 1752 4.701977123e-39
487.5238802 907.3259487 1752 4.701977123e-39
495.1673045 904.7365481 1747 4.701977123e-39
