1498,1498,1502,1505,1509,1513,1520,1520,1524,1524,1528,1528,1532,1535,1535,1539,1543,1547,1547,1551,1551,1555,1558,1558,1566,1574,1578,1582,1590,1595,1599,1607,1611,1611,1615,1615,1615,1619,1619,1615,1615,1619,1624,1628,1628,1628,1637,1641,1641,1641,1645,1645,1645,1645,1650,1650,1654,1658,1663,1663,1667,1672,1676,1681,1686,1690,1695,1695,1695,1695,1695,1686,1686,1686,1681,1672,1672,1672,1672,1676,1681,1681,1686,1690,1695,1695,1699,1699,1704,1704,1709,1709,1713,1713,1718,1723,1723,1728,1728,1728,1728,1728,1728,1728,1728,1733,1733,1733,1737,1737,1742,1737,1742,1742,1742,1742,1742,1747,1752,1752,1752,1762,1762,1767,1767,1767,1767,1767,1757,1752,1747,1737,1718,1709,1704,1695,1681,1676,1672,1667,1663,0,0,0,0,0,0,0,0,0,0,946,944,941,940,938,936,933,929,927,926,924,924,924,924,926,926,929,929,931,933,936,937,938,943,947,948,953,956,957,959,1699,1699,1704,1704,1704,1704,1699,1699,1704,0,0,0,0,0,0,0,0,0,1002,999,997,992,988,978,977,977,978,978,981,983,985,986,985,983,978,971,966,959,953,948,956,960,960,963,971,0,1686,1676,1672,1663,1658,1654,1650,1645,1645,1645,1641,1632,1628,1624,1624,1619,1615,1615,1615,1615,1615,1615,1611,1611,1607,1607,1603,1603,1607,1611,1607,1603,1603,1603,1599,1590,1586,1586,1586,1582,1578,1574,1570,1562,1555,1551,1547,1543,1535,1532,1532,1528,1528,1528,1528,1528,1528,1528,1528,1532,1528,1528,1524,1520,1513,1509,1505,1502,1498,1498,1498,1498,1495,1495,1495,1495,1487,1484,1480,1477,1470,1466,1463,1459,1456,1449,1449,1446,1442,1436,1436,1432,1429
1495,1498,1502,1505,1509,1513,1524,1524,1524,1524,1528,1532,1532,1535,1539,1543,1543,1547,1547,1551,1551,1555,1558,1562,1570,1574,1582,1586,1599,1603,1607,1615,1619,1619,1619,1619,1619,1624,1624,1624,1624,1624,1628,1628,1632,1632,1637,1641,1641,1641,1641,1645,1641,1645,1645,1650,1650,1658,1658,1663,1667,1676,1676,1681,1690,1690,1695,1695,1695,1695,1695,1686,1686,1681,1681,1672,1667,1667,1672,1672,1676,1681,1681,1686,1690,1695,1695,1699,1704,1704,1709,1709,1713,1718,1718,1723,1728,1728,1728,1733,1733,1728,1728,1728,1733,1733,1733,1733,1737,1737,1742,1742,1742,1742,1742,1742,1742,1752,1752,1752,1757,1762,1767,1767,1767,1772,1772,1772,1762,1757,1752,1742,1733,1728,1718,1709,1699,1690,1686,1681,1676,0,0,0,0,0,0,0,0,0,0,947,946,944,941,940,938,936,930,929,927,926,924,924,926,926,927,930,931,933,934,937,938,940,943,947,950,954,957,959,962,1699,1699,1704,1709,1709,1704,1704,1704,0,0,0,0,0,0,0,0,0,1014,1002,999,997,992,989,980,978,977,977,977,978,980,981,983,980,978,974,968,960,957,950,947,956,960,960,963,971,1695,1686,1681,1676,1667,1663,1654,1654,1645,1645,1645,1645,1637,1632,1628,1628,1624,1619,1615,1615,1615,1615,1615,1611,1611,1607,1607,1603,1603,1607,1611,1611,1607,1603,1603,1599,1590,1586,1586,1586,1582,1578,1574,1574,1562,1558,1555,1547,1543,1535,1532,1532,1532,1528,1528,1528,1532,1528,1532,1532,1532,1528,1528,1524,1524,1513,1509,1505,1502,1498,1498,1498,1502,1498,1498,1498,1495,1487,1484,1480,1480,1473,1470,1463,1459,1456,1453,1449,1449,1446,1439,1436,1432,1429
1495,1498,1505,1505,1509,1517,1528,1528,1532,1532,1532,1535,1535,1539,1539,1543,1543,1547,1547,1551,1551,1555,1558,1562,1570,1574,1582,1586,1599,1603,1607,1615,1619,1619,1619,1624,1624,1628,1628,1624,1624,1624,1628,1632,1632,1632,1637,1641,1641,1641,1641,1641,1641,1641,1645,1650,1650,1654,1658,1663,1667,1676,1676,1681,1686,1690,1695,1695,1699,1699,1699,1690,1686,1681,1676,1667,1667,1667,1667,1667,1667,1672,1676,1681,1686,1690,1690,1699,1699,1704,1704,1713,1713,1718,1723,1728,1733,1733,1733,1733,1733,1728,1728,1728,1728,1728,1733,1733,1733,1733,1737,1742,1742,1742,1742,1742,1747,1752,1752,1757,1762,1767,1772,1772,1772,1777,1777,1777,1772,1767,1762,1757,1742,1733,1723,1718,1704,1695,1695,1690,1686,0,0,0,0,0,0,0,0,0,0,948,946,944,941,940,938,936,933,930,927,926,924,924,926,926,927,931,933,934,936,937,938,940,944,948,951,956,959,960,962,1704,1704,1709,1709,1713,1713,1709,1709,0,0,0,0,0,0,0,0,0,1014,1005,1002,999,996,991,980,978,977,975,974,974,975,975,975,974,971,969,963,959,954,948,944,956,959,960,962,972,1695,1690,1681,1681,1672,1667,1663,1663,1658,1658,1654,1650,1645,1637,1632,1628,1624,1624,1619,1615,1615,1615,1615,1611,1611,1607,1607,1603,1603,1611,1611,1611,1607,1607,1607,1603,1595,1590,1590,1586,1582,1578,1574,1570,1562,1558,1555,1551,1547,1535,1532,1532,1532,1528,1528,1528,1532,1528,1528,1528,1532,1528,1528,1524,1524,1513,1509,1505,1502,1498,1502,1502,1502,1502,1498,1498,1495,1491,1487,1480,1480,1477,1473,1470,1466,1463,1456,1453,1449,1446,1439,1439,1436,1432
1495,1498,1505,1509,1513,1520,1528,1532,1535,1535,1535,1539,1539,1539,1543,1543,1547,1547,1547,1551,1551,1555,1558,1562,1570,1578,1582,1586,1599,1603,1607,1615,1619,1619,1624,1624,1628,1628,1628,1628,1628,1628,1632,1632,1632,1632,1637,1641,1645,1645,1641,1645,1641,1641,1645,1650,1650,1654,1658,1663,1667,1676,1681,1681,1686,1695,1695,1699,1704,1699,1699,1690,1686,1686,1676,1663,1663,1663,1663,1667,1667,1672,1672,1681,1686,1690,1690,1695,1699,1704,1704,1713,1718,1723,1728,1733,1737,1737,1737,1733,1733,1728,1728,1723,1723,1723,1728,1728,1733,1733,1737,1737,1742,1742,1742,1742,1747,1752,1757,1762,1762,1772,1772,1777,1777,1777,1777,1777,1777,1772,1767,1762,1747,1737,1728,1723,1709,1699,1695,1695,1690,0,0,0,0,0,0,0,0,0,0,948,947,946,943,941,940,937,933,931,929,929,926,926,927,927,929,931,934,936,937,937,938,940,946,948,953,956,960,960,963,1709,1709,1713,1713,1718,1713,1718,1718,0,0,0,0,0,0,0,0,0,1014,1005,1002,999,996,989,978,975,974,972,969,969,968,969,969,968,966,965,962,959,954,948,947,957,960,0,962,971,1699,1695,1686,1686,1676,1672,1667,1667,1663,1663,1658,1654,1645,1641,1637,1632,1628,1624,1619,1615,1615,1615,1611,1611,1607,1607,1607,1603,1607,1611,1611,1611,1607,1607,1607,1603,1595,1595,1590,1586,1582,1578,1574,1570,1562,1558,1555,1551,1547,1539,1535,1532,1532,1528,1528,1528,1528,1528,1528,1528,1528,1528,1524,1524,1524,1517,1513,1509,1505,1502,1502,1502,1505,1502,1498,1498,1498,1491,1487,1484,1484,1480,1477,1473,1470,1466,1463,1456,1453,1453,1446,1442,1436,1436
1495,1498,1505,1509,1513,1520,1532,1535,1535,1535,1539,1539,1539,1543,1543,1543,1547,1547,1547,1551,1551,1555,1558,1562,1570,1578,1582,1586,1599,1603,1603,1615,1615,1619,1619,1624,1628,1628,1632,1632,1632,1632,1632,1632,1632,1632,1641,1641,1645,1645,1645,1645,1645,1645,1650,1650,1654,1658,1663,1667,1667,1676,1681,1686,1690,1695,1699,1699,1704,1704,1699,1690,1690,1681,1676,1663,1663,1663,1663,1667,1667,1672,1672,1681,1686,1690,1690,1699,1699,1704,1709,1713,1718,1723,1728,1737,1742,1742,1737,1737,1733,1728,1723,1718,1718,1718,1723,1728,1728,1728,1733,1737,1737,1742,1742,1742,1752,1757,1762,1762,1767,1772,1777,1777,1777,1782,1782,1782,1777,1777,1772,1767,1752,1737,1733,1728,1709,1704,1699,1699,1695,0,0,0,0,0,0,0,0,0,0,951,950,948,946,944,941,940,936,933,931,930,927,927,929,929,929,933,934,936,937,938,940,941,947,951,954,957,962,963,965,1718,1718,1723,1728,1723,1728,1723,1728,0,0,0,0,0,0,0,0,0,1012,1005,1002,999,996,988,975,972,971,969,966,965,963,965,963,962,962,960,959,956,954,948,946,959,960,962,962,0,1699,1695,1690,1690,1681,1676,1672,1672,1667,1667,1663,1658,1650,1645,1637,1632,1628,1619,1619,1615,1611,1611,1611,1607,1607,1607,1607,1603,1603,1607,1611,1611,1607,1607,1607,1603,1599,1595,1590,1590,1582,1582,1578,1574,1562,1558,1555,1551,1547,1539,1535,1532,1532,1528,1528,1528,1528,1524,1528,1524,1524,1524,1524,1524,1520,1517,1513,1509,1505,1505,1502,1505,1505,1502,1502,1498,1498,1495,1491,1491,1491,1487,1484,1480,1480,1473,1470,1466,1463,1456,1449,1446,1439,1436
1498,1502,1505,1509,1517,1520,1532,1535,1539,1539,1543,1543,1543,1543,1543,1547,1547,1547,1551,1551,1551,1558,1558,1562,1570,1578,1582,1586,1595,1599,1603,1611,1615,1619,1619,1624,1628,1632,1637,1632,1632,1632,1632,1632,1632,1637,1641,1641,1645,1645,1645,1650,1650,1645,1650,1654,1654,1658,1663,1667,1672,1681,1681,1686,1690,1695,1699,1704,1704,1704,1699,1690,1690,1686,1676,1663,1663,1663,1663,1667,1667,1672,1676,1681,1686,1686,1690,1695,1699,1704,1704,1713,1718,1723,1733,1737,1742,1742,1742,1737,1733,1723,1718,1718,1713,1718,1718,1718,1723,1723,1733,1733,1737,1742,1742,1747,1752,1762,1762,1767,1772,1772,1777,1777,1782,1782,1782,1777,1782,1777,1772,1767,1752,1747,1737,1733,1718,1713,1709,1704,1704,0,0,0,0,0,0,0,0,0,0,956,954,953,950,948,946,944,940,937,934,931,930,930,930,930,930,933,936,937,938,940,940,943,948,951,956,959,962,963,966,1723,1723,1728,1728,1733,1733,1728,1733,0,0,0,0,0,0,0,0,0,1014,1005,1004,999,994,988,975,971,968,966,962,960,960,960,960,959,957,957,957,954,0,0,948,962,963,0,966,0,1699,1695,1695,1695,1686,1681,1676,1676,1672,1667,1663,1663,1650,1645,1641,1632,1624,1619,1615,1611,1607,1607,1607,1607,1607,1607,1607,1607,1607,1611,1611,1611,1607,1607,1607,1607,1603,1603,1595,1595,1586,1582,1578,1574,1562,1562,1558,1555,1551,1543,1539,1535,1532,1532,1528,1524,1524,1524,1520,1520,1524,1520,1520,1524,1520,1517,1513,1513,1509,1505,1505,1505,1505,1502,1502,1498,1498,1498,1491,1495,1491,1491,1487,1484,1484,1477,1473,1470,1463,1459,1449,1446,1442,1439
1498,1502,1513,1517,1520,1524,1532,1535,1539,1539,1543,1543,1543,1543,1547,1547,1547,1551,1551,1555,1555,1558,1562,1566,1574,1578,1582,1586,1595,1599,1603,1607,1611,1615,1619,1624,1628,1632,1637,1637,1637,1632,1632,1632,1632,1632,1637,1637,1641,1645,1650,1645,1645,1650,1654,1654,1658,1663,1667,1672,1672,1681,1686,1690,1690,1699,1704,1704,1709,1704,1699,1695,1690,1681,1676,1663,1663,1663,1663,1667,1672,1672,1676,1681,1686,1690,1690,1699,1704,1704,1709,1713,1723,1728,1733,1742,1747,1747,1747,1737,1733,1723,1718,1718,1713,1718,1718,1718,1723,1728,1733,1737,1742,1742,1752,1757,1757,1767,1767,1772,1772,1777,1777,1782,1777,1782,1782,1782,1777,1777,1772,1767,1757,1747,1737,1733,1723,1718,1713,1709,0,0,0,0,0,0,0,0,0,0,0,957,957,956,951,950,948,946,941,937,936,934,931,931,931,931,931,934,937,938,940,940,941,944,948,954,959,962,966,968,969,1733,1733,1737,1737,1737,1733,1733,1737,0,0,0,0,0,0,0,0,0,1014,1005,1004,1000,994,988,972,966,963,960,956,954,954,954,954,954,954,954,956,954,954,950,962,966,968,968,0,0,1704,1699,1695,1699,1690,1686,1686,1681,1676,1676,1672,1667,1654,1645,1641,1637,1624,1619,1611,1611,1607,1607,1607,1607,1607,1607,1611,1611,1611,1611,1611,1615,1607,1607,1607,1607,1603,1603,1599,1595,1590,1586,1578,1574,1562,1562,1558,1555,1551,1543,1539,1535,1535,1528,1524,1524,1524,1520,1520,1520,1517,1517,1517,1520,1517,1513,1509,1509,1509,1505,1505,1505,1505,1502,1502,1502,1498,1498,1495,1495,1495,1491,1491,1487,1487,1480,1477,1470,1466,1463,1453,1449,1446,1442
1505,1509,1513,1517,1520,1524,1535,1535,1539,1539,1543,1543,1543,1547,1547,1547,1547,1551,1555,1555,1555,1558,1562,1566,1574,1578,1582,1586,1590,1595,1599,1607,1611,1611,1615,1624,1628,1632,1637,1637,1637,1632,1632,1628,1628,1628,1628,1632,1637,1641,1645,1645,1650,1650,1654,1658,1658,1667,1672,1672,1676,1686,1686,1690,1695,1699,1704,1704,1709,1704,1699,1695,1690,1686,1676,1667,1667,1667,1672,1676,1681,1686,1686,1686,1690,1695,1695,1704,1704,1709,1709,1718,1723,1728,1733,1747,1747,1752,1747,1742,1737,1723,1718,1718,1718,1718,1723,1723,1728,1733,1737,1742,1747,1747,1757,1757,1767,1772,1772,1777,1777,1777,1777,1777,1777,1777,1777,1777,1777,1777,1772,1767,1757,1747,1742,1737,1728,1718,1713,1713,1709,0,0,0,0,0,0,0,0,0,0,960,959,957,956,953,950,948,943,941,938,936,933,933,933,933,933,936,938,940,940,941,941,943,947,953,960,963,966,971,972,1737,1737,1742,1742,1742,1737,1742,1742,0,0,0,0,0,0,0,0,0,1015,1007,1005,1000,997,988,969,963,960,957,951,951,951,951,951,950,950,951,951,951,953,0,956,969,0,0,0,0,1709,1699,1699,1699,1695,1690,1686,1686,1676,1676,1672,1667,1654,1645,1641,1632,1624,1615,1611,1611,1607,1607,1607,1611,1611,1615,1615,1615,1615,1615,1615,1615,1611,1611,1607,1607,1607,1603,1599,1595,1590,1586,1582,1578,1566,1562,1558,1555,1551,1543,1539,1535,1532,1528,1524,1520,1517,1513,1513,1513,1513,1509,1513,1513,1513,1509,1509,1509,1505,1505,1502,1505,1505,1505,1502,1502,1502,1498,1498,1495,1495,1491,1491,1487,1487,1480,1477,1473,1470,1466,1459,1453,1449,1446
1505,1509,1517,1520,1524,1528,1535,1539,1539,1543,1543,1543,1547,1547,1551,1551,1551,1555,1555,1558,1558,1562,1566,1570,1574,1578,1582,1586,1590,1595,1595,1603,1607,1611,1615,1624,1628,1632,1637,1641,1637,1632,1632,1628,1624,1624,1624,1628,1632,1637,1645,1645,1650,1650,1654,1658,1663,1672,1672,1676,1681,1686,1690,1690,1695,1699,1699,1704,1709,1704,1704,1699,1695,1690,1681,1672,1672,1672,1676,1681,1686,1686,1690,1690,1695,1695,1699,1704,1704,1709,1709,1718,1723,1728,1733,1747,1752,1752,1747,1742,1737,1728,1723,1718,1718,1723,1728,1728,1733,1737,1742,1747,1752,1757,1762,1767,1767,1777,1777,1777,1777,1777,1777,1777,1772,1772,1772,1772,1772,1772,1772,1767,1757,1752,1747,1737,1728,1723,1718,1718,1713,1713,0,0,0,0,0,0,0,0,0,962,960,959,956,954,953,950,946,943,941,940,938,940,940,940,938,940,941,941,941,943,941,944,948,954,960,962,966,971,977,1742,1742,1752,1747,1747,1747,1742,1742,0,0,0,0,0,0,0,0,0,1017,1010,1007,1002,997,988,969,963,959,956,951,950,948,950,948,948,948,950,950,951,0,953,959,972,0,978,983,0,1709,1704,1704,1699,1695,1686,1686,1681,1676,1672,1667,1663,1654,1645,1637,1632,1619,1615,1611,1611,1607,1607,1611,1611,1615,1615,1619,1619,1619,1619,1619,1619,1611,1611,1611,1611,1607,1607,1603,1599,1595,1586,1582,1578,1566,1562,1558,1558,1555,1547,1543,1535,1532,1528,1524,1520,1517,1513,1509,1509,1509,1509,1509,1513,1509,1509,1505,1505,1505,1502,1502,1505,1505,1505,1505,1505,1502,1498,1495,1495,1495,1491,1487,1487,1484,1480,1477,1473,1470,1466,1459,1456,1453,1449
1509,1513,1520,1524,1524,1528,1535,1535,1539,1539,1543,1543,1547,1551,1551,1555,1555,1558,1558,1562,1562,1566,1570,1574,1578,1582,1586,1590,1595,1599,1599,1607,1611,1615,1619,1624,1632,1632,1637,1641,1641,1637,1632,1628,1624,1619,1624,1624,1628,1632,1641,1645,1645,1645,1654,1658,1663,1667,1672,1676,1676,1686,1690,1690,1690,1699,1699,1704,1709,1704,1704,1699,1699,1690,1686,1676,1676,1681,1681,1686,1690,1690,1695,1695,1699,1699,1699,1704,1709,1709,1713,1718,1723,1728,1733,1747,1752,1752,1747,1747,1737,1728,1728,1723,1723,1728,1733,1737,1742,1742,1752,1752,1757,1762,1767,1772,1777,1777,1777,1777,1772,1772,1772,1772,1767,1767,1772,1772,1772,1767,1767,1762,1757,1752,1747,1737,1733,1728,1728,1723,1723,1718,0,0,0,0,0,0,0,0,0,0,963,963,960,960,957,954,950,948,946,946,943,943,943,941,941,943,943,944,943,944,944,944,948,954,960,963,968,972,1747,1747,1747,1752,1752,1752,1747,1742,1742,1742,0,0,0,0,0,0,0,0,1015,1010,1007,1002,997,988,968,962,959,954,950,950,950,948,948,947,948,948,950,951,956,957,963,975,0,980,985,0,1709,1704,1699,1699,1690,1686,1681,1681,1672,1672,1667,1658,1650,1641,1632,1628,1615,1611,1611,1611,1607,1611,1611,1615,1619,1619,1624,1628,1628,1628,1624,1624,1619,1615,1615,1615,1611,1611,1607,1603,1599,1590,1586,1582,1570,1566,1562,1562,1558,1547,1543,1539,1535,1528,1524,1520,1517,1513,1509,1509,1509,1509,1509,1509,1509,1505,1505,1505,1505,1505,1502,1505,1505,1505,1505,1505,1505,1498,1495,1495,1491,1487,1484,1484,1480,1477,1477,1473,1470,1466,1459,1456,1453,1449
1513,1517,1520,1524,1524,1528,1535,1535,1535,1539,1543,1543,1547,1551,1555,1555,1555,1558,1562,1562,1566,1570,1574,1574,1582,1586,1586,1590,1595,1599,1599,1603,1611,1615,1619,1624,1632,1637,1641,1641,1637,1637,1628,1624,1619,1619,1619,1624,1624,1628,1637,1641,1645,1645,1654,1658,1663,1667,1672,1672,1672,1676,1681,1681,1681,1690,1695,1699,1709,1709,1709,1704,1699,1699,1690,1681,1681,1681,1686,1686,1690,1695,1699,1699,1699,1699,1704,1709,1709,1713,1713,1718,1728,1733,1737,1747,1752,1752,1752,1752,1747,1737,1737,1737,1737,1742,1747,1752,1757,1762,1767,1772,1772,1777,1782,1782,1782,1782,1782,1777,1772,1772,1767,1767,1767,1767,1767,1767,1767,1767,1767,1762,1757,1752,1747,1742,1733,1728,1728,1723,1723,1723,0,0,0,0,0,0,0,0,0,0,968,965,963,962,959,957,953,950,948,947,946,944,944,944,943,944,944,944,944,944,944,944,948,954,960,963,969,974,1747,1747,1747,1752,1752,1752,1742,1742,1742,1737,0,0,0,0,0,0,0,0,1017,1010,1007,1002,997,988,969,965,962,957,953,951,951,951,950,948,948,950,951,954,959,962,969,981,983,988,0,0,1709,1704,1699,1699,1686,1681,1681,1676,1672,1667,1663,1658,1645,1637,1632,1628,1615,1611,1611,1611,1611,1615,1615,1615,1619,1624,1628,1628,1632,1628,1628,1628,1619,1619,1615,1615,1615,1611,1607,1607,1599,1595,1586,1582,1574,1566,1566,1562,1558,1547,1543,1539,1535,1528,1520,1520,1517,1513,1509,1509,1509,1505,1509,1509,1509,1505,1505,1505,1505,1505,1505,1505,1505,1509,1505,1505,1505,1498,1495,1491,1491,1484,1480,1480,1477,1477,1473,1470,1470,1466,1463,1459,1456,1453
1517,1517,1520,1524,1528,1528,1532,1535,1535,1539,1543,1543,1547,1551,1555,1555,1555,1558,1562,1562,1566,1574,1574,1578,1586,1586,1590,1595,1599,1603,1603,1611,1611,1619,1624,1628,1632,1637,1641,1641,1641,1637,1628,1619,1619,1615,1615,1619,1619,1624,1632,1637,1641,1641,1650,1654,1658,1658,1663,1663,1667,1672,1672,1672,1676,1690,1695,1699,1709,1713,1713,1713,1709,1709,1699,1695,1695,1695,1695,1695,1699,1699,1704,1704,1704,1709,1709,1713,1713,1718,1718,1723,1728,1733,1737,1747,1752,1752,1752,1752,1747,1742,1742,1742,1742,1747,1752,1757,1762,1767,1772,1772,1777,1777,1782,1788,1782,1782,1782,1777,1772,1767,1767,1767,1762,1762,1762,1762,1767,1767,1767,1762,1757,1752,1747,1742,1737,1733,1733,1728,1728,1723,1723,0,0,0,0,0,0,0,0,0,971,968,965,963,962,957,954,951,950,948,947,946,946,946,946,946,946,946,944,944,944,946,948,954,960,963,969,974,1747,1747,1747,1752,1752,1747,1742,1742,1737,1737,0,0,0,0,0,0,0,0,0,1012,1007,1002,997,991,972,969,965,962,957,956,956,954,953,953,953,954,956,963,968,972,977,986,988,989,0,0,1704,1704,1695,1695,1681,1676,1672,1672,1667,1663,1663,1654,1641,1637,1632,1624,1619,1615,1615,1611,1615,1615,1619,1619,1624,1628,1628,1632,1632,1632,1632,1628,1624,1619,1619,1619,1615,1615,1611,1607,1599,1595,1590,1582,1574,1570,1566,1562,1558,1551,1547,1539,1535,1528,1524,1520,1520,1513,1513,1509,1509,1509,1509,1509,1509,1505,1505,1509,1509,1505,1505,1505,1509,1509,1509,1509,1505,1498,1495,1491,1487,1477,1477,1473,1470,1470,1470,1470,1466,1463,1463,1459,1456,1456
1517,1520,1520,1524,1524,1528,1532,1532,1532,1535,1543,1543,1547,1551,1551,1555,1555,1558,1562,1566,1570,1574,1574,1578,1586,1590,1590,1595,1607,1607,1611,1619,1619,1624,1628,1632,1637,1641,1641,1645,1641,1637,1628,1619,1619,1615,1611,1619,1619,1624,1632,1637,1641,1645,1650,1650,1654,1654,1658,1658,1663,1663,1667,1667,1672,1686,1690,1699,1709,1713,1718,1718,1713,1713,1704,1699,1695,1695,1695,1695,1704,1704,1709,1704,1709,1709,1713,1718,1718,1723,1723,1728,1728,1733,1737,1747,1752,1752,1752,1752,1752,1742,1742,1742,1747,1752,1757,1762,1767,1772,1777,1777,1777,1782,1788,1788,1782,1782,1777,1777,1767,1767,1767,1762,1762,1762,1762,1762,1762,1762,1762,1762,1762,1757,1747,1747,1737,1737,1733,1728,1728,1728,1728,0,0,0,0,0,0,0,0,0,972,971,966,965,963,959,956,954,954,953,951,951,950,950,948,948,947,947,946,946,946,946,951,956,962,965,971,1747,1747,1747,1747,1747,1747,1742,1737,1737,1737,1737,0,0,0,0,0,0,0,0,0,1012,1007,1000,996,988,972,968,966,962,959,957,956,954,953,954,956,957,959,966,972,977,981,986,989,989,0,0,1704,1695,1695,1686,1676,1672,1667,1667,1663,1663,1658,1654,1641,1637,1628,1628,1619,1619,1615,1615,1615,1619,1624,1624,1624,1628,1628,1632,1632,1632,1632,1628,1624,1624,1619,1619,1615,1615,1611,1611,1599,1595,1590,1582,1574,1570,1566,1562,1555,1551,1543,1539,1535,1528,1524,1524,1524,1520,1517,1517,1517,1513,1513,1513,1513,1509,1509,1509,1509,1509,1509,1509,1509,1509,1509,1509,1505,1498,1495,1491,1484,1477,1473,1470,1470,1470,1466,1466,1466,1466,1459,1459,1456,1456
1520,1520,1520,1520,1524,1524,1528,1532,1532,1535,1543,1543,1543,1551,1551,1555,1558,1562,1566,1566,1570,1574,1578,1582,1590,1595,1599,1603,1607,1611,1615,1619,1624,1628,1628,1632,1637,1641,1641,1645,1641,1637,1628,1624,1619,1615,1615,1619,1619,1624,1632,1637,1641,1641,1645,1650,1650,1650,1654,1654,1654,1658,1658,1658,1663,1676,1686,1695,1709,1718,1723,1723,1718,1713,1709,1704,1699,1699,1699,1699,1704,1709,1709,1709,1713,1713,1713,1718,1723,1723,1728,1728,1733,1733,1737,1747,1752,1757,1752,1752,1752,1747,1747,1747,1747,1752,1762,1762,1767,1772,1777,1777,1777,1777,1782,1782,1777,1777,1777,1777,1767,1767,1767,1762,1762,1762,1762,1762,1762,1762,1762,1767,1762,1757,1752,1747,1742,1737,1737,1733,1733,1728,1733,1733,0,0,0,0,0,0,0,0,0,975,971,968,966,962,957,956,954,954,953,953,953,951,950,950,948,948,946,947,946,947,953,957,962,965,971,975,1747,1742,1742,1742,1742,1737,1733,1733,1733,1733,0,0,0,0,0,0,0,0,0,1012,1005,999,994,986,971,968,965,962,957,957,956,954,954,956,956,959,960,968,974,978,983,986,989,989,0,0,1686,1681,1676,1676,1667,1667,1663,1663,1663,1658,1654,1650,1641,1637,1632,1628,1624,1619,1619,1619,1619,1624,1628,1628,1628,1632,1632,1632,1632,1632,1632,1628,1624,1624,1624,1619,1619,1619,1615,1611,1603,1599,1590,1582,1574,1570,1566,1562,1558,1547,1547,1543,1539,1535,1532,1532,1528,1528,1524,1524,1520,1520,1520,1517,1517,1513,1513,1513,1513,1509,1509,1509,1509,1513,1513,1509,1509,1498,1495,1487,1484,1477,1470,1466,1466,1466,1463,1463,1463,1463,1459,1456,1456,1456
1520,1520,1520,1520,1524,1524,1528,1528,1532,1535,1539,1543,1543,1551,1551,1555,1558,1562,1566,1570,1570,1578,1582,1582,1590,1595,1599,1603,1611,1611,1619,1624,1628,1628,1632,1637,1637,1641,1641,1645,1641,1641,1632,1628,1619,1619,1619,1619,1619,1624,1632,1637,1641,1641,1645,1645,1645,1645,1645,1645,1645,1650,1650,1654,1658,1672,1686,1695,1709,1718,1723,1723,1723,1718,1713,1704,1704,1704,1704,1704,1709,1709,1713,1709,1713,1718,1718,1728,1733,1733,1733,1737,1742,1742,1742,1752,1752,1757,1752,1752,1752,1747,1747,1747,1752,1752,1762,1762,1767,1772,1772,1772,1777,1777,1777,1777,1777,1777,1777,1772,1767,1767,1767,1767,1762,1762,1762,1762,1767,1767,1762,1767,1762,1757,1752,1747,1742,1737,1737,1733,1728,1733,1728,1733,0,0,0,0,0,0,0,0,0,975,971,968,966,965,959,957,957,957,956,956,954,954,953,951,950,948,947,947,948,948,954,960,963,966,972,975,1742,1742,1737,1733,1733,1733,1728,1728,1728,0,0,0,0,0,0,0,0,0,0,1007,1000,994,989,985,971,968,965,962,957,957,956,954,954,957,959,960,962,971,977,981,992,992,994,994,0,0,1676,1672,1672,1672,1663,1663,1658,1658,1658,1658,1654,1650,1645,1641,1637,1637,1632,1628,1628,1628,1628,1632,1632,1632,1632,1632,1632,1632,1632,1628,1628,1628,1624,1624,1624,1624,1619,1619,1615,1611,1603,1599,1590,1586,1578,1570,1566,1562,1558,1547,1547,1543,1543,1539,1539,1539,1535,1535,1532,1532,1532,1528,1528,1524,1520,1517,1513,1513,1513,1509,1509,1509,1509,1513,1513,1513,1509,1498,1495,1487,1484,1477,1466,1466,1463,1463,1459,1459,1459,1456,1456,1453,1453,1453
1520,1520,1520,1520,1524,1524,1528,1528,1532,1535,1539,1539,1543,1551,1551,1555,1555,1562,1566,1570,1570,1578,1578,1582,1590,1595,1599,1603,1611,1615,1619,1624,1628,1632,1632,1637,1641,1641,1645,1645,1641,1641,1632,1628,1624,1619,1619,1619,1624,1624,1632,1637,1641,1641,1645,1645,1645,1645,1645,1645,1645,1650,1650,1650,1654,1672,1681,1690,1704,1723,1728,1733,1733,1723,1723,1713,1709,1709,1709,1709,1713,1713,1713,1718,1723,1723,1728,1733,1737,1737,1742,1742,1742,1747,1747,1752,1752,1757,1752,1752,1752,1747,1747,1747,1747,1752,1757,1762,1762,1767,1772,1772,1772,1772,1777,1777,1777,1772,1772,1772,1767,1767,1767,1767,1762,1762,1762,1762,1767,1767,1767,1767,1762,1762,1752,1752,1742,1737,1737,1733,1728,1733,1733,1733,0,0,0,0,0,0,0,0,0,977,971,969,969,965,960,959,959,959,959,957,957,957,954,953,951,951,950,950,950,951,959,963,966,969,974,977,1737,1737,1733,1733,1728,1728,1728,1723,1728,0,0,0,0,0,0,0,0,0,0,1007,1000,992,989,983,972,969,966,963,962,960,960,959,959,962,963,966,968,978,985,989,994,996,996,997,0,0,1672,1667,1667,1667,1663,1658,1658,1658,1658,1658,1654,1654,1645,1645,1641,1637,1637,1632,1632,1632,1632,1632,1632,1632,1632,1632,1632,1632,1628,1628,1628,1624,1624,1624,1624,1624,1619,1619,1619,1615,1607,1599,1595,1586,1578,1566,1562,1562,1555,1551,1547,1547,1547,1547,1543,1543,1543,1539,1539,1539,1535,1535,1532,1532,1528,1517,1517,1517,1513,1509,1513,1513,1513,1513,1513,1513,1509,1498,1491,1484,1480,1473,1463,1463,1459,1459,1456,1456,1456,1456,1453,1453,1453,1453
1520,1520,1524,1524,1524,1524,1528,1528,1532,1535,1539,1539,1543,1547,1551,1555,1555,1562,1566,1570,1570,1578,1578,1582,1590,1595,1599,1603,1611,1615,1619,1624,1628,1628,1632,1637,1641,1641,1645,1645,1645,1641,1637,1632,1628,1624,1624,1624,1628,1632,1641,1641,1645,1645,1650,1650,1650,1650,1650,1650,1650,1650,1650,1654,1658,1672,1681,1690,1704,1723,1728,1733,1733,1728,1723,1718,1709,1709,1709,1709,1713,1718,1718,1718,1728,1728,1733,1737,1742,1742,1747,1747,1747,1747,1752,1752,1757,1757,1752,1752,1752,1747,1747,1747,1747,1752,1757,1757,1762,1762,1767,1767,1772,1772,1772,1772,1767,1767,1767,1767,1767,1767,1767,1767,1762,1762,1762,1762,1762,1762,1762,1767,1762,1762,1757,1752,1742,1737,1737,1733,1728,1728,1728,1733,0,0,0,0,0,0,0,0,0,977,972,972,971,966,960,959,960,963,962,962,960,962,959,957,954,954,954,954,954,957,963,968,972,974,980,983,1742,1737,1737,1728,1728,1723,1723,1723,1723,0,0,0,0,0,0,0,0,0,0,1007,999,992,989,983,974,972,968,965,963,963,962,960,960,965,966,969,971,980,986,991,996,997,997,999,0,0,1667,1663,1658,1663,1658,1658,1658,1658,1658,1658,1658,1654,1650,1645,1641,1641,1637,1637,1637,1637,1637,1637,1637,1637,1632,1632,1632,1632,1628,1624,1624,1619,1619,1619,1619,1619,1624,1619,1619,1615,1607,1603,1595,1586,1578,1570,1566,1558,1555,1551,1551,1547,1547,1551,1555,1555,1555,1555,1555,1551,1555,1551,1551,1543,1539,1524,1524,1520,1513,1509,1509,1509,1513,1513,1513,1509,1505,1495,1491,1484,1477,1470,1463,1459,1456,1456,1456,1453,1453,1453,1453,1453,1453,1453
1524,1524,1524,1524,1528,1528,1532,1535,1535,1539,1543,1543,1547,1547,1555,1555,1558,1566,1570,1574,1574,1578,1582,1586,1590,1595,1599,1603,1611,1615,1615,1619,1628,1628,1628,1637,1641,1641,1641,1645,1645,1645,1637,1637,1632,1632,1628,1628,1632,1632,1641,1645,1645,1650,1650,1650,1650,1650,1650,1650,1650,1650,1654,1654,1658,1676,1681,1690,1704,1723,1733,1733,1733,1728,1728,1713,1709,1709,1709,1709,1713,1713,1718,1718,1728,1733,1733,1737,1742,1747,1747,1752,1752,1752,1752,1757,1757,1757,1752,1757,1752,1747,1747,1747,1747,1752,1757,1757,1762,1762,1762,1767,1767,1767,1767,1767,1767,1767,1767,1767,1767,1767,1767,1767,1762,1762,1762,1762,1757,1762,1762,1762,1762,1757,1757,1752,1742,1742,1737,1737,1733,1728,1733,1733,0,0,0,0,0,0,0,0,0,981,975,974,972,968,962,960,962,963,963,963,963,962,962,959,957,956,956,956,957,959,966,971,974,975,981,985,1742,1737,1737,1733,1728,1723,1723,1718,1723,0,0,0,0,0,0,0,0,0,0,0,999,994,991,985,977,974,971,969,966,965,963,963,963,965,966,969,972,981,986,991,996,997,999,999,0,0,1658,1658,1654,1658,1658,1658,1658,1658,1658,1663,1658,1654,1650,1645,1645,1645,1641,1641,1641,1641,1641,1641,1641,1641,1637,1637,1637,1632,1628,1624,1624,1624,1619,1619,1619,1624,1624,1624,1619,1619,1611,1607,1599,1590,1586,1574,1566,1562,1558,1555,1555,1555,1555,1555,1558,1558,1558,1558,1562,1558,1558,1558,1555,1551,1543,1528,1524,1520,1513,1509,1509,1509,1513,1513,1513,1509,1505,1495,1487,1480,1473,1470,1459,1456,1456,1453,1453,1453,1449,1449,1449,1449,1453,1449
1524,1528,1524,1528,1528,1528,1535,1535,1539,1543,1547,1547,1551,1551,1555,1558,1562,1570,1574,1574,1574,1582,1582,1586,1590,1595,1599,1603,1607,1611,1615,1619,1624,1628,1628,1632,1637,1641,1641,1645,1645,1645,1641,1637,1632,1632,1632,1632,1632,1637,1641,1645,1645,1650,1650,1650,1654,1650,1650,1650,1650,1654,1654,1658,1663,1676,1681,1690,1704,1723,1733,1737,1737,1733,1728,1718,1709,1709,1709,1709,1713,1713,1718,1723,1728,1733,1737,1747,1747,1752,1752,1752,1752,1757,1757,1757,1757,1757,1757,1757,1752,1752,1752,1752,1752,1757,1762,1762,1762,1767,1767,1767,1767,1772,1767,1767,1767,1767,1767,1767,1767,1767,1767,1767,1762,1762,1757,1757,1757,1762,1757,1762,1762,1757,1757,1752,1742,1737,1737,1733,1728,1728,1728,0,0,0,0,0,0,0,0,0,0,981,975,974,971,968,962,960,962,965,965,965,965,965,963,962,959,959,959,959,959,962,968,972,975,977,983,986,1742,1737,1737,1728,1728,1723,1723,1718,1723,0,0,0,0,0,0,0,0,0,0,1005,999,994,989,986,978,975,972,969,968,966,965,965,965,965,966,968,971,978,985,989,994,997,999,1000,0,1663,1658,1658,1654,1654,1658,1663,1658,1663,1663,1663,1663,1658,1654,1654,1650,1650,1645,1645,1645,1645,1645,1645,1641,1641,1641,1637,1637,1637,1628,1624,1624,1624,1619,1619,1619,1624,1624,1624,1624,1619,1611,1607,1603,1595,1586,1574,1570,1566,1562,1555,1555,1555,1555,1558,1562,1562,1562,1562,1562,1566,1562,1562,1562,1555,1547,1532,1528,1520,1513,1509,1509,1509,1513,1513,1513,1509,1505,1491,1487,1480,1473,1466,1456,1456,1453,1453,1449,1449,1449,1449,1449,1449,1449,1449
1524,1528,1528,1528,1528,1532,1535,1539,1543,1547,1551,1551,1555,1558,1562,1562,1562,1570,1574,1578,1578,1582,1586,1586,1590,1595,1599,1599,1607,1607,1611,1611,1615,1619,1619,1628,1632,1637,1641,1645,1650,1645,1641,1641,1637,1637,1632,1632,1632,1637,1645,1645,1645,1650,1650,1654,1654,1654,1654,1654,1658,1658,1663,1663,1667,1681,1690,1695,1704,1728,1733,1737,1737,1733,1728,1718,1713,1709,1709,1709,1713,1718,1723,1723,1733,1733,1737,1747,1747,1752,1757,1757,1757,1757,1757,1757,1757,1757,1757,1757,1757,1752,1757,1757,1757,1762,1767,1767,1767,1772,1772,1772,1772,1772,1772,1772,1767,1767,1767,1767,1767,1762,1767,1762,1757,1757,1757,1757,1757,1757,1757,1757,1762,1762,1757,1752,1742,1737,1737,1733,1728,1728,1728,0,0,0,0,0,0,0,0,0,985,980,974,972,969,966,960,960,962,965,965,966,966,966,965,963,962,962,962,962,962,963,969,974,977,978,981,983,1742,1737,1733,1728,1728,1723,1723,1718,0,0,0,0,0,0,0,0,0,0,0,1002,1000,992,991,988,981,980,977,974,971,968,968,965,965,965,966,966,969,978,983,988,991,997,1000,1000,0,1667,1658,1658,1658,1658,1663,1663,1663,1663,1663,1667,1663,1658,1654,1654,1650,1650,1650,1650,1650,1645,1645,1645,1645,1645,1641,1637,1637,1637,1628,1624,1624,1624,1619,1619,1619,1624,1624,1624,1624,1624,1615,1611,1607,1599,1590,1578,1574,1570,1566,1558,1558,1558,1558,1562,1566,1566,1566,1566,1566,1570,1566,1570,1566,1558,1551,1535,1528,1520,1513,1509,1509,1509,1513,1513,1513,1509,1505,1491,1484,1477,1466,1463,1453,1453,1449,1449,1449,1449,1449,1449,1449,1449,1453,1453
1524,1524,1524,1528,1532,1532,1539,1543,1547,1555,1558,1558,1562,1562,1566,1566,1570,1574,1578,1582,1582,1586,1586,1590,1595,1595,1595,1599,1603,1607,1607,1607,1611,1615,1615,1624,1628,1632,1637,1645,1650,1645,1645,1641,1641,1641,1637,1637,1641,1641,1645,1650,1650,1650,1654,1654,1654,1654,1654,1654,1658,1663,1663,1667,1672,1681,1690,1699,1709,1728,1733,1737,1737,1733,1733,1718,1713,1709,1709,1709,1718,1718,1723,1728,1733,1737,1742,1747,1752,1752,1757,1757,1757,1757,1757,1762,1762,1762,1757,1757,1757,1757,1757,1762,1762,1767,1772,1772,1772,1772,1772,1772,1772,1772,1772,1772,1772,1767,1762,1762,1757,1757,1752,1752,1747,1747,1747,1747,1747,1752,1752,1757,1757,1757,1752,1752,1742,1737,1737,1733,1723,1723,0,0,0,0,0,0,0,985,986,986,983,978,972,971,969,966,960,959,962,963,963,965,966,966,968,966,965,965,965,965,965,966,972,974,977,978,981,981,1742,1742,1737,1728,1728,1723,1723,0,0,0,0,0,0,0,0,0,0,0,0,997,997,992,991,989,983,981,978,975,972,969,968,965,965,965,965,965,968,978,981,988,989,999,1000,1002,1663,1667,1663,1658,1654,1658,1663,1667,1663,1663,1667,1667,1667,1663,1654,1654,1650,1650,1650,1645,1645,1645,1645,1645,1645,1645,1641,1641,1637,1637,1628,1624,1624,1624,1619,1619,1619,1624,1624,1624,1624,1624,1619,1615,1611,1603,1590,1582,1574,1570,1566,1558,1558,1562,1566,1566,1570,1570,1574,1574,1574,1574,1574,1574,1570,1562,1555,1539,1532,1524,1517,1509,1509,1513,1513,1517,1513,1509,1502,1498,1484,1477,1466,1459,1453,1453,1449,1449,1449,1449,1449,1449,1449,1453,1453,1453
1520,1524,1524,1528,1528,1532,1543,1547,1555,1562,1570,1570,1574,1574,1574,1574,1574,1578,1578,1582,1586,1586,1590,1595,1595,1595,1599,1599,1603,1603,1607,1607,1607,1611,1615,1619,1624,1632,1637,1645,1650,1650,1645,1641,1641,1641,1641,1641,1641,1641,1650,1650,1650,1650,1654,1654,1654,1654,1658,1658,1658,1663,1663,1667,1672,1686,1690,1699,1709,1728,1733,1737,1737,1737,1733,1723,1718,1713,1713,1713,1718,1723,1728,1733,1737,1737,1742,1752,1752,1752,1757,1757,1757,1757,1757,1762,1762,1762,1757,1757,1762,1762,1762,1767,1767,1772,1777,1782,1782,1782,1782,1777,1782,1777,1777,1772,1772,1767,1762,1757,1757,1752,1747,1747,1747,1742,1742,1742,1742,1747,0,0,0,0,0,0,0,0,0,0,0,0,0,0,0,0,0,0,0,985,985,985,981,977,972,971,968,966,960,959,960,963,963,965,966,966,968,968,966,966,966,965,966,968,971,974,977,977,980,981,981,0,0,0,0,0,0,0,0,0,0,0,983,983,983,985,989,994,996,0,994,992,989,988,983,981,978,977,972,971,968,965,963,965,965,965,968,977,983,988,991,999,1004,1004,1663,1667,1663,1663,1658,1663,1663,1667,1663,1663,1667,1672,1667,1663,1654,1654,1650,1650,1645,1645,1645,1645,1645,1645,1645,1645,1645,1641,1641,1637,1628,1624,1624,1624,1619,1619,1619,1624,1624,1624,1624,1624,1624,1619,1615,1607,1595,1586,1578,1574,1570,1562,1562,1562,1566,1570,1574,1574,1574,1574,1578,1574,1578,1574,1570,1562,1555,1535,1528,1520,1517,1509,1509,1509,1513,1513,1513,1509,1502,1498,1480,1473,1466,1459,1453,1453,1449,1449,1449,1449,1449,1449,1449,1453,1453,1453
1520,1520,1520,1524,1528,1532,1543,1551,1558,1566,1574,1578,1578,1582,1582,1578,1578,1578,1582,1586,1590,1590,1590,1595,1599,1599,1599,1599,1603,1603,1603,1603,1607,1607,1611,1615,1624,1628,1632,1641,1645,1645,1645,1645,1641,1641,1641,1641,1641,1641,1645,1650,1650,1650,1654,1654,1654,1654,1658,1658,1658,1663,1667,1667,1672,1686,1690,1699,1709,1728,1733,1737,1742,1737,1733,1723,1718,1718,1723,1723,1728,1733,1737,1737,1747,1747,1752,1752,1752,1757,1757,1757,1757,1757,1757,1762,1762,1762,1762,1762,1767,1767,1772,1777,1782,1782,1793,1793,1793,1788,1788,1782,1782,1782,1777,1772,1772,1762,1757,1757,1752,1747,1747,1742,1742,1737,1737,0,0,0,0,0,0,0,1752,1752,1747,0,0,0,0,0,0,0,0,0,0,0,0,981,981,981,980,975,972,971,968,965,962,959,962,963,963,965,966,966,968,969,968,966,966,966,966,968,971,974,974,977,978,980,980,980,980,980,981,981,983,983,985,983,983,981,980,981,981,981,985,988,989,991,989,989,989,988,985,981,980,977,974,971,968,966,965,963,963,965,969,980,985,989,994,1000,1005,0,1663,1672,1667,1663,1663,1667,1667,1672,1672,1667,1672,1672,1667,1663,1654,1654,1654,1650,1645,1645,1645,1645,1645,1645,1645,1645,1645,1645,1641,1637,1628,1628,1624,1624,1619,1619,1619,1624,1624,1624,1624,1624,1624,1624,1615,1611,1595,1590,1582,1574,1570,1562,1562,1566,1566,1570,1574,1574,1574,1574,1578,1578,1578,1574,1570,1558,1551,1535,1528,1520,1513,1509,1509,1513,1513,1517,1513,1509,1502,1498,1484,1473,1470,1463,1453,1453,1453,1453,1453,1453,1453,1453,1453,1456,1453,1453
1517,1517,1520,1524,1528,1532,1543,1551,1558,1570,1582,1582,1582,1586,1582,1582,1578,1582,1586,1590,1590,1595,1595,1599,1599,1599,1599,1599,1599,1599,1599,1599,1599,1603,1607,1607,1615,1624,1628,1637,1641,1645,1645,1641,1641,1641,1641,1641,1641,1641,1645,1650,1650,1650,1654,1654,1654,1654,1658,1658,1663,1667,1667,1672,1672,1686,1690,1699,1709,1728,1733,1737,1742,1737,1737,1728,1728,1723,1728,1733,1737,1737,1742,1747,1752,1752,1757,1757,1757,1757,1757,1757,1757,1757,1762,1762,1762,1762,1762,1767,1767,1772,1777,1782,1782,1788,1793,1793,1793,1793,1788,1788,1782,1777,1772,1772,1767,1757,1757,1752,1752,1742,1742,1737,1737,1733,0,0,0,0,0,0,0,0,0,0,0,0,0,0,0,0,0,0,0,0,0,975,975,977,977,977,974,972,971,969,966,965,962,960,962,962,963,965,965,966,966,968,968,968,968,966,966,968,971,972,974,975,977,978,980,980,980,981,981,983,983,983,985,983,983,981,981,981,981,981,983,985,986,988,988,988,986,988,985,983,981,980,975,972,971,968,965,965,965,965,969,980,985,991,994,1002,1007,0,0,1667,1667,1663,1663,1667,1667,1672,1672,1672,1672,1672,1667,1663,1654,1654,1654,1650,1645,1645,1645,1645,1645,1645,1650,1650,1645,1645,1641,1637,1628,1628,1624,1624,1619,1619,1619,1624,1624,1624,1624,1624,1624,1624,1619,1611,1599,1590,1582,1578,1570,1566,1566,1566,1566,1570,1574,1574,1574,1574,1578,1578,1578,1570,1566,1558,1551,1532,1524,1517,1509,1509,1509,1513,1513,1517,1517,1509,1505,1498,1484,1477,1470,1463,1459,1456,1459,1459,1459,1456,1456,1456,1456,1456,1456,1456
1513,1513,1517,1520,1524,1532,1543,1551,1558,1566,1586,1590,1590,1590,1590,1590,1586,1586,1590,1590,1595,1595,1599,1599,1603,1599,1599,1599,1599,1599,1599,1599,1599,1603,1607,1607,1615,1624,1628,1637,1641,1645,1645,1645,1641,1641,1641,1641,1641,1645,1645,1645,1650,1650,1654,1654,1658,1658,1663,1663,1667,1667,1667,1672,1676,1686,1690,1699,1709,1728,1737,1737,1742,1737,1737,1733,1733,1733,1733,1733,1742,1742,1747,1752,1757,1757,1757,1762,1762,1762,1762,1762,1762,1762,1762,1762,1762,1767,1762,1767,1772,1772,1782,1782,1788,1793,1793,1793,1793,1788,1782,1782,1782,1772,1767,1762,1762,1752,1747,1742,1737,1733,1728,1728,1728,1728,0,0,0,0,0,0,0,0,0,0,0,0,0,0,0,0,0,0,0,0,0,972,974,974,974,974,971,971,969,969,966,966,965,963,963,965,965,966,966,966,966,969,968,968,968,968,968,968,971,972,972,974,975,977,978,978,980,981,981,983,983,985,985,983,983,981,981,981,980,981,983,985,985,986,986,986,986,985,985,983,981,980,975,974,971,968,966,966,966,966,971,981,988,992,1000,1005,1010,1012,0,1667,1667,1663,1667,1667,1672,1676,1676,1676,1676,1676,1672,1667,1658,1654,1654,1650,1645,1645,1645,1645,1645,1645,1650,1650,1645,1645,1641,1641,1628,1628,1628,1624,1619,1619,1619,1624,1624,1624,1624,1624,1628,1624,1619,1611,1599,1590,1582,1574,1570,1566,1566,1566,1570,1570,1574,1574,1574,1574,1574,1574,1574,1570,1562,1555,1547,1528,1520,1513,1505,1505,1509,1513,1513,1517,1517,1513,1505,1502,1491,1484,1480,1473,1470,1466,1466,1466,1463,1463,1463,1463,1459,1459,1459,1456
1509,1513,1513,1520,1524,1528,1543,1555,1562,1574,1586,1590,1590,1595,1595,1595,1586,1586,1590,1595,1595,1599,1599,1603,1603,1599,1599,1599,1599,1599,1599,1599,1599,1603,1607,1607,1615,1624,1628,1637,1641,1645,1645,1645,1645,1641,1641,1641,1641,1645,1645,1650,1650,1650,1654,1658,1658,1663,1663,1667,1667,1672,1672,1672,1676,1686,1695,1699,1709,1728,1737,1737,1742,1742,1737,1737,1733,1733,1737,1742,1747,1752,1752,1757,1757,1762,1762,1762,1762,1762,1762,1762,1762,1762,1762,1767,1767,1767,1767,1772,1772,1772,1777,1782,1782,1788,1793,1793,1788,1782,1782,1777,1772,1767,1762,1757,1752,1747,1742,1737,1733,1728,1723,1723,1723,0,0,0,0,0,0,0,0,0,0,0,0,0,0,0,0,0,0,0,0,0,972,971,971,972,971,971,969,969,969,968,966,968,965,965,965,966,966,968,968,968,969,971,969,969,969,969,969,969,972,972,974,974,975,977,978,978,981,981,983,983,985,985,985,983,983,981,980,980,980,980,980,981,983,985,983,986,985,985,983,983,981,981,977,975,972,971,968,968,968,969,974,985,989,996,1004,1009,1014,1015,0,0,1667,1663,1667,1672,1676,1681,1676,1676,1676,1676,1672,1667,1658,1654,1654,1650,1650,1650,1650,1650,1650,1650,1650,1650,1645,1645,1641,1641,1632,1628,1628,1628,1624,1619,1624,1628,1624,1624,1624,1624,1628,1624,1619,1615,1607,1590,1582,1574,1566,1566,1566,1566,1566,1570,1570,1570,1574,1574,1574,1574,1574,1566,1562,1551,1539,1524,1517,1509,1505,1505,1509,1513,1513,1517,1517,1513,1505,1502,1491,1487,1484,1480,1477,1477,1473,1473,1470,1466,1466,1466,1463,1463,1459,1459
1505,1505,1509,1520,1520,1528,1539,1551,1562,1570,1590,1590,1595,1595,1590,1590,1586,1590,1590,1595,1599,1599,1603,1603,1603,1603,1603,1603,1603,1603,1603,1603,1603,1607,1607,1611,1619,1624,1628,1641,1645,1645,1645,1645,1645,1645,1641,1641,1641,1641,1650,1650,1654,1654,1658,1658,1663,1667,1667,1667,1672,1676,1676,1676,1681,1690,1695,1704,1713,1728,1737,1737,1742,1742,1742,1742,1742,1742,1747,1752,1752,1757,1757,1762,1762,1762,1767,1767,1767,1767,1767,1767,1767,1767,1772,1772,1772,1772,1772,1772,1772,1772,1777,1782,1782,1782,1782,1782,1782,1777,1772,1772,1772,1762,1757,1752,1747,1742,1737,1733,1728,1728,1723,1723,0,0,0,0,0,0,0,0,0,0,0,0,0,0,0,0,0,0,0,0,0,0,971,969,971,972,971,971,969,968,969,968,966,968,966,966,968,968,968,971,971,971,972,972,972,971,971,971,971,971,972,974,974,975,977,978,978,980,981,983,983,983,985,985,986,983,981,981,980,980,980,980,980,981,981,985,985,985,985,985,983,983,981,981,978,977,975,974,975,975,975,978,983,992,997,1002,1012,1015,1020,1024,0,0,1663,1663,1667,1672,1676,1681,1681,1681,1681,1681,1676,1672,1663,1663,1658,1658,1654,1650,1650,1650,1650,1650,1650,1650,1645,1645,1641,1641,1632,1628,1628,1628,1628,1624,1624,1628,1628,1628,1628,1628,1628,1624,1615,1615,1607,1590,1582,1574,1566,1562,1566,1566,1566,1566,1570,1570,1570,1570,1570,1570,1570,1566,1555,1547,1539,1520,1517,1505,1502,1502,1509,1513,1517,1517,1517,1513,1509,1502,1498,1495,1491,1487,1484,1484,1480,1480,1477,1477,1473,1470,1466,1466,1463,1459
1502,1502,1505,1513,1520,1524,1528,1547,1558,1570,1586,1590,1590,1590,1590,1590,1590,1590,1590,1595,1595,1599,1603,1603,1603,1603,1603,1603,1607,1607,1607,1607,1607,1607,1611,1615,1624,1624,1632,1645,1650,1654,1650,1650,1650,1650,1645,1645,1645,1645,1650,1654,1658,1658,1663,1667,1672,1672,1676,1676,1681,1686,1686,1690,1690,1699,1704,1709,1718,1733,1737,1742,1747,1747,1742,1742,1742,1742,1747,1752,1757,1757,1762,1762,1762,1767,1767,1767,1767,1767,1767,1767,1767,1772,1772,1772,1772,1777,1772,1772,1772,1772,1772,1777,1777,1777,1782,1782,1777,1772,1772,1767,1762,1752,1752,1742,1742,1733,1728,1728,1723,1723,1723,1718,0,0,0,0,0,0,0,0,0,0,0,0,0,0,0,0,0,0,0,0,0,0,972,971,971,971,971,969,969,969,969,969,968,969,968,969,971,971,972,972,972,972,974,972,974,972,972,972,972,971,974,974,975,975,978,980,981,983,985,985,986,986,985,985,986,983,983,983,981,981,981,981,981,983,983,983,983,985,985,983,983,983,985,985,985,983,983,981,981,980,981,983,986,997,1000,1005,1014,1018,1022,1025,0,0,0,1663,1667,1672,1676,1686,1681,1681,1686,1681,1676,1672,1667,1663,1663,1658,1654,1654,1654,1650,1650,1650,1650,1645,1645,1645,1641,1641,1632,1632,1628,1628,1628,1628,1628,1632,1628,1628,1628,1628,1628,1624,1615,1611,1603,1590,1582,1574,1566,1562,1562,1566,1566,1566,1566,1566,1566,1566,1566,1566,1566,1562,1555,1543,1535,1520,1513,1505,1502,1502,1513,1513,1517,1517,1517,1517,1513,1505,1502,1498,1495,1495,1491,1495,1495,1495,1491,1487,1484,1480,1473,1470,1466,1466
1498,1498,1502,1513,1517,1524,1528,1547,1558,1570,1586,1586,1586,1590,1590,1590,1590,1590,1590,1595,1595,1599,1603,1603,1603,1607,1607,1607,1607,1611,1611,1615,1615,1615,1619,1624,1632,1637,1637,1645,1650,1654,1654,1654,1650,1650,1650,1650,1645,1645,1654,1654,1658,1663,1667,1672,1676,1681,1686,1686,1686,1690,1695,1695,1699,1704,1709,1713,1723,1737,1737,1742,1747,1747,1747,1747,1747,1747,1747,1752,1757,1762,1762,1762,1762,1762,1762,1767,1767,1767,1767,1772,1772,1772,1772,1777,1777,1777,1777,1772,1772,1772,1772,1772,1772,1767,1772,1767,1767,1762,1757,1752,1752,1742,1742,1737,1733,1723,1723,1723,1718,1718,1718,0,0,0,0,0,0,0,0,0,0,0,0,0,0,0,0,0,0,0,0,0,0,0,972,971,972,972,971,969,969,971,971,971,971,971,971,972,974,975,975,977,977,975,975,975,975,975,975,975,974,974,977,977,977,978,980,981,983,985,986,986,986,986,986,986,985,985,985,983,983,981,981,983,983,983,985,985,985,985,985,985,985,985,985,985,985,986,986,986,986,986,986,988,991,999,1004,1009,1017,1020,1024,1027,0,0,0,0,1667,1672,1676,1686,1686,1686,1686,1686,1681,1676,1667,1667,1667,1663,1658,1658,1654,1654,1650,1650,1645,1645,1641,1637,1637,1637,1632,1632,1628,1628,1632,1628,1628,1632,1628,1628,1628,1628,1628,1624,1615,1611,1603,1590,1582,1574,1574,1566,1566,1566,1566,1566,1566,1562,1562,1562,1562,1562,1562,1558,1555,1543,1535,1524,1520,1513,1509,1509,1517,1520,1520,1520,1520,1520,1517,1513,1509,1509,1509,1505,1505,1502,1502,1498,1498,1495,1491,1487,1480,1477,1470,1466
1495,1498,1502,1509,1517,1520,1528,1547,1555,1570,1582,1586,1586,1590,1590,1590,1590,1590,1595,1595,1599,1603,1603,1607,1607,1607,1611,1611,1611,1615,1615,1615,1619,1624,1624,1628,1637,1637,1641,1650,1658,1658,1658,1658,1654,1654,1650,1650,1650,1650,1658,1658,1663,1667,1672,1676,1681,1686,1690,1690,1695,1699,1699,1699,1704,1709,1713,1718,1723,1737,1742,1742,1747,1747,1747,1747,1747,1747,1752,1752,1752,1757,1757,1757,1762,1762,1762,1762,1762,1767,1767,1772,1772,1777,1777,1777,1777,1782,1777,1777,1772,1772,1767,1767,1767,1762,1762,1762,1762,1757,1752,1752,1747,1742,1737,1733,1728,1723,1723,1718,1718,1713,0,0,0,0,0,0,0,0,0,0,0,0,0,0,0,0,0,0,0,0,0,0,0,0,974,971,972,972,971,969,969,971,971,971,971,972,972,974,975,975,977,978,978,977,977,977,977,977,977,977,977,977,978,978,978,980,981,983,985,986,988,988,988,986,986,986,986,985,985,985,983,983,983,983,985,985,986,986,986,986,986,985,985,985,985,985,986,988,988,989,989,989,991,992,996,1004,1007,1010,1018,1022,1025,1027,0,0,0,0,1667,1672,1676,1681,1686,1686,1686,1686,1681,1681,1676,1672,1672,1667,1663,1658,1654,1650,1645,1645,1641,1641,1637,1637,1637,1637,1632,1632,1632,1632,1632,1632,1632,1632,1632,1632,1632,1632,1628,1619,1615,1611,1607,1595,1586,1578,1578,1570,1570,1566,1566,1566,1566,1562,1562,1562,1562,1562,1562,1562,1555,1547,1543,1528,1524,1520,1517,1517,1524,1524,1524,1524,1524,1520,1517,1517,1513,1513,1513,1509,1509,1505,1505,1505,1502,1498,1495,1491,1484,1480,1477,1473
1491,1495,1498,1509,1517,1520,1528,1547,1555,1566,1586,1590,1586,1590,1590,1590,1586,1590,1595,1595,1599,1603,1607,1607,1607,1611,1611,1611,1615,1615,1619,1619,1624,1628,1628,1632,1641,1641,1645,1654,1663,1663,1663,1663,1658,1658,1654,1654,1650,1654,1663,1663,1667,1672,1676,1681,1686,1690,1695,1695,1699,1704,1704,1704,1709,1713,1718,1723,1728,1737,1742,1747,1747,1752,1752,1752,1752,1752,1752,1757,1757,1757,1757,1757,1757,1757,1757,1762,1762,1762,1767,1767,1772,1777,1777,1782,1782,1782,1782,1777,1772,1772,1767,1767,1762,1762,1762,1762,1757,1752,1752,1747,1742,1737,1737,1733,1728,1723,1718,1718,1718,1718,0,0,0,0,0,0,0,0,0,0,0,0,0,0,0,0,0,0,0,0,0,0,0,985,975,974,974,974,972,971,971,972,972,974,974,974,974,975,977,977,978,980,980,978,980,978,978,980,978,978,978,980,980,980,981,981,985,985,986,988,988,988,988,988,986,986,986,985,985,985,985,983,983,985,985,986,988,988,988,988,986,986,985,985,985,986,986,989,991,992,996,997,1000,1002,1005,1012,1015,1018,1024,1025,1029,1030,0,0,0,0,0,0,1676,1681,1686,1686,1690,1690,1690,1686,1681,1676,1672,1667,1663,1658,1654,1650,1645,1641,1641,1637,1632,1632,1632,1632,1628,1628,1628,1632,1632,1632,1632,1632,1632,1632,1632,1632,1624,1619,1615,1611,1607,1595,1590,1582,1582,1574,1574,1570,1570,1566,1566,1566,1562,1562,1562,1562,1562,1562,1555,1551,1543,1535,1532,1528,1524,1524,1528,1528,1528,1528,1524,1520,1520,1517,1517,1513,1513,1513,1513,1509,1509,1509,1505,1502,1498,1495,1487,1484,1480,1477
1487,1491,1495,1505,1513,1520,1524,1543,1551,1562,1582,1582,1582,1586,1586,1586,1586,1590,1595,1595,1599,1607,1607,1607,1611,1611,1615,1615,1619,1624,1624,1624,1632,1637,1637,1641,1645,1650,1654,1663,1667,1672,1667,1667,1663,1663,1663,1663,1658,1658,1667,1672,1676,1681,1686,1690,1695,1699,1704,1709,1713,1713,1713,1718,1718,1718,1723,1728,1733,1742,1742,1747,1752,1752,1752,1752,1752,1752,1752,1757,1757,1757,1757,1757,1757,1757,1757,1757,1762,1762,1762,1767,1767,1772,1777,1777,1782,1782,1782,1777,1772,1772,1767,1762,1762,1757,1757,1757,1757,1752,1747,1747,1742,1737,1733,1728,1728,1723,1718,1718,1718,0,0,0,0,0,0,0,0,0,0,0,0,0,0,0,0,0,0,0,0,0,0,0,0,0,977,975,975,974,972,972,972,972,974,974,974,974,975,977,978,980,980,981,981,980,980,981,980,981,981,981,981,983,983,983,985,985,986,988,988,989,989,989,988,988,986,986,986,985,985,983,983,983,985,985,986,989,989,991,989,989,988,986,985,985,985,986,988,992,996,997,1000,1004,1007,1007,1014,1017,1018,1022,1025,1029,1030,1032,1034,0,0,0,0,0,1681,1681,1686,1690,1690,1690,1690,1686,1681,1676,1676,1672,1663,1658,1654,1650,1645,1641,1641,1637,1632,1632,1628,1632,1628,1628,1628,1632,1637,1637,1632,1632,1637,1632,1632,1632,1624,1619,1615,1611,1607,1599,1595,1586,1586,1578,1578,1574,1574,1570,1570,1566,1566,1562,1562,1562,1562,1562,1555,1551,1551,1543,1539,1539,1535,1532,1535,1535,1532,1528,1524,1520,1520,1517,1517,1513,1513,1513,1513,1513,1509,1509,1509,1509,1505,1502,1498,1495,1491,1491
1487,1491,1498,1505,1513,1520,1524,1543,1551,1562,1578,1582,1582,1582,1586,1582,1586,1586,1590,1595,1603,1607,1607,1611,1611,1615,1619,1619,1624,1628,1632,1632,1637,1637,1641,1641,1650,1654,1654,1663,1667,1672,1672,1667,1667,1667,1663,1663,1663,1667,1676,1681,1681,1686,1695,1695,1699,1704,1713,1713,1718,1718,1723,1723,1718,1723,1728,1728,1733,1742,1747,1747,1752,1752,1752,1757,1757,1752,1757,1757,1757,1757,1757,1757,1757,1757,1757,1757,1762,1762,1762,1767,1767,1772,1777,1782,1782,1782,1782,1777,1777,1772,1767,1762,1762,1762,1757,1757,1757,1752,1747,1747,1742,1737,1737,1733,1723,1723,1723,1723,0,0,0,0,0,0,0,0,0,0,0,0,0,0,0,0,0,0,0,0,0,0,0,0,0,0,980,978,977,977,974,974,974,974,974,975,977,977,977,978,981,981,981,983,983,983,983,983,983,983,985,985,985,985,985,985,986,986,988,988,989,989,989,989,988,988,986,986,985,985,983,983,983,983,985,986,988,989,991,991,991,989,988,986,985,985,985,986,988,992,997,999,1002,1007,1009,1012,1017,1018,1022,1024,1027,1030,1032,1034,1036,1037,0,0,0,0,1681,1681,1686,1686,1690,1690,1690,1690,1686,1681,1676,1672,1663,1658,1650,1650,1641,1641,1637,1637,1632,1632,1628,1632,1628,1628,1628,1632,1637,1637,1632,1632,1637,1632,1632,1628,1624,1619,1615,1615,1611,1603,1603,1599,1595,1590,1586,1586,1582,1578,1574,1570,1570,1566,1566,1566,1566,1566,1562,1562,1562,1562,1558,1555,1551,1547,1547,1543,1535,1528,1524,1520,1520,1513,1513,1513,1509,1509,1509,1509,1509,1509,1509,1509,1505,1505,1498,1498,1495,1495
1491,1495,1498,1509,1513,1524,1528,1543,1551,1562,1578,1578,1582,1578,1582,1582,1586,1586,1590,1595,1603,1607,1607,1611,1611,1615,1619,1624,1624,1628,1632,1632,1637,1637,1641,1641,1650,1650,1654,1663,1667,1672,1672,1667,1667,1667,1667,1667,1667,1672,1681,1686,1686,1690,1695,1699,1704,1709,1713,1718,1723,1723,1723,1723,1728,1728,1728,1728,1733,1742,1742,1747,1752,1752,1752,1757,1757,1757,1757,1757,1757,1757,1757,1757,1757,1757,1757,1757,1762,1762,1762,1767,1767,1772,1772,1777,1782,1782,1782,1782,1777,1777,1772,1767,1767,1762,1762,1762,1762,1757,1752,1747,1747,1737,1737,1733,1733,1728,1728,0,0,0,0,0,0,0,0,0,0,0,0,0,0,0,0,0,0,0,0,0,0,0,0,0,0,988,980,980,978,977,975,974,974,974,975,977,977,978,978,980,981,983,983,983,983,983,981,983,981,983,983,983,985,985,986,986,988,988,989,989,989,989,989,989,988,988,986,986,985,983,983,983,983,983,985,986,988,991,992,992,992,991,989,988,986,986,986,986,988,994,997,1002,1005,1010,1014,1015,1020,1022,1024,1027,1030,1032,1034,1034,1036,1037,0,0,0,1126,0,1681,1686,1686,1690,1690,1690,1690,1686,1681,1676,1667,1658,1654,1650,1645,1641,1637,1637,1637,1632,1632,1632,1632,1632,1632,1632,1637,1637,1637,1637,1637,1637,1632,1632,1628,1624,1619,1615,1615,1611,1607,1603,1603,1599,1595,1590,1586,1582,1578,1574,1570,1566,1566,1566,1566,1566,1566,1566,1566,1562,1562,1562,1558,1558,1551,1547,1547,1539,1532,1524,1524,1520,1517,1513,1509,1509,1509,1505,1505,1509,1509,1509,1509,1509,1505,1505,1502,1502,1498
1495,1498,1502,1513,1517,1524,1528,1547,1551,1562,1574,1578,1578,1578,1582,1582,1582,1586,1590,1595,1603,1607,1607,1611,1615,1615,1619,1624,1628,1628,1632,1632,1637,1637,1641,1641,1650,1650,1654,1663,1667,1667,1672,1672,1672,1672,1672,1672,1672,1676,1686,1686,1690,1695,1704,1709,1709,1713,1718,1723,1723,1728,1728,1728,1733,1733,1733,1737,1737,1742,1747,1747,1752,1757,1757,1757,1757,1757,1757,1762,1762,1762,1762,1762,1762,1762,1762,1762,1762,1762,1762,1767,1767,1772,1772,1782,1782,1782,1782,1782,1782,1777,1772,1772,1767,1767,1767,1767,1767,1762,1757,1752,1747,1742,1742,1737,1733,1733,0,0,0,0,0,0,0,0,0,0,0,0,0,0,0,0,0,0,0,0,0,0,0,0,0,0,0,988,981,980,978,977,975,975,974,975,975,977,978,978,978,980,981,981,981,981,981,981,983,983,983,985,986,988,988,989,991,989,989,989,989,989,989,989,989,989,988,988,986,986,985,985,983,983,983,983,986,988,989,992,992,994,992,992,991,988,986,988,988,989,991,996,1002,1005,1010,1017,1018,1022,1027,1029,1030,1032,1034,1036,1037,1037,1039,1044,0,0,0,1124,0,0,1686,1690,1695,1690,1690,1690,1686,1681,1676,1667,1658,1654,1650,1645,1641,1641,1637,1637,1632,1632,1632,1637,1637,1632,1632,1637,1637,1637,1637,1637,1637,1632,1632,1628,1624,1619,1615,1615,1611,1607,1607,1603,1599,1595,1590,1586,1582,1574,1570,1566,1562,1558,1558,1558,1562,1558,1562,1562,1562,1562,1562,1558,1555,1547,1543,1539,1535,1524,1520,1517,1513,1509,1505,1505,1498,1498,1495,1498,1502,1505,1505,1505,1505,1505,1505,1505,1505,1505
1498,1502,1505,1513,1520,1528,1532,1547,1551,1558,1574,1578,1578,1578,1582,1582,1582,1586,1590,1595,1599,1603,1607,1611,1615,1619,1619,1624,1628,1632,1632,1632,1637,1637,1641,1641,1645,1650,1654,1663,1667,1667,1672,1672,1672,1672,1676,1676,1681,1686,1690,1695,1699,1704,1709,1713,1718,1718,1723,1728,1733,1733,1733,1733,1733,1733,1737,1737,1742,1742,1747,1752,1757,1757,1757,1757,1762,1762,1762,1767,1762,1762,1762,1762,1762,1762,1762,1762,1762,1762,1767,1767,1767,1772,1777,1782,1782,1782,1788,1782,1782,1782,1772,1772,1772,1772,1772,1767,1767,1762,1762,1757,1752,1747,1742,1737,1733,1733,0,0,0,0,0,0,0,0,0,0,0,0,0,0,0,0,0,0,0,0,0,0,0,0,0,0,994,988,981,980,978,977,975,975,975,975,975,978,978,978,980,980,981,981,978,978,978,978,980,981,983,985,988,991,992,994,996,997,996,994,994,991,991,989,989,989,988,988,986,986,985,985,983,983,985,985,986,988,991,992,994,994,994,992,991,989,989,989,989,991,992,997,1002,1007,1012,1018,1022,1025,1029,1030,1032,1034,1036,1037,1037,1039,1041,1046,0,0,1100,1124,1124,1126,0,1695,1695,1695,1695,1690,1686,1681,1676,1672,1663,1654,1650,1650,1645,1641,1641,1637,1637,1637,1637,1637,1637,1632,1632,1637,1637,1641,1641,1637,1637,1632,1628,1628,1619,1615,1611,1611,1603,1599,1595,1590,1586,1582,1578,1574,1570,1562,1558,1551,1547,1547,1547,1547,1547,1547,1547,1551,1551,1551,1551,1547,1543,1535,1532,1528,1520,1517,1505,1502,1498,1495,1491,1491,1491,1491,1491,1495,1498,1498,1498,1502,1502,1502,1505,1505,1509,1509
1502,1509,1513,1520,1524,1528,1535,1547,1551,1558,1570,1574,1578,1578,1582,1582,1582,1586,1590,1595,1599,1603,1607,1607,1611,1615,1619,1624,1628,1632,1632,1632,1637,1637,1641,1641,1645,1650,1654,1658,1663,1667,1667,1672,1672,1676,1676,1681,1686,1686,1695,1699,1699,1704,1709,1713,1718,1718,1728,1728,1728,1733,1733,1733,1733,1733,1737,1737,1742,1747,1752,1752,1757,1762,1762,1762,1762,1767,1767,1767,1767,1767,1767,1767,1762,1767,1767,1767,1767,1767,1767,1772,1772,1777,1777,1782,1782,1788,1788,1788,1788,1782,1777,1777,1777,1772,1772,1772,1772,1767,1762,1762,1757,1747,1742,1742,1737,1737,0,0,0,0,0,0,0,0,0,0,0,0,0,0,0,0,0,0,0,0,0,0,0,0,0,0,0,999,988,985,983,980,977,977,977,977,977,980,980,980,980,981,981,981,978,978,978,978,980,981,983,985,989,992,994,996,999,999,999,997,996,992,991,989,989,989,989,988,986,986,986,985,985,985,985,986,988,989,991,994,994,994,994,994,992,991,991,991,991,992,994,999,1004,1009,1012,1020,1022,1025,1032,1034,1034,1036,1037,1037,1039,1041,1042,1048,0,0,1096,1114,1118,1118,1118,1699,1699,1695,1695,1690,1690,1681,1676,1672,1663,1658,1654,1650,1645,1641,1641,1641,1641,1641,1641,1641,1637,1632,1632,1628,1628,1624,1624,1619,1619,1611,1611,1607,1603,1595,1595,1595,1590,1582,1582,1578,1578,1570,1566,1562,1562,1551,1551,1543,1543,1539,1535,1539,1539,1539,1539,1543,1543,1539,1543,1539,1535,1528,1524,1520,1513,1509,1498,1495,1491,1487,1484,1484,1484,1484,1484,1487,1491,1495,1495,1498,1498,1498,1502,1505,1505,1505
1505,1509,1513,1524,1524,1528,1535,1547,1555,1562,1574,1574,1578,1578,1582,1582,1586,1586,1590,1595,1595,1603,1607,1607,1611,1615,1619,1624,1628,1632,1632,1632,1637,1637,1637,1641,1645,1650,1650,1658,1663,1667,1667,1672,1676,1676,1676,1681,1686,1690,1695,1699,1699,1704,1713,1713,1718,1718,1728,1728,1733,1733,1733,1733,1733,1737,1737,1742,1747,1747,1752,1757,1757,1762,1762,1762,1767,1767,1767,1767,1772,1772,1772,1772,1772,1772,1772,1772,1772,1772,1772,1777,1782,1782,1788,1793,1793,1793,1793,1793,1788,1788,1782,1782,1782,1782,1777,1777,1777,1772,1767,1762,1757,1752,1747,1742,1742,0,0,0,0,0,0,0,0,0,0,0,0,0,0,0,0,0,0,0,0,0,0,0,0,0,0,0,1010,0,994,989,986,983,978,978,978,978,978,980,981,980,981,981,981,980,977,977,977,977,978,981,983,985,991,992,996,999,1000,1000,1000,999,997,992,991,989,989,989,988,988,988,986,986,986,986,986,986,986,988,989,991,994,994,996,996,996,994,994,992,994,994,996,996,1000,1005,1009,1014,1022,1024,1027,1034,1034,1036,1037,1039,1039,1039,1042,1044,1050,1058,1077,1092,1102,1106,1106,1104,1102,1699,1695,1695,1690,1690,1681,1676,1667,1663,1658,1654,1654,1650,1645,1645,1641,1641,1641,1637,1637,1637,1628,1628,1624,1619,1615,1611,1611,1607,1603,1603,1599,1595,1582,1582,1578,1574,1570,1566,1566,1562,1558,1555,1555,1551,1543,1543,1535,1532,1532,1532,1532,1532,1532,1532,1532,1532,1535,1532,1528,1528,1520,1520,1517,1509,1505,1495,1491,1487,1484,1477,1477,1477,1477,1477,1480,1484,1484,1487,1491,1491,1495,1495,1498,1498,1502
1509,1513,1517,1524,1528,1532,1535,1547,1555,1562,1574,1578,1578,1582,1582,1586,1586,1586,1595,1595,1599,1607,1607,1611,1615,1619,1624,1624,1628,1632,1632,1632,1637,1637,1637,1641,1645,1645,1650,1658,1663,1667,1672,1676,1676,1676,1681,1686,1690,1690,1695,1699,1704,1709,1709,1713,1718,1718,1728,1728,1728,1733,1737,1737,1737,1737,1742,1747,1747,1757,1757,1762,1762,1767,1767,1767,1772,1772,1772,1772,1772,1772,1772,1777,1777,1777,1777,1777,1782,1782,1782,1788,1788,1788,1788,1793,1793,1793,1793,1793,1793,1788,1782,1782,1782,1782,1782,1782,1777,1772,1767,1762,1757,1747,1747,1742,1742,0,0,0,0,0,0,0,0,0,0,0,0,0,0,0,0,0,0,0,0,0,0,0,0,0,0,0,0,1009,997,994,988,985,980,980,980,978,980,981,981,981,981,981,981,978,975,975,975,977,977,978,981,983,989,992,996,999,1000,1002,1000,1000,997,994,991,991,991,989,989,988,988,988,988,986,986,988,988,988,989,991,992,994,996,996,996,996,997,997,997,999,999,1000,1000,1004,1009,1012,1017,1025,1029,1034,1039,1039,1041,1042,1042,1044,1044,1046,1051,0,1062,0,1088,1096,1102,1102,1100,1098,1096,1695,1695,1690,1686,1681,1676,1667,1658,1658,1654,1654,1650,1645,1641,1641,1637,1637,1632,1632,1628,1619,1615,1615,1611,1603,1603,1599,1599,1595,1590,1586,1578,1566,1566,1562,1562,1555,1555,1551,1551,1547,1547,1543,1539,1535,1532,1528,1524,1524,1524,1524,1524,1524,1528,1524,1524,1528,1524,1524,1520,1517,1513,1509,1505,1498,1487,1484,1480,1477,1473,1466,1466,1466,1466,1470,1473,1473,1473,1480,1480,1480,1480,1484,1484,1484
1513,1513,1517,1524,1528,1532,1535,1547,1555,1562,1574,1578,1582,1586,1586,1586,1590,1595,1595,1603,1607,1615,1615,1619,1624,1624,1628,1628,1632,1632,1632,1637,1637,1637,1641,1641,1645,1650,1654,1658,1663,1667,1672,1681,1681,1681,1686,1690,1690,1695,1699,1704,1704,1709,1713,1713,1718,1723,1728,1728,1733,1737,1737,1737,1737,1742,1742,1747,1752,1757,1757,1762,1767,1767,1767,1772,1772,1772,1772,1772,1777,1777,1777,1777,1777,1777,1782,1782,1788,1788,1788,1788,1793,1793,1793,1793,1798,1798,1798,1793,1793,1788,1782,1782,1782,1782,1777,1777,1777,1772,1762,1762,1757,1747,1747,1742,0,0,0,0,0,0,0,0,0,0,0,0,1100,0,0,0,0,0,0,0,0,0,0,0,0,0,0,1029,1024,1015,1004,997,992,988,981,981,980,980,981,981,983,983,983,981,980,978,975,974,975,975,977,980,981,985,989,992,996,999,1002,1002,1002,1002,999,997,994,992,992,992,991,989,989,989,989,989,989,989,989,991,991,992,994,996,997,997,999,1000,1000,1000,1000,1002,1004,1004,1005,1009,1014,1018,1025,1030,1034,1036,1041,1042,1044,1046,1048,1048,1050,1051,1057,1060,1068,1081,1086,1094,1096,1096,1096,1094,1088,0,1084,1690,1686,1676,1672,1667,1658,1654,1650,1650,1645,1637,1637,1637,1632,1624,1619,1615,1615,1607,1603,1599,1599,1595,1595,1590,1586,1582,1578,1570,1566,1555,1535,1528,1528,1524,1520,1520,1524,1520,1520,1517,1517,1513,1513,1509,1505,1509,1509,1509,1513,1513,1513,1513,1513,1513,1509,1505,1505,1502,1498,1498,1491,1487,1480,1473,1470,1466,1463,1463,1463,1463,1463,1466,1466,1470,1470,1470,1473,1473,1477,1477,1477,1477
1517,1517,1520,1528,1528,1532,1535,1547,1555,1562,1574,1578,1586,1590,1590,1595,1595,1595,1607,1607,1611,1619,1624,1624,1624,1628,1632,1632,1632,1637,1637,1637,1641,1641,1645,1645,1645,1650,1654,1663,1667,1667,1672,1681,1686,1686,1686,1695,1695,1695,1704,1704,1704,1709,1713,1713,1718,1723,1728,1728,1733,1737,1737,1737,1742,1742,1742,1747,1752,1757,1762,1767,1767,1772,1772,1772,1772,1772,1772,1777,1777,1777,1777,1782,1782,1782,1782,1788,1788,1793,1793,1798,1798,1798,1798,1798,1798,1798,1798,1793,1788,1788,1782,1782,1777,1777,1772,1772,1767,1762,1752,1752,1747,1747,1737,1737,0,0,0,0,0,0,0,0,0,1092,1096,1096,1098,1100,0,0,0,0,0,0,0,0,0,0,0,0,1048,1044,1039,1029,1022,1014,1007,1000,992,991,989,989,989,989,989,988,986,985,981,980,977,975,977,977,978,981,983,985,991,994,996,1000,1002,1004,1004,1002,1002,1000,997,996,996,996,994,992,991,991,991,991,991,991,991,992,992,994,996,999,1000,1000,1002,1004,1005,1005,1005,1007,1009,1009,1010,1014,1018,1022,1030,1034,1037,1039,1044,1046,1048,1050,1051,1051,1053,1055,1060,1064,1068,1079,1084,1090,1092,1094,1090,1090,1081,1081,1079,1077,1672,1663,1658,1650,1645,1637,1632,1628,1624,1611,1607,1603,1595,1586,1582,1578,1578,1570,1570,1570,1566,1566,1566,1562,1562,1551,1547,1539,1532,1528,1517,1509,1509,1509,1505,1505,1505,1509,1505,1509,1505,1505,1505,1502,1502,1502,1502,1509,1509,1509,1513,1513,1509,1509,1505,1502,1498,1498,1495,1491,1484,1480,1473,1470,1466,1463,1459,1459,1459,1459,1459,1463,1463,1463,1463,1466,1466,1466,1466,1466,1466,1466
1520,1520,1520,1528,1532,1532,1539,1551,1555,1562,1574,1582,1586,1590,1595,1595,1599,1603,1607,1611,1615,1624,1624,1628,1632,1632,1632,1637,1637,1641,1641,1641,1641,1645,1645,1645,1650,1650,1654,1663,1667,1672,1676,1681,1686,1686,1690,1695,1695,1699,1704,1704,1709,1713,1718,1718,1723,1723,1728,1728,1733,1737,1737,1737,1742,1742,1747,1752,1752,1757,1762,1767,1767,1772,1772,1772,1772,1772,1777,1777,1782,1782,1782,1782,1782,1788,1788,1793,1798,1798,1798,1803,1803,1803,1798,1803,1803,1798,1798,1793,1788,1788,1782,1777,1772,1772,1767,1762,1757,1757,1752,1747,1742,1737,1737,0,0,0,0,0,0,0,0,1088,0,1092,1096,1096,1096,1098,0,0,0,0,0,0,0,0,0,0,0,0,0,1048,1044,1036,1029,0,1014,1009,999,997,994,994,992,992,992,991,989,988,985,981,980,978,978,980,978,981,983,986,991,992,996,999,1002,1004,1002,1004,1004,1002,1000,999,999,997,996,994,992,992,991,991,992,992,992,992,992,996,997,1000,1002,1004,1004,1007,1007,1007,1007,1010,1010,1012,1014,1017,1022,1025,1034,1037,1041,1042,1046,1050,1051,1053,1055,1057,1058,1060,1064,1068,1069,1075,1079,1079,1079,1081,1079,1077,1075,1075,1073,1073,1663,1654,1645,1637,1632,1624,1615,1611,1607,1595,1590,1582,1574,1562,1558,1555,1551,1543,1543,1543,1543,1543,1543,1539,1539,1535,1528,1520,1513,1509,1498,1498,1495,1495,1491,1495,1495,1498,1498,1498,1498,1498,1502,1498,1498,1498,1502,1505,1505,1509,1509,1509,1509,1509,1502,1502,1498,1498,1491,1487,1484,1480,1473,1470,1463,1463,1456,1456,1456,1456,1456,1456,1456,1459,1459,1459,1459,1459,1459,1459,1459,1456
1520,1524,1524,1532,1532,1535,1539,1551,1558,1566,1578,1582,1586,1590,1595,1599,1603,1607,1611,1615,1619,1628,1632,1632,1637,1637,1641,1641,1645,1645,1645,1645,1645,1650,1650,1650,1650,1654,1658,1667,1667,1672,1676,1686,1690,1690,1695,1695,1699,1704,1709,1713,1713,1718,1723,1723,1728,1728,1733,1737,1737,1742,1742,1742,1747,1752,1752,1757,1757,1762,1767,1767,1772,1772,1772,1772,1772,1772,1777,1777,1782,1782,1782,1782,1788,1788,1793,1793,1798,1798,1803,1803,1803,1803,1803,1803,1803,1798,1798,1793,1788,1788,1777,1777,1772,1767,1762,1757,1752,1752,1742,1737,1737,1733,1733,0,0,0,0,0,0,1079,1082,1084,1086,1088,1094,1094,1094,1096,1096,0,0,0,0,0,0,0,0,0,0,1053,1051,1048,1046,1037,1032,1027,1020,1014,1002,999,997,997,996,996,996,994,991,989,988,986,985,981,981,981,981,983,983,985,988,989,992,996,999,1000,1000,1000,1002,1002,1000,1000,1000,1000,997,996,994,992,992,992,992,992,992,992,994,996,999,1002,1005,1007,1009,1010,1010,1010,1009,1010,1012,1014,1015,1022,1027,1032,1041,1044,1048,1051,1057,1057,1058,1058,1060,1062,1064,1066,1068,1068,1071,1073,1075,1073,1073,1073,1071,1071,1069,1068,1068,1066,1066,1641,1632,1628,1619,1607,1599,1595,1590,1578,1570,1562,1551,1547,1535,1532,1528,1524,1517,1513,1513,1517,1513,1513,1513,1517,1509,1502,1498,1495,1487,1487,1484,1484,1484,1487,1491,1491,1491,1495,1495,1495,1495,1495,1498,1498,1498,1502,1505,1505,1509,1505,1505,1505,1502,1498,1495,1495,1491,1487,1484,1480,1473,1466,1466,1463,1456,1453,1453,1449,1449,1449,1449,1449,1449,1449,1449,1446,1446,1442,1439,1436
1524,1528,1528,1532,1535,1539,1543,1555,1558,1566,1578,1582,1590,1595,1599,1603,1603,1615,1615,1624,1628,1637,1641,1645,1645,1650,1650,1650,1650,1654,1654,1654,1654,1654,1658,1658,1658,1663,1663,1672,1676,1681,1686,1690,1695,1695,1699,1704,1704,1709,1713,1718,1723,1723,1728,1728,1733,1733,1737,1742,1742,1747,1747,1752,1752,1757,1757,1762,1762,1767,1767,1772,1772,1772,1772,1772,1772,1772,1772,1772,1777,1782,1782,1782,1788,1788,1793,1793,1798,1803,1803,1803,1803,1803,1803,1803,1803,1798,1798,1793,1788,1782,1777,1772,1767,1762,1752,1747,1747,1742,1737,1733,1728,1728,0,0,0,0,0,0,0,1075,1073,1077,1081,1084,1088,1088,1088,1090,1090,0,0,0,0,0,0,0,0,0,0,1051,1046,1046,1044,1037,1032,1029,1024,1017,1009,1004,1000,1000,997,0,996,994,992,991,989,989,988,988,985,983,983,983,983,985,988,989,991,992,996,999,999,999,1002,1002,1000,1002,1002,1002,1000,997,996,994,994,992,992,992,992,992,994,997,1000,1005,1007,1009,1010,1012,1012,1010,1009,1010,1010,1012,1015,1024,1030,1034,1044,1048,1051,1053,1058,1060,1062,1064,1064,1064,1066,1068,1069,1069,1069,1073,1073,1073,1071,1069,1069,1068,1066,1064,1060,1058,1058,1624,1619,1611,1607,1590,1582,1578,1570,1558,1551,1543,1532,1528,1513,1513,1505,1502,1495,1491,1491,1491,1487,1487,1491,1491,1491,1484,1473,1470,1470,1470,1470,1473,1473,1477,1480,1480,1484,1484,1484,1484,1487,1487,1487,1491,1491,1498,1498,1498,1498,1498,1498,1498,1495,1495,1491,1491,1487,1484,1480,1477,1470,1463,1463,1459,1456,1453,1453,1449,1449,1449,1449,1449,1446,1446,1446,1442,1439,1432,1432,1429
1532,1535,1539,1543,1543,1547,1551,1558,1566,1570,1582,1586,1590,1595,1599,1603,1607,1615,1619,1624,1628,1641,1645,1645,1645,1650,1654,1654,1654,1658,1658,1658,1658,1658,1663,1663,1663,1663,1667,1676,1681,1686,1686,1695,1695,1699,1699,1704,1709,1713,1718,1723,1728,1728,1733,1733,1737,1737,1742,1747,1747,1752,1752,1752,1757,1762,1762,1767,1767,1772,1772,1777,1777,1772,1772,1772,1772,1772,1772,1772,1772,1777,1777,1782,1788,1788,1793,1793,1798,1803,1803,1803,1803,1803,1803,1803,1798,1798,1798,1793,1788,1782,1772,1762,1762,1752,1737,1737,1733,1733,1728,1723,1718,1723,0,0,0,0,0,0,0,1064,1066,1071,1075,1079,1081,1082,1082,1082,1084,0,0,0,0,0,0,0,0,0,0,0,0,1041,1041,1034,1030,1027,1022,1017,1009,1004,1002,1000,999,997,997,996,994,992,991,991,989,991,988,986,985,985,983,983,986,986,989,991,994,996,996,997,1000,1000,1000,1000,1002,1002,1000,997,996,996,994,992,992,992,992,992,994,997,1002,1007,1009,1010,1012,1014,1012,1010,1009,1009,1010,1012,1014,1025,1030,1037,1048,1050,1053,1055,1060,1060,1062,1064,1066,1066,1068,1069,1069,1071,1069,1071,1073,1071,1068,1064,1062,1060,1057,1053,1051,1048,1046,1046,1586,1582,1574,1566,1547,1543,1535,1528,1513,1505,1498,1491,1484,1480,1477,1473,1466,1466,1466,1459,1459,1459,1463,1459,1463,1463,1466,1463,1463,1463,1466,1470,1470,1473,1477,1477,1477,1480,1480,1480,1480,1484,1484,1484,1487,1491,1495,1495,1495,1495,1495,1495,1491,1491,1487,1487,1484,1484,1477,1473,1470,1463,1463,1459,1453,1453,1453,1449,1449,1449,1446,1446,1446,1446,1442,1439,1439,1429,1429,1426
1535,1539,1543,1547,1551,1551,1555,1562,1566,1574,1582,1586,1595,1599,1603,1603,1607,1611,1619,1624,1628,1641,1641,1645,1650,1654,1654,1654,1658,1658,1663,1663,1663,1663,1667,1667,1667,1667,1672,1676,1681,1686,1686,1695,1695,1699,1704,1709,1713,1718,1728,1728,1733,1737,1737,1742,1742,1742,1747,1747,1752,1757,1762,1762,1762,1767,1767,1772,1772,1777,1777,1777,1777,1772,1772,1767,1767,1767,1767,1767,1772,1772,1777,1782,1788,1788,1788,1793,1798,1798,1803,1803,1803,1803,1803,1803,1798,1798,1798,1793,1788,1782,1767,1762,1757,1752,1737,1737,1733,1733,1723,1723,0,0,0,0,0,0,0,0,1053,1057,1060,1068,1071,1073,1075,1075,1077,1077,0,0,0,0,0,0,0,0,0,0,0,1037,1037,1037,1036,1030,1029,1024,1020,1017,1009,1005,1002,1002,999,997,997,996,994,994,992,992,991,992,991,988,986,985,983,983,985,986,988,989,992,996,996,996,1000,1002,1002,1002,1004,1004,1002,999,997,996,994,994,992,992,992,992,994,999,1002,1009,1010,1012,1014,1014,1012,1009,1005,1005,1007,1009,1012,1025,1032,1037,1048,1051,1055,1057,1060,1062,1064,1066,1068,1068,1068,1068,1068,1068,1068,1068,1068,1064,1060,1058,1057,1053,1053,1048,1046,1042,1041,1037,1570,1566,1555,1547,1532,1524,1517,1509,1498,1491,1484,1480,1473,1470,1470,1466,1463,1459,1456,1456,1453,1449,1453,1449,1453,1456,1456,1456,1459,1459,1463,1466,1466,1470,1473,1473,1473,1473,1477,1477,1477,1477,1480,1480,1480,1487,1487,1487,1487,1491,1491,1487,1487,1484,1484,1484,1480,1480,1477,1473,1466,1463,1459,1459,1453,1453,1453,1449,1446,1446,1446,1442,1442,1442,1439,1436,1436,1426,1426,1423
1543,1547,1547,1555,1555,1558,1562,1570,1570,1578,1586,1590,1595,1599,1603,1607,1611,1615,1619,1624,1628,1637,1641,1645,1650,1654,1658,1658,1663,1663,1663,1667,1667,1667,1672,1672,1672,1672,1676,1681,1686,1686,1690,1695,1699,1704,1709,1718,1723,1728,1742,1742,1747,1747,1752,1752,1752,1752,1757,1762,1762,1767,1772,1772,1772,1782,1782,1788,1782,1788,1782,1782,1777,1772,1772,1767,1762,1762,1762,1762,1772,1772,1772,1777,1782,1788,1788,1793,1798,1798,1798,1803,1803,1803,1803,1803,1803,1798,1798,1793,1788,1782,1767,1762,1757,1747,1737,1733,1728,1728,1723,1718,0,0,0,0,0,0,0,0,1044,1050,1051,1060,1064,1068,1069,1069,1071,1071,1071,0,0,0,0,0,0,0,0,0,0,0,1032,1032,1030,1027,1025,1020,1018,1015,1007,1005,1002,1002,999,997,997,996,994,994,994,992,992,994,992,989,989,986,983,983,983,985,986,988,991,992,994,994,1000,999,1000,1000,1002,1004,1004,999,997,996,996,994,992,992,992,992,996,999,1004,1009,1010,1012,1012,1012,1010,1007,1004,1004,1004,1005,1009,1020,1029,1034,1044,1050,1055,1057,1062,1062,1064,1064,1066,1066,1066,1066,1066,1066,1064,1064,1064,1060,1058,1053,1051,1050,1046,1042,1039,1037,1036,1032,1555,1543,1539,1532,1517,1509,1505,1498,1487,1480,1477,1473,1466,1466,1463,1463,1459,1456,1456,1449,1446,1446,1446,1446,1449,1449,1449,1453,1456,1456,1459,1463,1463,1466,1470,1470,1470,1470,1473,1473,1473,1473,1473,1477,1477,1480,1480,1484,1484,1484,1484,1484,1484,1480,1480,1480,1477,1473,1470,1470,1463,1459,1456,1453,1453,1449,1446,1446,1446,1442,1442,1439,1439,1436,1436,1432,1429,1423,1419,1416
1547,1551,1555,1558,1566,1570,1570,1578,1582,1586,1590,1595,1599,1603,1603,1607,1611,1615,1619,1624,1628,1637,1641,1645,1650,1658,1663,1663,1667,1672,1672,1672,1676,1676,1681,1681,1681,1681,1686,1686,1690,1690,1695,1699,1704,1709,1713,1723,1728,1733,1747,1747,1752,1752,1757,1757,1757,1757,1762,1762,1767,1772,1772,1777,1782,1788,1788,1793,1793,1788,1788,1788,1782,1772,1772,1767,1762,1762,1762,1762,1772,1772,1772,1777,1782,1788,1788,1788,1793,1798,1798,1798,1798,1798,1798,1803,1803,1803,1798,1798,1788,1782,1767,1762,1757,1747,1733,1728,1728,1728,1723,0,0,0,0,0,0,0,0,1027,1032,1034,1039,1048,1051,1053,1053,1055,1057,1057,1062,1062,0,0,0,0,0,0,0,0,0,0,1017,1017,1017,1015,1012,1010,1007,1004,999,997,996,996,994,994,994,994,994,994,994,994,996,996,992,989,988,985,983,981,981,983,986,986,989,991,991,992,997,997,999,997,1000,1000,1000,996,996,994,994,992,992,992,992,992,996,997,1002,1007,1009,1009,1009,1009,1005,1002,999,999,999,1000,1002,1014,1022,1029,1041,1046,1051,1055,1060,1060,1062,1064,1064,1064,1064,1062,1062,1062,1062,1060,1058,1057,1053,1050,1046,1044,1041,1037,1036,1032,1029,1029,1027,1532,1528,1520,1505,1498,1495,1487,1480,1473,1470,1470,1466,1463,1463,1459,1456,1453,1449,1446,1446,1442,1439,1439,1439,1442,1446,1449,1453,1456,1459,1463,1459,1463,1463,1466,1463,1463,1466,1466,1466,1466,1466,1466,1466,1470,1470,1473,1473,1473,1477,1477,1477,1477,1477,1477,1473,1470,1470,1466,1459,1459,1456,1453,1453,1449,1446,1446,1446,1442,1442,1439,1439,1436,1432,1432,1429,1419,1419,1416
1558,1558,1562,1570,1570,1574,1578,1582,1586,1590,1595,1599,1599,1603,1607,1611,1615,1615,1624,1624,1628,1637,1641,1645,1654,1658,1663,1667,1672,1672,1676,1676,1681,1681,1681,1681,1686,1686,1686,1690,1690,1695,1695,1699,1704,1709,1713,1728,1733,1737,1747,1752,1752,1757,1757,1757,1762,1762,1762,1767,1772,1777,1777,1782,1788,1793,1793,1798,1793,1793,1793,1788,1782,1777,1772,1772,1762,1762,1762,1762,1767,1772,1772,1777,1782,1782,1782,1788,1788,1793,1793,1798,1798,1798,1798,1798,1803,1803,1803,1798,1788,1782,1767,1762,1752,1747,1733,1728,1728,1723,1723,0,0,0,0,0,0,0,0,1020,1027,1030,1034,1042,1046,1046,1046,1050,1048,1048,1048,0,0,0,0,0,0,0,0,0,0,1014,1014,1014,1012,1010,1007,1004,1002,1000,996,994,994,994,992,992,992,992,994,994,996,996,996,996,994,989,988,985,981,981,980,981,983,983,986,988,989,989,994,996,996,996,997,999,997,994,994,994,994,992,992,992,992,992,996,997,1000,1005,1007,1007,1007,1005,1004,1000,997,996,996,997,1000,1010,1017,1025,1037,1044,1048,1053,1058,1060,1062,1064,1062,1062,1064,1060,1060,1060,1058,1058,1053,1051,1050,1044,1041,1037,1036,1029,1027,1024,1024,1020,1018,1018,1505,1502,1487,1484,1480,1480,1473,1470,1470,1470,1466,1463,1463,1459,1456,1453,1449,1446,1442,1439,1439,1436,1439,1439,1446,1449,1449,1456,1459,1463,1459,1463,1463,1463,1463,1463,1463,1463,1463,1463,1463,1466,1466,1466,1466,1470,1470,1470,1473,1473,1473,1477,1477,1477,1477,1477,1473,1470,1463,1463,1459,1456,1453,1449,1449,1446,1446,1442,1442,1439,1439,1436,1432,1432,1429,1423,1419,1416
1562,1566,1566,1574,1574,1578,1578,1586,1590,1590,1595,1599,1603,1607,1611,1615,1615,1619,1624,1628,1628,1641,1641,1650,1654,1658,1663,1667,1672,1676,1676,1676,1681,1681,1681,1681,1686,1686,1686,1690,1690,1695,1695,1699,1704,1709,1718,1728,1733,1742,1752,1757,1757,1757,1762,1762,1762,1762,1772,1772,1772,1782,1782,1782,1788,1793,1798,1798,1798,1798,1793,1793,1782,1777,1772,1772,1767,1762,1762,1762,1772,1772,1777,1777,1777,1782,1782,1788,1788,1793,1793,1798,1798,1798,1798,1798,1803,1803,1803,1798,1793,1782,1772,1762,1752,1747,1733,1728,1728,1728,0,0,0,0,0,0,0,0,0,1017,1024,1027,1032,1039,1041,1042,1042,1044,1044,1044,1044,0,0,0,0,0,0,0,0,0,0,0,1010,1010,1009,1007,1004,1002,1000,999,996,994,994,994,994,994,994,994,994,996,996,996,996,996,996,991,988,986,983,981,981,981,983,983,986,988,988,988,992,992,994,994,996,997,997,994,994,992,992,992,992,992,992,994,996,999,1000,1004,1004,1004,1004,1002,1000,999,996,994,994,994,996,1002,1010,1015,1022,1036,1041,1046,1055,1057,1058,1058,1058,1058,1058,1057,1057,1057,1057,1055,1051,1051,1048,1042,1039,1036,1032,1025,1022,1020,1018,1015,1014,1014,1014,1491,1484,1480,1477,1473,1473,1470,1470,1466,1466,1466,1463,1459,1456,1453,1449,1446,1446,1439,1439,1436,1436,1439,1442,1446,1449,1453,1456,1456,1459,1459,1463,1463,1463,1463,1463,1463,1463,1463,1463,1463,1463,1466,1466,1466,1466,1470,1470,1473,1473,1477,1480,1480,1480,1480,1477,1473,1470,1463,1463,1459,1453,1453,1449,1449,1446,1442,1442,1442,1439,1436,1432,1432,1429,1423,1423,1419
1566,1566,1570,1574,1578,1582,1586,1590,1590,1590,1599,1603,1603,1607,1611,1615,1619,1619,1624,1628,1632,1641,1645,1650,1654,1663,1667,1672,1672,1676,1676,1681,1681,1681,1681,1686,1686,1686,1686,1686,1690,1695,1695,1704,1709,1713,1723,1733,1737,1742,1757,1762,1762,1767,1767,1772,1772,1772,1772,1777,1777,1782,1782,1788,1793,1798,1798,1798,1798,1798,1793,1793,1788,1782,1777,1772,1767,1767,1767,1767,1772,1772,1777,1777,1782,1782,1782,1788,1788,1793,1793,1798,1798,1803,1803,1803,1803,1803,1803,1798,1793,1788,1772,1767,1762,1752,1733,1728,1728,0,0,0,0,0,0,0,0,0,0,1012,1018,1024,1027,1034,1036,1036,1036,1036,1037,1036,1036,0,0,0,0,0,0,0,0,0,0,1007,1007,1005,1005,1004,1000,999,997,996,994,991,991,992,992,992,992,994,994,994,994,994,992,992,991,989,986,986,983,983,981,981,981,983,983,986,986,986,989,991,991,991,992,992,991,989,989,989,989,991,991,992,992,994,996,997,999,1000,1000,1000,1000,999,997,996,992,992,992,992,992,997,1002,1007,1014,1025,1032,1037,1046,1051,1053,1055,1057,1057,1055,1053,1053,1053,1053,1050,1048,1046,1042,1036,1032,1029,1027,1020,1018,1015,1015,1014,1010,1009,1007,1007,1477,1473,1473,1470,1470,1466,1466,1466,1463,1463,1459,1459,1456,1453,1449,1446,1446,1442,1439,1436,1436,1439,1442,1446,1446,1453,1453,1456,1456,1459,1459,1459,1459,1463,1463,1463,1463,1463,1463,1463,1463,1463,1466,1466,1470,1470,1473,1477,1480,1484,1484,1487,1487,1487,1484,1480,1473,1470,1466,1463,1456,1453,1453,1449,1449,1446,1442,1442,1442,1439,1436,1436,1432,1426,1426,1423
1570,1574,1574,1582,1582,1586,1586,1590,1595,1595,1599,1603,1607,1607,1615,1619,1619,1624,1632,1641,1641,1650,1654,1658,1663,1667,1672,1672,1676,1681,1681,1681,1681,1686,1686,1681,1686,1681,1681,1681,1690,1695,1699,1704,1709,1718,1723,1733,1742,1747,1757,1762,1767,1767,1772,1772,1772,1777,1777,1782,1782,1782,1788,1788,1793,1793,1798,1798,1793,1793,1793,1793,1788,1782,1777,1777,1772,1767,1767,1767,1772,1777,1777,1777,1782,1782,1782,1788,1788,1793,1793,1798,1803,1803,1803,1803,1803,1803,1803,1803,1793,1788,1777,1772,1762,1752,1737,1737,1737,0,0,0,0,0,0,0,0,0,997,1000,1009,1014,1017,1022,1025,1024,1024,1025,1024,1025,1024,1024,0,0,0,0,0,0,0,0,0,1004,1000,1000,1000,999,996,994,992,992,991,989,991,991,991,992,992,992,992,992,992,992,991,989,989,988,986,983,983,983,981,981,980,981,981,983,983,983,986,988,988,986,988,988,988,986,986,988,988,989,991,991,992,992,994,996,997,999,999,999,997,997,996,994,992,991,991,989,991,994,997,1000,1005,1017,1022,1029,1041,1046,1050,1051,1053,1053,1053,1051,1051,1050,1050,1046,1046,1042,1041,1034,1029,1025,1022,1017,1014,1012,1010,1010,1007,1004,1004,1002,1470,1470,1470,1466,1463,1463,1463,1463,1463,1463,1459,1459,1459,1453,1453,1449,1446,1442,1439,1439,1439,1439,1442,1442,1446,1446,1449,1453,1453,1456,1456,1456,1459,1459,1459,1459,1463,1463,1463,1463,1463,1463,1466,1466,1470,1473,1477,1480,1484,1487,1491,1491,1491,1491,1487,1484,1480,1477,1470,1470,1459,1456,1456,1453,1453,1449,1449,1449,1446,1442,1442,1439,1436,1429,1426,1426
1570,1574,1574,1582,1586,1586,1590,1590,1595,1595,1599,1603,1607,1611,1615,1619,1624,1628,1637,1641,1645,1654,1658,1663,1667,1672,1672,1676,1681,1681,1681,1681,1681,1686,1681,1681,1681,1681,1681,1681,1690,1695,1699,1709,1713,1718,1728,1737,1742,1747,1757,1762,1767,1767,1772,1772,1777,1777,1782,1782,1782,1788,1788,1793,1793,1793,1798,1798,1793,1793,1793,1793,1788,1782,1782,1777,1772,1772,1772,1772,1772,1777,1777,1782,1782,1788,1788,1788,1793,1793,1798,1798,1803,1803,1808,1808,1808,1808,1803,1803,1793,1793,1782,1772,1767,1757,1742,1747,0,0,0,0,0,0,0,0,0,988,992,997,1004,1009,1014,1017,1018,1018,1018,1018,1018,1018,1018,0,0,0,0,0,0,0,0,0,0,0,997,997,997,996,992,992,991,989,988,988,988,989,989,991,991,992,992,991,991,989,988,986,986,985,983,983,981,980,980,980,981,981,981,983,983,983,983,983,983,983,983,983,983,983,985,985,986,988,989,991,991,992,994,994,996,996,996,996,996,994,992,991,991,989,988,988,988,989,992,997,1000,1010,1015,1022,1027,1036,1041,1042,1046,1046,1046,1044,1046,1041,1039,1036,1036,1032,1029,1024,1020,1017,1014,1012,1007,1005,1004,1002,1000,997,996,994,994,1459,1456,1456,1456,1456,1456,1456,1456,1456,1456,1456,1456,1453,1453,1453,1449,1446,1442,1442,1442,1442,1442,1442,1446,1446,1449,1449,1453,1456,1456,1456,1459,1463,1463,1463,1463,1466,1466,1466,1470,1470,1470,1473,1477,1480,1484,1487,1491,1495,1498,1498,1502,1498,1498,1491,1480,1477,1473,1470,1459,1456,1456,1453,1453,1453,1449,1449,1449,1446,1442,1442,1439,1432,1432,1429
1574,1574,1578,1586,1586,1586,1590,1595,1595,1599,1599,1603,1607,1611,1615,1619,1624,1628,1641,1645,1650,1658,1663,1667,1672,1672,1676,1676,1681,1681,1681,1681,1686,1681,1681,1681,1676,1676,1676,1676,1686,1695,1699,1709,1718,1723,1728,1737,1742,1747,1757,1762,1767,1767,1777,1777,1782,1782,1782,1782,1788,1788,1788,1788,1793,1793,1793,1793,1793,1793,1793,1793,1788,1782,1782,1782,1777,1777,1777,1777,1782,1782,1788,1788,1788,1793,1793,1793,1798,1798,1803,1808,1808,1808,1814,1814,1814,1814,1808,1808,1798,1798,1788,1782,1777,1772,1757,0,0,0,0,0,0,0,0,0,0,985,988,991,999,1005,1009,1012,1012,1012,1012,1014,1014,1014,1012,0,0,0,0,0,0,0,0,0,0,0,994,994,994,992,991,989,989,988,988,988,988,988,989,991,991,991,991,991,989,988,986,985,983,983,981,981,980,980,980,980,980,980,980,981,981,981,983,983,981,981,981,981,981,981,980,980,981,983,986,988,989,991,991,992,992,992,992,992,991,989,989,988,986,985,985,983,983,983,986,989,991,999,1002,1009,1014,1027,1022,1027,1029,1030,1032,1032,1034,1034,1034,1030,1030,1027,1024,1018,1015,1014,1010,1009,1004,1000,999,997,994,992,991,989,986,1449,1449,1449,1449,1449,1449,1449,1453,1456,1456,1456,1456,1453,1453,1453,1449,1449,1446,1446,1442,1442,1442,1442,1446,1446,1449,1449,1453,1453,1456,1456,1459,1459,1463,1466,1466,1470,1470,1470,1470,1473,1473,1477,1477,1484,1487,1487,1491,1495,1498,1498,1502,1498,1498,1491,1480,1477,1473,1470,1459,1456,1456,1453,1453,1453,1449,1449,1449,1446,1446,1442,1439,1436,1432,1429
1570,1574,1578,1582,1586,1590,1590,1595,1595,1599,1599,1603,1607,1611,1615,1619,1624,1632,1641,1645,1650,1663,1667,1667,1672,1676,1676,1681,1686,1686,1686,1686,1686,1686,1681,1681,1681,1681,1676,1681,1690,1695,1704,1718,1728,1733,1737,1742,1747,1752,1757,1762,1767,1772,1777,1777,1782,1788,1788,1788,1788,1788,1788,1793,1793,1793,1793,1793,1788,1793,1793,1788,1788,1782,1782,1782,1777,1777,1777,1777,1782,1788,1788,1793,1793,1798,1798,1803,1803,1808,1808,1814,1814,1814,1814,1819,1819,1814,1808,1808,1803,1798,1788,1782,1782,1777,1757,0,0,0,0,0,0,0,0,0,972,978,983,986,989,999,1002,1005,1007,1007,1007,1007,1007,1005,1005,1007,0,0,0,0,0,0,0,0,0,991,991,991,989,989,988,981,981,981,981,981,983,985,986,988,988,988,985,983,981,980,977,975,974,974,972,972,972,974,972,972,972,972,972,972,972,972,974,974,974,974,974,974,974,974,975,977,978,980,983,985,985,986,988,989,989,989,989,989,989,988,986,985,983,981,980,980,978,980,981,983,986,992,996,1000,1005,1010,0,1014,1018,1020,1024,1025,1027,1029,1029,1025,1024,0,1018,1017,1012,1009,1007,1005,999,997,996,994,989,986,985,983,978,978,1436,1439,1439,1442,1442,1442,1446,1449,1456,1456,1456,1456,1456,1453,1453,1449,1449,1446,1446,1446,1442,1446,1446,1446,1449,1449,1449,1449,1453,1456,1456,1463,1466,1466,1470,1473,1473,1473,1473,1477,1477,1480,1480,1487,1487,1487,1491,1495,1498,1498,1498,1498,1491,1487,1477,1473,1470,1466,1459,1456,1456,1453,1453,1453,1453,1449,1449,1446,1446,1442,1439,1436,1432,1432
1574,1574,1578,1586,1586,1590,1590,1595,1599,1599,1603,1607,1607,1611,1615,1619,1628,1632,1641,1645,1650,1663,1667,1672,1672,1676,1681,1681,1686,1686,1686,1686,1686,1686,1686,1681,1681,1681,1681,1686,1695,1699,1709,1723,1733,1737,1742,1747,1752,1752,1762,1762,1767,1772,1782,1782,1788,1788,1788,1788,1793,1793,1793,1793,1793,1793,1793,1788,1788,1793,1793,1788,1788,1782,1782,1782,1782,1777,1777,1782,1788,1788,1793,1793,1798,1803,1803,1808,1814,1814,1814,1819,1824,1824,1824,1824,1824,1819,1814,1808,1808,1803,1793,1788,1782,1782,1772,0,0,0,0,0,0,0,0,0,957,963,968,972,974,983,985,986,989,989,991,992,992,992,992,0,0,0,0,0,0,0,0,0,0,978,978,978,978,978,977,975,975,977,977,977,980,981,981,983,983,983,980,978,977,974,971,969,969,968,968,968,968,968,968,968,0,0,0,0,0,0,0,0,969,969,969,971,971,969,971,972,972,974,977,978,980,981,981,983,985,985,986,986,985,983,981,980,978,977,975,974,974,974,975,977,980,983,988,992,996,1000,1002,1004,1007,1010,1014,1017,1018,1024,1024,1022,1018,1015,1012,1009,1004,1004,1002,1000,994,992,989,988,983,980,978,977,972,971,1423,1426,1426,1429,1432,1432,1439,1446,1453,1453,1456,1456,1456,1456,1456,1453,1453,1449,1449,1449,1446,1446,1446,1446,1449,1449,1449,1449,1453,1456,1456,1463,1466,1470,1473,1473,1477,1477,1477,1477,1480,1480,1480,1484,1487,1487,1487,1491,1491,1491,1491,1487,1487,1480,1473,1470,1463,1463,1459,1453,1453,1453,1449,1449,1449,1449,1449,1449,1446,1446,1439,1436,1432,1429
1570,1574,1578,1586,1586,1590,1590,1595,1599,1599,1603,1607,1611,1611,1619,1619,1628,1632,1641,1645,1650,1663,1667,1667,1672,1681,1681,1681,1686,1686,1686,1690,1690,1686,1686,1686,1686,1686,1686,1690,1699,1709,1713,1728,1737,1742,1747,1752,1752,1757,1762,1762,1767,1772,1782,1782,1788,1788,1788,1793,1793,1793,1793,1793,1793,1793,1793,1793,1793,1793,1793,1793,1788,1788,1782,1782,1782,1782,1782,1782,1788,1788,1793,1798,1803,1808,1808,1808,1819,1819,1824,1824,1830,1830,1830,1830,1824,1824,1819,1814,1808,1808,1798,1798,1793,1793,0,0,0,0,0,0,0,0,0,0,951,954,959,965,968,972,974,977,978,981,981,983,986,986,985,986,0,0,0,0,0,0,0,0,0,972,972,972,971,971,971,971,971,971,972,974,975,977,978,978,978,978,975,972,971,969,966,965,963,963,963,963,963,963,963,962,963,0,0,0,0,0,0,0,965,965,965,966,966,966,966,966,968,969,972,972,974,975,977,978,980,981,983,983,981,980,978,975,974,971,971,969,969,969,971,972,974,975,980,985,986,989,991,992,992,997,989,992,997,1005,1007,1007,1004,1000,999,996,989,988,988,986,981,978,977,975,971,969,968,966,965,957,957,1410,1397,1403,1410,1413,1423,1432,1453,1456,1456,1459,1459,1466,1466,1466,1466,1466,1466,1463,1463,1459,1459,1456,1456,1456,1456,1456,1456,1459,1459,1466,1470,1473,1473,1477,1480,1480,1480,1484,1484,1487,1487,1487,1491,1487,1491,1491,1491,1487,1487,1484,1480,1477,1470,1466,1463,1459,1456,1453,1453,1449,1449,1446,1449,1449,1449,1446,1446,1442,1439,1436,1432,1429
1570,1574,1574,1582,1586,1590,1590,1595,1599,1599,1603,1607,1611,1611,1619,1619,1624,1632,1637,1645,1650,1658,1663,1667,1672,1676,1681,1681,1681,1686,1686,1690,1690,1690,1690,1686,1686,1686,1690,1695,1704,1713,1718,1737,1742,1747,1752,1752,1757,1757,1757,1762,1767,1767,1777,1782,1788,1788,1788,1793,1793,1793,1793,1793,1793,1793,1793,1793,1793,1793,1793,1793,1793,1793,1788,1788,1788,1788,1788,1788,1793,1798,1803,1803,1814,1819,1819,1824,1830,1830,1835,1835,1841,1841,1841,1835,1835,1830,1819,1819,1814,1808,1803,1803,1798,0,0,0,0,0,0,0,0,0,0,946,948,951,954,959,962,966,969,969,971,974,975,977,978,980,981,981,983,0,0,0,0,0,0,0,0,968,968,968,968,966,966,966,966,968,969,971,974,974,975,975,975,974,971,969,966,965,963,960,959,959,959,959,959,959,959,959,959,957,956,954,954,956,957,960,960,962,960,960,960,960,960,960,960,962,962,963,965,966,966,971,977,975,978,978,977,975,972,969,968,965,963,963,962,962,963,963,965,968,971,971,974,974,974,974,974,975,978,0,986,994,996,997,994,994,991,989,983,983,981,981,977,974,972,971,968,963,962,960,959,953,950,948,1381,1388,1400,1406,1416,1426,1453,1459,1463,1463,1470,1470,1473,1473,1477,1477,1477,1473,1470,1470,1466,1463,1463,1463,1459,1456,1459,1459,1463,1466,1470,1473,1477,1480,1480,1480,1484,1484,1487,1487,1491,1491,1491,1487,1491,1487,1487,1484,1484,1480,1477,1473,1466,1463,1459,1456,1453,1449,1449,1446,1446,1446,1446,1446,1446,1446,1442,1442,1439,1432,1432,1432
1566,1570,1574,1582,1582,1586,1590,1595,1599,1603,1603,1607,1611,1611,1619,1624,1628,1632,1637,1641,1645,1654,1658,1663,1667,1676,1676,1681,1681,1686,1686,1686,1690,1690,1695,1695,1695,1699,1699,1704,1718,1728,1737,1752,1757,1757,1762,1762,1757,1757,1762,1762,1762,1767,1777,1777,1782,1788,1788,1793,1793,1793,1798,1793,1793,1793,1793,1793,1793,1793,1793,1793,1793,1793,1793,1788,1788,1793,1793,1793,1798,1798,1803,1808,1819,1819,1824,1830,1835,1835,1841,1841,1846,1846,1841,1841,1835,1835,1824,1824,1814,1814,1808,1808,0,0,0,0,0,0,0,0,0,0,0,941,944,947,951,956,957,962,963,966,968,971,971,972,975,977,978,978,0,0,0,0,0,0,0,0,0,960,960,960,960,957,959,959,960,962,963,965,968,969,969,969,968,966,965,962,960,959,957,954,954,953,953,953,953,953,953,951,953,953,951,950,950,951,953,956,956,956,957,957,957,957,957,957,957,957,957,959,960,960,962,966,0,972,975,977,974,974,969,966,965,962,960,959,959,959,959,960,962,963,966,968,969,969,969,968,966,966,968,969,0,0,0,0,985,983,980,978,975,975,975,0,972,968,968,965,963,957,956,954,953,946,944,941,940,1375,1385,1400,1413,1426,1453,1459,1463,1466,1477,1477,1480,1484,1484,1484,1484,1484,1480,1480,1473,1470,1466,1466,1463,1459,1459,1463,1463,1466,1470,1470,1473,1477,1480,1484,1484,1487,1487,1491,1491,1491,1491,1491,1491,1487,1484,1484,1480,1480,1477,1473,1463,1463,1456,1456,1453,1449,1446,1446,1446,1446,1446,1446,1446,1442,1442,1439,1439,1436,1432,1432
1566,1570,1570,1578,1582,1586,1586,1595,1599,1599,1603,1611,1611,1615,1624,1624,1628,1632,1637,1641,1645,1654,1658,1663,1667,1672,1676,1676,1681,1686,1686,1686,1690,1695,1695,1695,1699,1704,1704,1709,1723,1733,1742,1757,1762,1762,1762,1762,1762,1762,1762,1762,1762,1767,1777,1782,1788,1788,1793,1793,1793,1798,1798,1798,1793,1793,1793,1793,1793,1793,1793,1793,1793,1793,1793,1793,1788,1793,1793,1793,1798,1803,1808,1808,1819,1819,1824,1830,1835,1841,1841,1846,1846,1846,1841,1841,1841,1835,1824,1819,1814,1814,1803,0,0,0,0,0,0,0,0,0,0,0,937,936,937,940,946,948,950,951,956,959,960,963,963,966,968,971,972,974,0,0,0,0,0,0,0,0,0,957,957,956,956,956,954,956,959,960,962,963,966,966,966,965,963,963,962,959,957,956,954,953,951,951,950,950,950,950,950,950,950,950,950,950,950,950,951,954,954,956,956,956,956,954,954,953,953,954,954,954,956,956,956,962,0,969,972,974,972,971,968,965,962,959,957,956,954,954,956,957,959,960,963,965,966,966,965,963,963,962,962,963,966,968,0,0,0,0,0,968,0,966,0,969,966,963,962,959,956,951,950,947,944,938,937,936,934,933,1375,1397,1410,1423,1453,1459,1466,1470,1477,1484,1484,1491,1491,1491,1491,1491,1491,1487,1480,1477,1473,1470,1463,1463,1463,1463,1463,1466,1466,1470,1470,1473,1477,1480,1480,1487,1491,1491,1495,1495,1495,1495,1491,1491,1487,1484,1484,1484,1480,1477,1473,1470,1466,1463,1459,1456,1453,1453,1449,1449,1446,1446,1446,1442,1442,1439,1436,1436,1432,1432
1566,1566,1570,1578,1582,1582,1586,1590,1599,1599,1603,1611,1611,1619,1624,1624,1628,1632,1637,1641,1645,1654,1658,1663,1663,1672,1676,1676,1681,1681,1686,1686,1690,1695,1695,1699,1704,1704,1709,1713,1723,1733,1742,1757,1762,1767,1767,1767,1762,1762,1762,1762,1762,1767,1772,1777,1782,1788,1793,1793,1793,1793,1798,1793,1793,1793,1793,1793,1793,1793,1793,1793,1793,1798,1798,1798,1793,1793,1793,1798,1803,1803,1808,1814,1819,1824,1824,1830,1835,1841,1841,1841,1846,1846,1841,1835,1835,1830,1824,1819,1814,1814,1803,1803,0,0,0,0,0,0,0,0,0,0,0,931,933,937,943,946,947,948,953,954,956,959,960,963,965,969,968,971,0,0,0,0,0,0,0,0,953,953,953,951,951,951,951,951,956,957,959,960,962,963,963,962,960,959,957,954,954,953,951,950,948,948,948,947,947,947,947,947,947,948,948,948,950,950,951,953,954,954,954,954,953,951,950,950,950,950,950,950,951,951,951,957,0,965,971,972,971,969,965,962,959,957,954,953,951,951,951,953,954,956,959,960,962,962,959,957,956,953,953,953,953,951,0,0,0,944,943,944,956,948,951,953,953,953,953,951,947,940,937,936,934,931,927,927,924,924,923,1394,1406,1419,1449,1456,1466,1470,1480,1487,1491,1498,1502,1502,1505,1502,1502,1498,1491,1487,1484,1477,1470,1470,1466,1466,1466,1466,1466,1470,1470,1473,1473,1477,1480,1487,1491,1495,1498,1502,1502,1502,1502,1498,1495,1495,1491,1487,1487,1484,1477,1473,1470,1466,1463,1459,1456,1453,1449,1449,1446,1446,1446,1442,1439,1436,1432,1432,1432,1432
1566,1566,1570,1574,1578,1582,1586,1590,1595,1599,1603,1611,1611,1619,1624,1628,1632,1632,1641,1641,1645,1650,1654,1658,1663,1667,1672,1672,1676,1681,1681,1686,1690,1690,1695,1695,1699,1704,1709,1713,1728,1733,1742,1752,1762,1762,1762,1762,1762,1762,1762,1762,1762,1762,1772,1777,1782,1782,1788,1793,1793,1793,1793,1793,1793,1793,1793,1793,1793,1793,1793,1798,1798,1798,1798,1798,1798,1798,1803,1803,1808,1814,1814,1819,1824,1824,1824,1830,1835,1835,1841,1841,1841,1841,1835,1835,1835,1830,1824,1819,1814,1808,1803,0,0,0,0,0,0,0,0,0,0,0,927,929,931,933,940,943,944,946,948,950,951,956,956,960,962,965,965,966,0,0,0,0,0,0,0,0,0,950,950,950,950,950,950,950,953,956,957,957,960,960,960,959,957,956,956,953,951,951,950,948,948,947,947,946,946,946,946,946,946,946,946,947,948,950,951,953,953,954,954,953,953,950,948,947,946,946,946,946,946,947,947,953,0,962,965,969,968,968,963,960,957,954,951,950,948,948,948,948,950,951,954,956,957,957,957,956,954,951,953,951,950,946,0,0,0,933,930,931,0,934,943,946,946,947,948,947,944,937,934,931,929,927,924,924,922,920,919,1394,1406,1419,1446,1453,1463,1470,1480,1487,1491,1498,1505,1505,1509,1505,1505,1502,1495,1491,1484,1480,1473,1470,1466,1466,1466,1463,1466,1466,1466,1470,1470,1473,1477,1487,1491,1495,1498,1505,1509,1505,1505,1502,1502,1502,1498,1495,1491,1487,1480,1477,1477,1473,1470,1463,1459,1456,1453,1449,1446,1446,1442,1439,1436,1432,1429,1429,1429,1429
