# .PCD v0.7 - Point Cloud Data file format
VERSION 0.7
FIELDS x y z
SIZE 4 4 4
TYPE F F F
COUNT 1 1 1
WIDTH 1662
HEIGHT 1
VIEWPOINT 0 0 0 1 0 0 0
POINTS 1662
DATA ascii
1049.993895 751.0362007 1495
1059.847941 752.5432968 1498
1070.445697 754.5527582 1502
1083.238381 758.0693156 1509
1093.934397 760.078777 1513
1104.671785 762.0882384 1517
1114.71718 763.5953345 1520
1125.532142 765.6047959 1524
1139.363316 769.6237187 1532
1147.286185 769.6237187 1532
1157.471213 771.1308148 1535
1165.409596 771.1308148 1535
1176.405564 773.1402762 1539
1184.364634 773.1402762 1539
1186.900529 769.6237187 1532
1191.703754 767.6142573 1528
1199.605937 767.6142573 1528
1204.347103 765.6047959 1524
1209.046897 763.5953345 1520
1214.505915 762.0882384 1517
1222.35121 762.0882384 1517
1226.952744 760.078777 1513
1234.777352 760.078777 1513
1245.887095 762.0882384 1517
398.9493363 613.6121568 1209
415.9267268 629.8533388 1241
523.0860277 746.0792974 1470
531.7712954 747.6019082 1473
539.3890407 747.6019082 1473
547.0067859 747.6019082 1473
554.6245311 747.6019082 1473
562.2422763 747.6019082 1473
569.8600216 747.6019082 1473
579.0459345 749.6320559 1477
587.8760066 751.1546667 1480
597.1394934 753.1848145 1484
607.6670228 756.7375731 1491
619.9178676 762.3204794 1502
628.9392884 763.8430902 1505
640.1070959 767.9033857 1513
650.9294058 771.4561442 1520
660.523874 773.486292 1524
668.40537 773.486292 1524
676.2868661 773.486292 1524
684.1683622 773.486292 1524
692.0498583 773.486292 1524
699.9313543 773.486292 1524
705.9550739 771.4561442 1520
713.8158836 771.4561442 1520
723.5758426 773.486292 1524
731.4573386 773.486292 1524
743.2198785 777.5465875 1532
754.5748616 781.099346 1539
766.4977206 785.1596415 1547
774.4981631 785.1596415 1547
784.5218729 787.1897893 1551
794.5869554 789.219937 1555
802.6287706 789.219937 1555
808.5852595 787.1897893 1551
814.5003758 785.1596415 1547
822.5008184 785.1596415 1547
828.3538756 783.1294938 1543
834.1655602 781.099346 1539
838.2943036 777.5465875 1532
844.007728 775.5164397 1528
851.9099104 775.5164397 1528
859.8120929 775.5164397 1528
867.7142753 775.5164397 1528
875.6164577 775.5164397 1528
883.5186401 775.5164397 1528
893.7543849 777.5465875 1532
903.4429402 779.0691983 1535
911.3813237 779.0691983 1535
919.3197072 779.0691983 1535
925.4458599 777.5465875 1532
933.3687287 777.5465875 1532
941.2915974 777.5465875 1532
946.7360995 775.5164397 1528
952.1392288 773.486292 1524
955.6111808 769.9335334 1517
963.4564758 769.9335334 1517
968.7406587 767.9033857 1513
976.5652673 767.9033857 1513
979.1849064 763.8430902 1505
985.0007639 762.3204794 1502
992.7684851 762.3204794 1502
995.8732547 758.7677208 1495
1000.919545 756.7375731 1491
1005.924462 754.7074253 1487
1011.569657 753.1848145 1484
1019.24429 753.1848145 1484
1026.918922 753.1848145 1484
1036.685052 754.7074253 1487
1044.375199 754.7074253 1487
1054.895381 756.7375731 1491
1065.456936 758.7677208 1495
1078.213418 762.3204794 1502
1091.042303 765.8732379 1509
1098.846226 765.8732379 1509
1112.51708 769.9335334 1517
1125.532142 773.486292 1524
1139.363316 777.5465875 1532
1147.286185 777.5465875 1532
1157.471213 779.0691983 1535
1168.446494 781.099346 1539
1176.405564 781.099346 1539
1184.364634 781.099346 1539
1192.323704 781.099346 1539
1197.16313 779.0691983 1535
1202.746266 777.5465875 1532
1210.669135 777.5465875 1532
1215.410302 775.5164397 1528
1220.110095 773.486292 1524
1224.768516 771.4561442 1520
1232.629326 771.4561442 1520
1240.490136 771.4561442 1520
1251.63608 773.486292 1524
399.6093021 620.8900206 1211
416.5970358 637.2966933 1243
464.6943587 689.5929626 1345
486.7289188 711.639429 1388
524.1535502 755.2196534 1473
533.2153451 757.2704875 1477
540.8537767 757.2704875 1477
548.4922083 757.2704875 1477
556.1306398 757.2704875 1477
563.7690714 757.2704875 1477
571.4075029 757.2704875 1477
580.2220603 758.8086131 1480
589.4648607 760.8594472 1484
598.3466487 762.3975727 1487
607.6670228 764.4484068 1491
619.9178676 770.0882006 1502
628.9392884 771.6263261 1505
638.4148101 773.6771602 1509
649.6446767 777.7788284 1517
658.7902155 779.316954 1520
666.6510252 779.316954 1520
674.511835 779.316954 1520
681.0258566 777.7788284 1517
690.2334544 779.316954 1520
696.7164465 777.7788284 1517
702.703965 775.7279943 1513
712.4070365 777.7788284 1517
720.2523315 777.7788284 1517
729.5375031 779.316954 1520
739.3388347 781.3677881 1524
751.1427472 785.4694562 1532
760.5520369 787.0075818 1535
770.4930013 789.0584159 1539
778.4520712 789.0584159 1539
788.4550946 791.10925 1543
796.4348508 791.10925 1543
802.3292807 789.0584159 1539
808.182338 787.0075818 1535
816.1207215 787.0075818 1535
822.4485661 785.4694562 1532
828.2033632 783.4186221 1528
833.9167876 781.3677881 1524
839.5888394 779.316954 1520
847.4496491 779.316954 1520
855.3104589 779.316954 1520
861.4676411 777.7788284 1517
871.0320783 779.316954 1520
881.2057641 781.3677881 1524
893.7543849 785.4694562 1532
901.6772536 785.4694562 1532
911.3813237 787.0075818 1535
919.3197072 787.0075818 1535
925.4458599 785.4694562 1532
930.9317346 783.4186221 1528
936.3762366 781.3677881 1524
941.7793659 779.316954 1520
947.7658859 777.7788284 1517
953.0914414 775.7279943 1513
958.3756243 773.6771602 1509
966.1795466 773.6771602 1509
973.9834689 773.6771602 1509
977.2330427 770.0882006 1502
982.3775928 768.0373665 1498
988.1417346 766.4992409 1495
995.8732547 766.4992409 1495
998.2343144 762.3975727 1487
1003.895024 760.8594472 1484
1008.843054 758.8086131 1480
1016.497001 758.8086131 1480
1024.150947 758.8086131 1480
1031.804893 758.8086131 1480
1042.268188 760.8594472 1484
1049.94282 760.8594472 1484
1062.606215 764.4484068 1491
1075.342011 768.0373665 1498
1085.98114 770.0882006 1502
1098.846226 773.6771602 1509
1112.51708 777.7788284 1517
1125.532142 781.3677881 1524
1139.363316 785.4694562 1532
1147.286185 785.4694562 1532
1157.471213 787.0075818 1535
1168.446494 789.0584159 1539
1179.463148 791.10925 1543
1187.442905 791.10925 1543
1192.323704 789.0584159 1539
1200.282774 789.0584159 1539
1205.101514 787.0075818 1535
1210.669135 785.4694562 1532
1215.410302 783.4186221 1528
1223.312484 783.4186221 1528
1227.991591 781.3677881 1524
1235.873088 781.3677881 1524
1243.754584 781.3677881 1524
1254.921214 783.4186221 1528
400.5992508 628.7064507 1214
417.6024992 645.2786142 1246
465.7308517 698.1023852 1348
487.7809265 720.3712298 1391
525.5769136 764.9089191 1477
534.2983824 766.4625594 1480
541.9523287 766.4625594 1480
549.606275 766.4625594 1480
557.2602214 766.4625594 1480
564.9141677 766.4625594 1480
572.568114 766.4625594 1480
581.790228 768.5340798 1484
590.6565013 770.0877201 1487
599.9561891 772.1592406 1491
609.2972496 774.230761 1495
619.9178676 777.8559218 1502
628.9392884 779.4095621 1505
638.4148101 781.4810825 1509
647.9317046 783.5526029 1513
655.7563132 783.5526029 1513
663.5809218 783.5526029 1513
669.6304993 781.4810825 1509
677.4344216 781.4810825 1509
683.4219401 779.4095621 1505
691.205176 779.4095621 1505
697.5950796 777.8559218 1502
706.7716479 779.4095621 1505
714.5548839 779.4095621 1505
724.2579554 781.4810825 1509
734.0023996 783.5526029 1513
745.2591226 787.1777637 1520
755.1018269 789.2492841 1524
762.9833229 789.2492841 1524
772.8880863 791.3208046 1528
780.7902687 791.3208046 1528
786.6278112 789.2492841 1524
792.423981 787.1777637 1520
798.7052813 785.6241234 1517
804.4238773 783.5526029 1513
810.1011006 781.4810825 1509
815.7369513 779.4095621 1505
819.6898608 775.7844013 1498
825.7798124 774.230761 1495
833.5113325 774.230761 1495
842.9309654 775.7844013 1498
850.6780002 775.7844013 1498
862.436367 779.4095621 1505
872.532479 781.4810825 1509
885.003526 785.6241234 1517
896.9687562 789.2492841 1524
909.6001224 793.392325 1532
917.5229912 793.392325 1532
925.4458599 793.392325 1532
930.9317346 791.3208046 1528
936.3762366 789.2492841 1524
941.7793659 787.1777637 1520
947.7658859 785.6241234 1517
953.0914414 783.5526029 1513
958.3756243 781.4810825 1509
966.1795466 781.4810825 1509
973.9834689 781.4810825 1509
977.2330427 777.8559218 1502
982.3775928 775.7844013 1498
988.1417346 774.230761 1495
993.2087108 772.1592406 1491
998.2343144 770.0877201 1487
1003.895024 768.5340798 1484
1008.843054 766.4625594 1480
1016.497001 766.4625594 1480
1024.150947 766.4625594 1480
1034.593555 768.5340798 1484
1042.268188 768.5340798 1484
1052.065346 770.0877201 1487
1062.606215 772.1592406 1491
1078.213418 777.8559218 1502
1091.042303 781.4810825 1509
1101.759006 783.5526029 1513
1114.71718 787.1777637 1520
1128.486295 791.3208046 1528
1139.363316 793.392325 1532
1149.532829 794.9459653 1535
1160.487424 797.0174857 1539
1171.483392 799.0890062 1543
1182.520733 801.1605266 1547
1190.521175 801.1605266 1547
1195.422661 799.0890062 1543
1203.402417 799.0890062 1543
1208.241843 797.0174857 1539
1213.039897 794.9459653 1535
1215.410302 791.3208046 1528
1223.312484 791.3208046 1528
1231.214666 791.3208046 1528
1239.116849 791.3208046 1528
1247.019031 791.3208046 1528
1254.921214 791.3208046 1528
401.2592166 636.0308587 1216
418.2728082 652.7685129 1248
467.8038377 708.2119924 1354
489.884942 730.7032152 1397
526.6444361 774.1165057 1480
534.2983824 774.1165057 1480
541.9523287 774.1165057 1480
551.0916974 776.2087125 1484
558.7663301 776.2087125 1484
566.4409627 776.2087125 1484
574.1155954 776.2087125 1484
582.9663538 777.7778676 1487
592.2453553 779.8700743 1491
601.5657295 781.9622811 1495
610.5199197 783.5314362 1498
619.9178676 785.623643 1502
628.9392884 787.192798 1505
638.4148101 789.2850048 1509
646.2187324 789.2850048 1509
654.0226547 789.2850048 1509
661.826577 789.2850048 1509
667.8554682 787.192798 1505
675.6387041 787.192798 1505
682.0596372 785.623643 1502
689.8273584 785.623643 1502
695.7373031 783.5314362 1498
703.484338 783.5314362 1498
711.2313728 783.5314362 1498
720.8982432 785.623643 1502
730.1213558 787.192798 1505
741.8270082 791.3772116 1513
749.6516168 791.3772116 1513
759.4788064 793.4694184 1517
767.3241014 793.4694184 1517
775.1693963 793.4694184 1517
783.0146913 793.4694184 1517
788.77466 791.3772116 1513
792.3872434 787.192798 1505
798.5754552 785.623643 1502
804.1957911 783.5314362 1498
810.3167722 781.9622811 1495
815.8595344 779.8700743 1491
819.7038406 776.2087125 1484
827.3784732 776.2087125 1484
835.0531059 776.2087125 1484
844.4313661 777.7778676 1487
856.7058928 781.9622811 1495
866.17207 783.5314362 1498
880.3364013 789.2850048 1509
892.848821 793.4694184 1517
909.6001224 801.3151937 1532
917.5229912 801.3151937 1532
923.0295522 799.222987 1528
928.4947405 797.1307802 1524
936.3762366 797.1307802 1524
941.7793659 795.0385734 1520
947.7658859 793.4694184 1517
950.571702 789.2850048 1509
958.3756243 789.2850048 1509
966.1795466 789.2850048 1509
973.9834689 789.2850048 1509
977.2330427 785.623643 1502
982.3775928 783.5314362 1498
988.1417346 781.9622811 1495
995.8732547 781.9622811 1495
998.2343144 777.7778676 1487
1005.924462 777.7778676 1487
1011.569657 776.2087125 1484
1021.304757 777.7778676 1487
1028.994904 777.7778676 1487
1039.473713 779.8700743 1491
1047.184547 779.8700743 1491
1057.725415 781.9622811 1495
1067.594976 783.5314362 1498
1083.238381 789.2850048 1509
1096.82649 793.4694184 1517
1106.85637 795.0385734 1520
1117.650646 797.1307802 1524
1133.656062 802.8843488 1535
1144.569285 804.9765556 1539
1155.52388 807.0687624 1543
1163.503636 807.0687624 1543
1177.557188 811.2531759 1551
1185.578317 811.2531759 1551
1196.677716 813.3453827 1555
1201.620575 811.2531759 1551
1206.52206 809.1609691 1547
1214.522503 809.1609691 1547
1219.361929 807.0687624 1543
1220.978281 802.8843488 1535
1226.514873 801.3151937 1532
1234.437742 801.3151937 1532
1242.36061 801.3151937 1532
1250.283479 801.3151937 1532
1260.670198 802.8843488 1535
402.2491654 643.9041764 1219
419.9485807 661.8637678 1253
470.9133167 719.9683285 1363
491.9889575 741.0972596 1403
528.0677994 783.8833451 1484
535.7424321 783.8833451 1484
543.4170647 783.8833451 1484
552.2057642 785.468015 1487
559.8959116 785.468015 1487
567.586059 785.468015 1487
575.2762064 785.468015 1487
584.5345216 787.5809081 1491
592.2453553 787.5809081 1491
601.5657295 789.6938012 1495
609.2972496 789.6938012 1495
619.9178676 793.3913642 1502
627.6855888 793.3913642 1502
636.7225244 794.976034 1505
644.5057603 794.976034 1505
652.2889963 794.976034 1505
660.0722322 794.976034 1505
666.5241948 793.3913642 1502
672.4961985 791.278471 1498
682.0596372 793.3913642 1502
687.9902682 791.278471 1498
694.3439707 789.6938012 1495
703.484338 791.278471 1498
709.8070109 789.6938012 1495
717.538531 789.6938012 1495
726.7254425 791.278471 1498
737.9045918 794.976034 1505
747.6697223 797.0889271 1509
755.4736446 797.0889271 1509
763.2775669 797.0889271 1509
771.0814892 797.0889271 1509
778.8854115 797.0889271 1509
784.6040075 794.976034 1505
788.7017214 791.278471 1498
794.853732 789.6938012 1495
800.4378668 787.5809081 1491
805.980629 785.468015 1487
809.8404499 781.770452 1480
815.837313 780.1857822 1477
823.4757446 780.1857822 1477
831.1141761 780.1857822 1477
840.4562352 781.770452 1480
852.1215135 785.468015 1487
862.1245369 787.5809081 1491
873.9191048 791.278471 1498
885.7860749 794.976034 1505
902.4753173 802.8993832 1520
912.7317484 805.0122763 1524
923.0295522 807.1251694 1528
928.4947405 805.0122763 1524
936.3762366 805.0122763 1524
941.7793659 802.8993832 1520
947.7658859 801.3147133 1517
953.0914414 799.2018202 1513
960.91605 799.2018202 1513
966.1795466 797.0889271 1509
973.9834689 797.0889271 1509
977.2330427 793.3913642 1502
985.0007639 793.3913642 1502
992.7684851 793.3913642 1502
995.8732547 789.6938012 1495
1003.604775 789.6938012 1495
1008.630378 787.5809081 1491
1016.341212 787.5809081 1491
1024.052046 787.5809081 1491
1031.76288 787.5809081 1491
1042.262375 789.6938012 1495
1052.100907 791.278471 1498
1062.677976 793.3913642 1502
1072.583738 794.976034 1505
1086.109788 799.2018202 1513
1096.82649 801.3147133 1517
1109.76915 805.0122763 1524
1120.584113 807.1251694 1528
1136.610215 812.9356255 1539
1144.569285 812.9356255 1539
1158.519405 817.1614117 1547
1166.519848 817.1614117 1547
1177.557188 819.2743048 1551
1188.635901 821.3871979 1555
1196.677716 821.3871979 1555
1201.620575 819.2743048 1551
1209.641704 819.2743048 1551
1214.522503 817.1614117 1547
1219.361929 815.0485186 1543
1220.978281 810.8227323 1535
1228.916664 810.8227323 1535
1236.855048 810.8227323 1535
1244.793431 810.8227323 1535
1252.731815 810.8227323 1535
1260.670198 810.8227323 1535
402.9091312 651.2751286 1221
419.9485807 668.3437643 1253
471.9498097 728.6173839 1366
494.4436423 752.0867579 1410
529.1353219 793.1581624 1487
536.8254693 793.1581624 1487
543.4170647 791.5579778 1484
552.2057642 793.1581624 1487
559.8959116 793.1581624 1487
567.586059 793.1581624 1487
575.2762064 793.1581624 1487
582.9663538 793.1581624 1487
592.2453553 795.2917419 1491
599.9561891 795.2917419 1491
609.2972496 797.4253213 1495
618.2669545 799.0255059 1498
626.0139894 799.0255059 1498
635.45331 801.1590854 1502
644.5057603 802.7592699 1505
650.9887524 801.1590854 1502
660.0722322 802.7592699 1505
666.5241948 801.1590854 1502
672.4961985 799.0255059 1498
680.2432334 799.0255059 1498
687.9902682 799.0255059 1498
694.3439707 797.4253213 1495
702.0754908 797.4253213 1495
709.8070109 797.4253213 1495
717.538531 797.4253213 1495
726.7254425 799.0255059 1498
734.4724774 799.0255059 1498
744.2014068 801.1590854 1502
751.969128 801.1590854 1502
759.7368492 801.1590854 1502
769.0375356 802.7592699 1505
775.2722916 801.1590854 1502
780.9546865 799.0255059 1498
785.0161993 795.2917419 1491
790.6003341 793.1581624 1487
796.6799426 791.5579778 1484
802.1865036 789.4243984 1480
808.1988815 787.8242138 1477
813.6278687 785.6906343 1473
819.5730159 784.0904497 1470
827.1752464 784.0904497 1470
836.4811044 785.6906343 1473
848.1101815 789.4243984 1480
858.0770039 791.5579778 1484
869.8353707 795.2917419 1491
881.6661397 799.0255059 1498
898.3191809 807.0264289 1513
906.1437896 807.0264289 1513
916.3847059 809.1600083 1517
924.2300009 809.1600083 1517
933.9185562 810.7601929 1520
939.9205909 809.1600083 1517
945.2668328 807.0264289 1513
953.0914414 807.0264289 1513
958.3756243 804.8928494 1509
966.1795466 804.8928494 1509
971.4016704 802.7592699 1505
977.2330427 801.1590854 1502
985.0007639 801.1590854 1502
992.7684851 801.1590854 1502
1000.536206 801.1590854 1502
1005.618697 799.0255059 1498
1011.336295 797.4253213 1495
1019.067815 797.4253213 1495
1026.799335 797.4253213 1495
1034.530855 797.4253213 1495
1044.353872 799.0255059 1498
1054.910255 801.1590854 1502
1064.800502 802.7592699 1505
1072.583738 802.7592699 1505
1088.981195 809.1600083 1517
1098.995561 810.7601929 1520
1109.76915 812.8937724 1524
1120.584113 815.0273518 1528
1136.610215 820.8946953 1539
1147.544124 823.0282748 1543
1158.519405 825.1618542 1547
1166.519848 825.1618542 1547
1177.557188 827.2954337 1551
1185.578317 827.2954337 1551
1196.677716 829.4290131 1555
1198.521618 825.1618542 1547
1206.52206 825.1618542 1547
1214.522503 825.1618542 1547
1219.361929 823.0282748 1543
1224.159983 820.8946953 1539
1228.916664 818.7611159 1535
1236.855048 818.7611159 1535
1244.793431 818.7611159 1535
1252.731815 818.7611159 1535
1260.670198 818.7611159 1535
402.9091312 657.5896344 1221
420.9540442 676.4394601 1256
471.9498097 735.6817695 1366
495.49565 760.9943926 1413
529.1353219 800.8483098 1487
536.8254693 800.8483098 1487
543.4170647 799.2326105 1484
552.2057642 800.8483098 1487
559.8959116 800.8483098 1487
567.586059 800.8483098 1487
575.2762064 800.8483098 1487
582.9663538 800.8483098 1487
590.6565013 800.8483098 1487
598.3466487 800.8483098 1487
607.6670228 803.0025756 1491
617.0287697 805.1568414 1495
624.7602898 805.1568414 1495
633.7610242 806.7725408 1498
641.5080591 806.7725408 1498
649.255094 806.7725408 1498
657.0021288 806.7725408 1498
664.7491637 806.7725408 1498
671.1494104 805.1568414 1495
680.2432334 806.7725408 1498
687.9902682 806.7725408 1498
694.3439707 805.1568414 1495
700.197028 803.0025756 1491
707.9078617 803.0025756 1491
715.6186955 803.0025756 1491
723.3295292 803.0025756 1491
731.040363 803.0025756 1491
738.7511968 803.0025756 1491
746.4620305 803.0025756 1491
754.1728643 803.0025756 1491
761.883698 803.0025756 1491
769.5945318 803.0025756 1491
773.6560446 799.2326105 1484
781.3306773 799.2326105 1484
783.1568878 793.3083795 1473
790.774633 793.3083795 1473
796.7663245 791.6926802 1470
802.179797 789.5384144 1466
808.1042579 787.922715 1463
815.6702873 787.922715 1463
823.2363167 787.922715 1463
832.5059735 789.5384144 1466
842.3797073 791.6926802 1470
858.0770039 799.2326105 1484
869.8353707 803.0025756 1491
881.6661397 806.7725408 1498
898.3191809 814.8510375 1513
908.539411 817.0053033 1517
913.9683982 814.8510375 1513
921.7930069 814.8510375 1513
927.1599351 812.6967717 1509
934.9638574 812.6967717 1509
940.2687266 810.5425059 1505
946.162158 808.9268066 1502
955.8351985 810.5425059 1505
961.6976004 808.9268066 1502
969.4653216 808.9268066 1502
979.1849064 810.5425059 1505
985.0007639 808.9268066 1502
992.7684851 808.9268066 1502
1000.536206 808.9268066 1502
1008.303928 808.9268066 1502
1016.071649 808.9268066 1502
1023.83937 808.9268066 1502
1031.607091 808.9268066 1502
1039.374812 808.9268066 1502
1047.142534 808.9268066 1502
1057.017266 810.5425059 1505
1067.630536 812.6967717 1509
1075.434459 812.6967717 1509
1091.134751 818.6210026 1520
1098.995561 818.6210026 1520
1109.76915 820.7752684 1524
1120.584113 822.9295342 1528
1131.440448 825.0838 1532
1139.363316 825.0838 1532
1149.532829 826.6994994 1535
1157.471213 826.6994994 1535
1168.446494 828.8537652 1539
1173.34798 826.6994994 1535
1181.286363 826.6994994 1535
1186.900529 825.0838 1532
1191.703754 822.9295342 1528
1199.605937 822.9295342 1528
1207.508119 822.9295342 1528
1215.410302 822.9295342 1528
1223.312484 822.9295342 1528
1231.214666 822.9295342 1528
1242.36061 825.0838 1532
1250.283479 825.0838 1532
1260.670198 826.6994994 1535
401.2592166 661.1854499 1216
419.2782717 680.2162811 1251
472.9863027 744.3773692 1369
495.49565 768.3018427 1413
529.1353219 808.5384572 1487
536.8254693 808.5384572 1487
544.5156167 808.5384572 1487
552.2057642 808.5384572 1487
559.8959116 808.5384572 1487
567.586059 808.5384572 1487
574.1155954 806.9072431 1484
581.790228 806.9072431 1484
589.4648607 806.9072431 1484
598.3466487 808.5384572 1487
606.0367961 808.5384572 1487
615.3778566 810.7134094 1491
623.0886904 810.7134094 1491
632.4918099 812.8883615 1495
640.22333 812.8883615 1495
647.9548501 812.8883615 1495
655.6863702 812.8883615 1495
663.4178903 812.8883615 1495
669.3536929 810.7134094 1491
678.8809305 812.8883615 1495
686.6124506 812.8883615 1495
692.4861942 810.7134094 1491
698.3185651 808.5384572 1487
706.0087125 808.5384572 1487
713.6988599 808.5384572 1487
721.3890074 808.5384572 1487
727.6082486 806.9072431 1484
735.2828813 806.9072431 1484
742.9575139 806.9072431 1484
750.6321466 806.9072431 1484
756.2628257 804.732291 1480
763.916772 804.732291 1480
771.5707183 804.732291 1480
775.5391426 800.9261248 1473
781.5618636 799.2949106 1470
789.1640941 799.2949106 1470
794.5982529 797.1199585 1466
802.179797 797.1199585 1466
805.8948136 793.3137923 1459
813.4401566 793.3137923 1459
823.2363167 795.4887444 1463
832.5059735 797.1199585 1466
844.0988496 800.9261248 1473
858.0770039 806.9072431 1484
869.8353707 810.7134094 1491
881.6661397 814.5195756 1498
898.3191809 822.6756461 1513
908.539411 824.8505983 1517
916.3847059 824.8505983 1517
921.7930069 822.6756461 1513
927.1599351 820.500694 1509
934.9638574 820.500694 1509
942.7677797 820.500694 1509
946.162158 816.6945278 1502
953.9298792 816.6945278 1502
961.6976004 816.6945278 1502
971.4016704 818.3257419 1505
977.2330427 816.6945278 1502
985.0007639 816.6945278 1502
992.7684851 816.6945278 1502
1002.534614 818.3257419 1505
1010.31785 818.3257419 1505
1018.101086 818.3257419 1505
1025.884322 818.3257419 1505
1033.667558 818.3257419 1505
1041.450794 818.3257419 1505
1052.022692 820.500694 1509
1059.826614 820.500694 1509
1070.460571 822.6756461 1513
1078.28518 822.6756461 1513
1088.981195 824.8505983 1517
1096.82649 824.8505983 1517
1104.671785 824.8505983 1517
1114.71718 826.4818124 1520
1125.532142 828.6567645 1524
1133.413639 828.6567645 1524
1141.295135 828.6567645 1524
1149.176631 828.6567645 1524
1157.058127 828.6567645 1524
1164.939623 828.6567645 1524
1172.821119 828.6567645 1524
1177.603658 826.4818124 1520
1185.464468 826.4818124 1520
1193.325277 826.4818124 1520
1201.186087 826.4818124 1520
1209.046897 826.4818124 1520
1216.907707 826.4818124 1520
1224.768516 826.4818124 1520
1235.873088 828.6567645 1524
1247.019031 830.8317166 1528
1258.206348 833.0066688 1532
399.6093021 664.7295496 1211
418.2728082 685.0392055 1248
472.9863027 751.4572695 1369
496.5476578 777.2560216 1416
529.1353219 816.2286047 1487
536.8254693 816.2286047 1487
544.5156167 816.2286047 1487
552.2057642 816.2286047 1487
559.8959116 816.2286047 1487
567.586059 816.2286047 1487
574.1155954 814.5818758 1484
581.790228 814.5818758 1484
589.4648607 814.5818758 1484
597.1394934 814.5818758 1484
604.814126 814.5818758 1484
613.7269435 816.2286047 1487
621.4170909 816.2286047 1487
629.1072383 816.2286047 1487
638.5103579 818.4242431 1491
646.2211916 818.4242431 1491
655.6863702 820.6198816 1495
663.4178903 820.6198816 1495
671.1494104 820.6198816 1495
678.8809305 820.6198816 1495
687.9902682 822.2666105 1498
694.3439707 820.6198816 1495
700.197028 818.4242431 1491
706.0087125 816.2286047 1487
712.2589833 814.5818758 1484
719.933616 814.5818758 1484
725.6470404 812.3862373 1480
733.3009867 812.3862373 1480
739.4529974 810.7395085 1477
748.6088794 812.3862373 1480
754.7298605 810.7395085 1477
762.3682921 810.7395085 1477
770.0067236 810.7395085 1477
775.5391426 808.54387 1473
777.8401404 803.0547738 1463
785.4061698 803.0547738 1463
792.9721992 803.0547738 1463
800.5382285 803.0547738 1463
805.8948136 800.8591353 1459
813.4401566 800.8591353 1459
823.2363167 803.0547738 1463
832.5059735 804.7015026 1466
844.0988496 808.54387 1473
858.0770039 814.5818758 1484
869.8353707 818.4242431 1491
881.6661397 822.2666105 1498
898.3191809 830.5002548 1513
908.539411 832.6958932 1517
916.3847059 832.6958932 1517
924.2300009 832.6958932 1517
929.6176155 830.5002548 1513
937.4422241 830.5002548 1513
942.7677797 828.3046163 1509
946.162158 824.4622489 1502
953.9298792 824.4622489 1502
961.6976004 824.4622489 1502
966.8835231 822.2666105 1498
977.2330427 824.4622489 1502
985.0007639 824.4622489 1502
992.7684851 824.4622489 1502
1000.536206 824.4622489 1502
1008.303928 824.4622489 1502
1018.101086 826.1089778 1505
1025.884322 826.1089778 1505
1033.667558 826.1089778 1505
1041.450794 826.1089778 1505
1052.022692 828.3046163 1509
1059.826614 828.3046163 1509
1067.630536 828.3046163 1509
1072.583738 826.1089778 1505
1080.366974 826.1089778 1505
1088.15021 826.1089778 1505
1095.933446 826.1089778 1505
1103.716682 826.1089778 1505
1114.45407 828.3046163 1509
1122.257992 828.3046163 1509
1130.061915 828.3046163 1509
1137.865837 828.3046163 1509
1145.669759 828.3046163 1509
1153.473682 828.3046163 1509
1161.277604 828.3046163 1509
1169.081526 828.3046163 1509
1176.885449 828.3046163 1509
1184.689371 828.3046163 1509
1195.654309 830.5002548 1513
1203.478918 830.5002548 1513
1211.303526 830.5002548 1513
1222.35121 832.6958932 1517
1232.629326 834.3426221 1520
1243.754584 836.5382606 1524
1254.921214 838.7338991 1528
398.2893705 668.7760146 1207
416.5970358 688.722938 1243
436.2980334 710.332105 1282
472.9863027 758.5371699 1369
496.5476578 784.5789865 1416
530.5586853 826.1350769 1491
538.269519 826.1350769 1491
544.5156167 823.9187521 1487
552.2057642 823.9187521 1487
559.8959116 823.9187521 1487
567.586059 823.9187521 1487
574.1155954 822.2565085 1484
580.2220603 820.0401836 1480
587.8760066 820.0401836 1480
595.529953 820.0401836 1480
604.814126 822.2565085 1484
612.4887587 822.2565085 1484
620.1633914 822.2565085 1484
627.838024 822.2565085 1484
636.7973858 823.9187521 1487
644.4875332 823.9187521 1487
653.9320254 826.1350769 1491
661.6428592 826.1350769 1491
669.3536929 826.1350769 1491
678.8809305 828.3514017 1495
686.6124506 828.3514017 1495
694.3439707 828.3514017 1495
698.3185651 823.9187521 1487
704.5843506 822.2565085 1484
710.3391478 820.0401836 1480
716.5377027 818.37794 1477
724.1761342 818.37794 1477
729.8326712 816.1616152 1473
737.4504165 816.1616152 1473
745.0681617 816.1616152 1473
752.6859069 816.1616152 1473
760.3036521 816.1616152 1473
766.3574027 814.4993716 1470
771.8536205 812.2830468 1466
777.8401404 810.6208031 1463
785.4061698 810.6208031 1463
790.8041275 808.4044783 1459
798.3494706 808.4044783 1459
805.8948136 808.4044783 1459
813.4401566 808.4044783 1459
823.2363167 810.6208031 1463
832.5059735 812.2830468 1466
842.3797073 814.4993716 1470
859.8116609 823.9187521 1487
869.8353707 826.1350769 1491
881.6661397 830.0136453 1498
900.694116 840.5411882 1517
910.336127 842.2034318 1520
918.1969367 842.2034318 1520
924.2300009 840.5411882 1517
929.6176155 838.3248634 1513
934.9638574 836.1085386 1509
940.2687266 833.8922138 1505
946.162158 832.2299701 1502
951.3894534 830.0136453 1498
957.2156541 828.3514017 1495
964.9471742 828.3514017 1495
972.6786943 828.3514017 1495
980.4102144 828.3514017 1495
990.1246277 830.0136453 1498
997.8716625 830.0136453 1498
1005.618697 830.0136453 1498
1016.071649 832.2299701 1502
1023.83937 832.2299701 1502
1033.667558 833.8922138 1505
1039.374812 832.2299701 1502
1047.142534 832.2299701 1502
1054.910255 832.2299701 1502
1059.847941 830.0136453 1498
1065.456936 828.3514017 1495
1070.317048 826.1350769 1491
1078.027882 826.1350769 1491
1082.825936 823.9187521 1487
1093.44955 826.1350769 1491
1101.160383 826.1350769 1491
1111.846056 828.3514017 1495
1119.577576 828.3514017 1495
1127.309096 828.3514017 1495
1135.040616 828.3514017 1495
1145.065325 830.0136453 1498
1152.81236 830.0136453 1498
1158.235177 828.3514017 1495
1154.268034 820.0401836 1480
1165.06231 822.2565085 1484
1175.107705 823.9187521 1487
1185.979555 826.1350769 1491
1196.892777 828.3514017 1495
1207.041604 830.0136453 1498
1218.0324 832.2299701 1502
1228.248457 833.8922138 1505
1248.350946 842.2034318 1520
395.9794901 671.1033486 1200
414.9212633 692.3549547 1238
435.2770552 715.2843191 1279
472.9863027 765.6170702 1369
497.5996655 793.5797097 1419
531.9820486 836.0829218 1495
538.269519 833.8459107 1491
545.9803528 833.8459107 1491
553.6911865 833.8459107 1491
559.8959116 831.6088995 1487
566.4409627 829.9311411 1484
572.568114 827.69413 1480
579.0459345 826.0163716 1477
586.6843661 826.0163716 1477
594.3227976 826.0163716 1477
601.9612292 826.0163716 1477
609.5996608 826.0163716 1477
617.2380923 826.0163716 1477
624.8765239 826.0163716 1477
633.7996846 827.69413 1480
641.4536309 827.69413 1480
649.1075772 827.69413 1480
658.5365547 829.9311411 1484
666.2111873 829.9311411 1484
675.2481229 831.6088995 1487
684.7753604 833.8459107 1491
692.4861942 833.8459107 1491
696.909718 829.9311411 1484
702.6852014 827.69413 1480
708.8992711 826.0163716 1477
716.5377027 826.0163716 1477
720.7440199 822.1016021 1470
728.3462503 822.1016021 1470
733.9458999 819.8645909 1466
741.527444 819.8645909 1466
749.1089881 819.8645909 1466
756.6905323 819.8645909 1466
762.7080817 818.1868325 1463
768.1680985 815.9498214 1459
772.5233931 812.5943046 1453
780.0377066 812.5943046 1453
787.5520201 812.5943046 1453
792.8775756 810.3572934 1449
798.7141196 808.6795351 1446
806.192232 808.6795351 1446
813.6703444 808.6795351 1446
825.1235877 812.5943046 1453
836.0761857 815.9498214 1459
854.0294708 826.0163716 1477
865.7516365 829.9311411 1484
877.5462044 833.8459107 1491
893.5693109 841.6754497 1505
903.7481682 843.9124609 1509
911.5520905 843.9124609 1509
919.3560128 843.9124609 1509
924.7022547 841.6754497 1505
930.6267156 839.9976913 1502
935.8953837 837.7606802 1498
939.2328745 833.8459107 1491
944.4032825 831.6088995 1487
950.1725958 829.9311411 1484
959.7835773 831.6088995 1487
965.5218611 829.9311411 1484
973.1964938 829.9311411 1484
980.8711265 829.9311411 1484
988.5457591 829.9311411 1484
993.5351616 827.69413 1480
1003.895024 829.9311411 1484
1013.614609 831.6088995 1487
1019.24429 829.9311411 1484
1024.150947 827.69413 1480
1029.713397 826.0163716 1477
1034.54248 823.7793604 1473
1042.160225 823.7793604 1473
1044.789209 819.8645909 1466
1047.345791 815.9498214 1459
1054.891134 815.9498214 1459
1062.436477 815.9498214 1459
1069.98182 815.9498214 1459
1077.527163 815.9498214 1459
1090.278474 819.8645909 1466
1097.860018 819.8645909 1466
1108.457774 822.1016021 1470
1116.060004 822.1016021 1470
1123.662235 822.1016021 1470
1131.264465 822.1016021 1470
1138.866696 822.1016021 1470
1146.468926 822.1016021 1470
1154.071156 822.1016021 1470
1161.673387 822.1016021 1470
1174.843597 826.0163716 1477
1184.88382 827.69413 1480
1195.760841 829.9311411 1484
1205.868295 831.6088995 1487
1220.087338 836.0829218 1495
1239.316827 843.9124609 1509
394.9895414 675.6159779 1197
413.2454908 695.9352554 1233
435.2770552 721.8987767 1279
475.0592887 776.0835168 1375
502.1583658 808.2557062 1432
533.0495711 845.507715 1498
540.796606 845.507715 1498
547.4450888 843.8144419 1495
555.1766089 843.8144419 1495
561.4020203 841.5567444 1491
567.586059 839.2990469 1487
572.568114 835.3480763 1480
580.2220603 835.3480763 1480
586.6843661 833.6548031 1477
594.3227976 833.6548031 1477
601.9612292 833.6548031 1477
609.5996608 833.6548031 1477
617.2380923 833.6548031 1477
624.8765239 833.6548031 1477
632.5149555 833.6548031 1477
640.153387 833.6548031 1477
649.1075772 835.3480763 1480
658.5365547 837.6057738 1484
666.2111873 837.6057738 1484
675.2481229 839.2990469 1487
684.7753604 841.5567444 1491
692.4861942 841.5567444 1491
696.909718 837.6057738 1484
702.6852014 835.3480763 1480
706.9794356 831.3971056 1473
714.5971808 831.3971056 1473
720.7440199 829.7038325 1470
726.3643558 827.446135 1466
733.9458999 827.446135 1466
741.527444 827.446135 1466
747.576023 825.7528619 1463
755.1420523 825.7528619 1463
760.6227554 823.4951644 1459
766.588589 821.8018913 1456
770.3966941 817.8509206 1449
776.2797823 816.1576475 1446
783.7578947 816.1576475 1446
791.2360072 816.1576475 1446
796.5046753 813.89995 1442
803.9621013 813.89995 1442
811.4195274 813.89995 1442
821.1484568 816.1576475 1446
832.6379012 820.1086181 1453
849.9819378 829.7038325 1470
861.6679024 833.6548031 1477
873.4262692 837.6057738 1484
891.7881096 847.7654125 1502
901.3525468 849.4586857 1505
911.5520905 851.7163832 1509
915.0912732 847.7654125 1502
922.8589944 847.7654125 1502
928.1483488 845.507715 1498
934.0210938 843.8144419 1495
936.7131351 839.2990469 1487
942.4979632 837.6057738 1484
947.6114837 835.3480763 1480
953.3290812 833.6548031 1477
960.9675127 833.6548031 1477
965.9827732 831.3971056 1473
971.6176253 829.7038325 1470
979.2198557 829.7038325 1470
986.8220862 829.7038325 1470
994.4243167 829.7038325 1470
999.2999443 827.446135 1466
1006.881488 827.446135 1466
1012.387051 825.7528619 1463
1017.164418 823.4951644 1459
1024.709761 823.4951644 1459
1028.010053 820.1086181 1453
1032.673645 817.8509206 1449
1038.013717 816.1576475 1446
1045.491829 816.1576475 1446
1052.969942 816.1576475 1446
1062.648154 817.8509206 1449
1070.141781 817.8509206 1449
1082.841376 821.8018913 1456
1092.617849 823.4951644 1459
1097.901033 821.8018913 1456
1105.430861 821.8018913 1456
1112.96069 821.8018913 1456
1120.490518 821.8018913 1456
1128.020346 821.8018913 1456
1135.550174 821.8018913 1456
1143.080003 821.8018913 1456
1150.609831 821.8018913 1456
1160.525936 823.4951644 1459
1171.273668 825.7528619 1463
1184.480078 829.7038325 1470
1194.51513 831.3971056 1473
1207.845659 835.3480763 1480
1233.567842 847.7654125 1502
392.0196952 676.6800019 1188
411.5697184 699.4638404 1228
433.5754248 725.6652546 1274
476.0957816 784.9032346 1378
504.6130505 819.6485882 1439
533.0495711 853.2547499 1498
540.796606 853.2547499 1498
548.5436408 853.2547499 1498
556.2906757 853.2547499 1498
561.4020203 849.2675782 1491
569.1128541 849.2675782 1491
574.1155954 845.2804064 1484
580.2220603 843.0020226 1480
587.8760066 843.0020226 1480
594.3227976 841.2932347 1477
601.9612292 841.2932347 1477
610.8378456 843.0020226 1480
618.4917919 843.0020226 1480
624.8765239 841.2932347 1477
632.5149555 841.2932347 1477
641.4536309 843.0020226 1480
649.1075772 843.0020226 1480
658.5365547 845.2804064 1484
666.2111873 845.2804064 1484
677.0645267 849.2675782 1491
684.7753604 849.2675782 1491
692.4861942 849.2675782 1491
698.3185651 846.9891943 1487
702.6852014 843.0020226 1480
708.8992711 841.2932347 1477
716.5377027 841.2932347 1477
720.7440199 837.306063 1470
728.3462503 837.306063 1470
733.9458999 835.0276791 1466
740.0099936 833.3188913 1463
747.576023 833.3188913 1463
755.1420523 833.3188913 1463
759.0587607 829.3317195 1456
765.0090796 827.6229316 1453
768.8016699 823.6357599 1446
774.132397 821.3573761 1442
781.5898231 821.3573761 1442
787.4056807 819.6485882 1439
793.1905088 817.9398003 1436
800.6169054 817.9398003 1436
808.0433019 817.9398003 1436
818.8769535 821.3573761 1442
826.3343796 821.3573761 1442
845.9344048 833.3188913 1463
855.2506059 835.0276791 1466
869.306334 841.2932347 1477
885.2570382 849.2675782 1491
897.1602094 853.2547499 1498
904.9072442 853.2547499 1498
910.8265335 851.545962 1495
916.1003732 849.2675782 1491
923.811207 849.2675782 1491
929.0229877 846.9891943 1487
932.3035911 843.0020226 1480
935.5117923 839.0148509 1473
941.2087034 837.306063 1470
948.8109339 837.306063 1470
956.4131643 837.306063 1470
961.3922237 835.0276791 1466
966.9908747 833.3188913 1463
971.8923602 831.0405074 1459
979.4377033 831.0405074 1459
984.9536089 829.3317195 1456
992.4834372 829.3317195 1456
997.9527986 827.6229316 1453
1000.623155 823.6357599 1446
1005.312605 821.3573761 1442
1010.66302 819.6485882 1439
1018.104932 819.6485882 1439
1023.408802 817.9398003 1436
1027.963792 815.6614165 1432
1035.369502 815.6614165 1432
1042.775212 815.6614165 1432
1053.114389 817.9398003 1436
1062.7564 819.6485882 1439
1072.42944 821.3573761 1442
1082.882391 823.6357599 1446
1090.360504 823.6357599 1446
1097.838616 823.6357599 1446
1105.316729 823.6357599 1446
1112.794841 823.6357599 1446
1120.272954 823.6357599 1446
1127.751066 823.6357599 1446
1135.229178 823.6357599 1446
1142.707291 823.6357599 1446
1152.57168 825.3445478 1449
1163.267696 827.6229316 1453
1173.199316 829.3317195 1456
1186.405726 833.3188913 1463
1199.684539 837.306063 1470
1209.75062 839.0148509 1473
391.3597294 681.6743102 1186
409.8939459 702.9407095 1223
477.1322746 793.7539818 1381
508.119743 832.838175 1449
534.4729344 863.3008549 1502
542.2406556 863.3008549 1502
548.5436408 861.0017848 1498
556.2906757 861.0017848 1498
562.908129 859.2774821 1495
569.1128541 856.9784119 1491
574.1155954 852.9550391 1484
580.2220603 850.6559689 1480
587.8760066 850.6559689 1480
595.529953 850.6559689 1480
601.9612292 848.9316663 1477
609.5996608 848.9316663 1477
618.4917919 850.6559689 1480
624.8765239 848.9316663 1477
632.5149555 848.9316663 1477
640.153387 848.9316663 1477
649.1075772 850.6559689 1480
658.5365547 852.9550391 1484
666.2111873 852.9550391 1484
677.0645267 856.9784119 1491
684.7753604 856.9784119 1491
692.4861942 856.9784119 1491
698.3185651 854.6793417 1487
704.5843506 852.9550391 1484
708.8992711 848.9316663 1477
716.5377027 848.9316663 1477
722.214926 846.6325961 1473
728.3462503 844.9082935 1470
733.9458999 842.6092233 1466
741.527444 842.6092233 1466
745.5320694 838.5858504 1459
753.0774124 838.5858504 1459
757.494766 835.1372452 1453
765.0090796 835.1372452 1453
766.674971 828.8148021 1442
772.5218581 827.0904995 1439
778.3377157 825.3661969 1436
783.5753543 823.0671267 1432
787.666898 819.6185214 1426
795.0415787 819.6185214 1426
802.4162594 819.6185214 1426
813.1981952 823.0671267 1432
820.6039054 823.0671267 1432
837.8393387 832.838175 1449
847.6665282 835.1372452 1453
861.0664635 840.8849206 1463
872.7886292 844.9082935 1470
888.7755345 852.9550391 1484
898.262398 854.6793417 1487
904.1247998 852.9550391 1484
909.3417521 850.6559689 1480
915.1369234 848.9316663 1477
920.2763018 846.6325961 1473
927.8940471 846.6325961 1473
929.1607278 840.8849206 1463
934.1656451 838.5858504 1459
941.7109881 838.5858504 1459
947.3044675 836.8615478 1456
954.8342958 836.8615478 1456
960.381231 835.1372452 1453
965.2310007 832.838175 1449
972.7246278 832.838175 1449
978.1888176 831.1138723 1446
982.9403272 828.8148021 1442
988.3372864 827.0904995 1439
993.7032161 825.3661969 1436
998.3409507 823.0671267 1432
1001.532639 819.6185214 1426
1008.907319 819.6185214 1426
1016.282 819.6185214 1426
1018.631718 815.5951486 1419
1025.970198 815.5951486 1419
1036.221457 817.8942188 1423
1045.780723 819.6185214 1426
1055.371018 821.342824 1429
1062.761214 821.342824 1429
1070.151409 821.342824 1429
1079.803763 823.0671267 1432
1087.209473 823.0671267 1432
1094.615184 823.0671267 1432
1102.020894 823.0671267 1432
1109.426604 823.0671267 1432
1116.832314 823.0671267 1432
1124.238025 823.0671267 1432
1134.804751 825.3661969 1436
1144.617424 827.0904995 1439
1152.059335 827.0904995 1439
1165.141628 831.1138723 1446
1172.619741 831.1138723 1446
1182.546189 832.838175 1449
1195.788801 836.8615478 1456
382.4501909 672.1494539 1159
478.5142653 803.2156977 1385
509.52242 842.6515587 1453
535.5404569 872.8083935 1505
543.3236929 872.8083935 1505
550.0083768 871.0685761 1502
557.776098 871.0685761 1502
564.0377105 868.7488196 1498
569.1128541 864.6892457 1491
574.1155954 860.6296718 1484
581.790228 860.6296718 1484
589.4648607 860.6296718 1484
595.529953 858.3099152 1480
601.9612292 856.5700978 1477
610.8378456 858.3099152 1480
618.4917919 858.3099152 1480
624.8765239 856.5700978 1477
632.5149555 856.5700978 1477
640.153387 856.5700978 1477
649.1075772 858.3099152 1480
659.867828 862.3694892 1487
667.5579754 862.3694892 1487
677.0645267 864.6892457 1491
686.6124506 867.0090022 1495
694.3439707 867.0090022 1495
698.3185651 862.3694892 1487
706.0087125 862.3694892 1487
708.8992711 856.5700978 1477
716.5377027 856.5700978 1477
722.214926 854.2503413 1473
728.3462503 852.5105239 1470
733.9458999 850.1907674 1466
741.527444 850.1907674 1466
743.9991042 844.3913761 1456
751.5289325 844.3913761 1456
755.4094398 840.3318021 1449
761.3235575 838.5919848 1446
765.0799467 834.5324108 1439
767.1533948 828.7330195 1429
771.2914829 825.2533847 1423
776.4618908 822.9336282 1419
778.8291208 817.714176 1410
783.8909254 815.3944195 1406
791.1621744 815.3944195 1406
800.7049268 817.714176 1410
807.9968621 817.714176 1410
824.5403016 826.9932021 1426
833.6651541 828.7330195 1429
845.1752848 832.7925934 1436
854.3828826 834.5324108 1439
872.0061848 844.3913761 1456
879.5360131 844.3913761 1456
888.8935869 846.1311935 1459
894.5956696 844.3913761 1456
900.2667228 842.6515587 1453
905.2819833 840.3318021 1449
912.7756104 840.3318021 1449
913.9181732 834.5324108 1439
921.3600845 834.5324108 1439
926.865647 832.7925934 1436
934.2920435 832.7925934 1436
941.7184401 832.7925934 1436
946.5009792 830.4728369 1432
953.9066894 830.4728369 1432
963.9976298 832.7925934 1436
968.7181099 830.4728369 1432
976.1238201 830.4728369 1432
981.4690634 828.7330195 1429
988.8592589 828.7330195 1429
992.0664615 825.2533847 1423
996.6162793 822.9336282 1419
1003.954759 822.9336282 1419
1011.293239 822.9336282 1419
1016.478163 821.1938108 1416
1023.801128 821.1938108 1416
1033.308677 822.9336282 1419
1043.580623 825.2533847 1423
1053.155404 826.9932021 1426
1062.761214 828.7330195 1429
1070.151409 828.7330195 1429
1079.803763 830.4728369 1432
1087.209473 830.4728369 1432
1094.615184 830.4728369 1432
1105.099165 832.7925934 1436
1109.426604 830.4728369 1432
1116.832314 830.4728369 1432
1127.378354 832.7925934 1436
1134.804751 832.7925934 1436
1142.231147 832.7925934 1436
1152.059335 834.5324108 1439
1161.918553 836.2722282 1442
1169.375979 836.2722282 1442
1180.097853 838.5919848 1446
1187.575965 838.5919848 1446
382.4501909 678.1433213 1159
512.7185341 868.3043044 1484
530.562575 885.2725152 1513
539.810547 887.6129581 1517
546.2117923 885.2725152 1513
552.5716649 882.9320724 1509
558.8901648 880.5916295 1505
565.5438192 878.8362973 1502
571.7847454 876.4958545 1498
576.8236878 872.4000794 1491
584.5345216 872.4000794 1491
590.6565013 870.0596366 1487
598.3466487 870.0596366 1487
606.0367961 870.0596366 1487
613.7269435 870.0596366 1487
621.4170909 870.0596366 1487
629.1072383 870.0596366 1487
636.7973858 870.0596366 1487
646.2211916 872.4000794 1491
653.9320254 872.4000794 1491
666.5241948 878.8362973 1502
675.6387041 880.5916295 1505
683.4219401 880.5916295 1505
691.205176 880.5916295 1505
698.988412 880.5916295 1505
705.3628008 878.8362973 1502
711.2313728 876.4958545 1498
712.2589833 868.3043044 1484
719.933616 868.3043044 1484
725.6470404 865.9638616 1480
731.8145658 864.2085294 1477
737.4504165 861.8680865 1473
743.5507113 860.1127544 1470
745.5320694 853.6765365 1459
749.9804525 850.1658722 1453
755.4094398 847.8254293 1449
761.3235575 846.0700972 1446
761.3582236 837.8785471 1432
763.9323169 832.6125507 1423
767.4973575 828.5167757 1416
771.5371854 825.0061113 1410
774.9625932 820.9103363 1403
780.5457295 819.1550042 1400
787.785949 819.1550042 1400
796.7297959 820.9103363 1403
803.9855302 820.9103363 1403
817.0234545 826.7614435 1413
827.8312481 830.2721078 1419
837.5239765 832.6125507 1423
848.445545 836.123215 1429
861.8247939 841.9743222 1439
871.078936 843.7296543 1442
880.9733562 846.0700972 1446
885.9937882 843.7296543 1442
893.4512143 843.7296543 1442
900.9086403 843.7296543 1442
906.4762619 841.9743222 1439
909.4724281 837.8785471 1432
914.9573042 836.123215 1429
922.3474997 836.123215 1429
927.7858315 834.3678828 1426
935.1605122 834.3678828 1426
940.5522998 832.6125507 1423
949.9098737 834.3678828 1426
957.2845544 834.3678828 1426
962.6297977 832.6125507 1423
969.9889637 832.6125507 1423
977.3481296 832.6125507 1423
981.93932 830.2721078 1419
989.2777997 830.2721078 1419
996.6162793 830.2721078 1419
1001.832233 828.5167757 1416
1011.293239 830.2721078 1419
1016.478163 828.5167757 1416
1023.801128 828.5167757 1416
1033.308677 830.2721078 1419
1043.580623 832.6125507 1423
1053.155404 834.3678828 1426
1062.761214 836.123215 1429
1070.151409 836.123215 1429
1079.803763 837.8785471 1432
1090.246371 840.21899 1436
1097.672768 840.21899 1436
1102.020894 837.8785471 1432
1109.426604 837.8785471 1432
1119.951958 840.21899 1436
1129.733601 841.9743222 1439
1137.175513 841.9743222 1439
1144.617424 841.9743222 1439
1152.059335 841.9743222 1439
1161.918553 843.7296543 1442
1169.375979 843.7296543 1442
1176.833405 843.7296543 1442
1187.575965 846.0700972 1446
383.4401396 685.9080356 1162
533.0172597 897.2291 1520
540.8780695 897.2291 1520
547.6558419 895.4582531 1517
552.5716649 890.7359947 1509
558.8901648 888.3748654 1505
566.6734008 888.3748654 1505
573.3115404 886.6040185 1502
578.3711692 882.4720424 1495
586.1026893 882.4720424 1495
593.8342094 882.4720424 1495
599.9561891 880.1109132 1491
607.6670228 880.1109132 1491
615.3778566 880.1109132 1491
623.0886904 880.1109132 1491
632.4918099 882.4720424 1495
640.22333 882.4720424 1495
649.255094 884.2428893 1498
658.7564736 886.6040185 1502
669.6304993 890.7359947 1509
681.0258566 895.4582531 1517
690.2334544 897.2291 1520
698.0942642 897.2291 1520
705.9550739 897.2291 1520
713.8158836 897.2291 1520
718.3531823 893.0971239 1513
720.8982432 886.6040185 1502
726.7254425 884.2428893 1498
731.040363 880.1109132 1491
735.2828813 875.9789371 1484
739.4529974 871.846961 1477
745.0681617 869.4858318 1473
743.9991042 859.4510326 1456
749.9804525 857.6801857 1453
753.8454451 853.5482096 1446
759.2175449 851.1870804 1442
761.3582236 845.2842574 1432
763.9323169 839.9717166 1423
765.8713038 834.0688936 1413
769.3484274 829.9369175 1406
774.9625932 828.1660706 1403
778.8731315 824.6243768 1397
786.0978362 824.6243768 1397
793.3225409 824.6243768 1397
798.8281034 822.8535299 1394
811.2412644 828.1660706 1403
822.5807328 832.2980467 1410
833.4040412 835.8397405 1416
842.5082074 837.6105874 1419
855.8357405 843.5134104 1429
863.2259359 843.5134104 1429
872.4438769 845.2842574 1432
882.3072676 847.6453866 1436
889.7336641 847.6453866 1436
894.6610076 845.2842574 1432
902.0667178 845.2842574 1432
907.5671087 843.5134104 1429
911.115636 839.9717166 1423
918.474802 839.9717166 1423
923.2314831 837.6105874 1419
928.6025844 835.8397405 1416
935.9255492 835.8397405 1416
943.2485141 835.8397405 1416
950.571479 835.8397405 1416
955.8650064 834.0688936 1413
965.2174087 835.8397405 1416
972.5403735 835.8397405 1416
979.8633384 835.8397405 1416
987.1863033 835.8397405 1416
994.5092681 835.8397405 1416
1001.832233 835.8397405 1416
1011.293239 837.6105874 1419
1018.631718 837.6105874 1419
1025.970198 837.6105874 1419
1036.221457 839.9717166 1423
1045.780723 841.7425635 1426
1055.371018 843.5134104 1429
1062.761214 843.5134104 1429
1072.398053 845.2842574 1432
1079.803763 845.2842574 1432
1087.209473 845.2842574 1432
1097.672768 847.6453866 1436
1105.099165 847.6453866 1436
1114.849779 849.4162335 1439
1122.29169 849.4162335 1439
1132.088849 851.1870804 1442
1139.546275 851.1870804 1442
1150.185403 853.5482096 1446
1157.663516 853.5482096 1446
1165.141628 853.5482096 1446
1172.619741 853.5482096 1446
1176.833405 851.1870804 1442
1184.290831 851.1870804 1442
384.1001054 693.1083256 1164
399.8393111 710.3764884 1193
517.5555014 891.9899242 1498
535.8226137 909.8535408 1528
542.3014328 907.4717253 1524
550.1829289 907.4717253 1524
554.0364009 900.9217325 1513
560.3755872 898.539917 1509
566.6734008 896.1581014 1505
574.4566367 896.1581014 1505
579.5317802 891.9899242 1498
587.2788151 891.9899242 1498
595.02585 891.9899242 1498
602.7728848 891.9899242 1498
609.2972496 890.2035625 1495
617.0287697 890.2035625 1495
626.0139894 891.9899242 1498
633.7610242 891.9899242 1498
643.2210312 894.3717397 1502
652.2889963 896.1581014 1505
663.5809218 900.9217325 1513
674.511835 905.0899097 1520
684.1683622 907.4717253 1524
695.6826659 912.2353564 1532
703.6055347 912.2353564 1532
