# .PCD v0.7 - Point Cloud Data file format
VERSION 0.7
FIELDS x y z
SIZE 4 4 4
TYPE F F F
COUNT 1 1 1
WIDTH 1642
HEIGHT 1
VIEWPOINT 0 0 0 1 0 0 0
POINTS 1642
DATA ascii
562.5721709 591.6557664 1298
583.7582333 606.6978621 1331
603.5105892 619.9166735 1360
-266.9124438 657.3755457 1426
-260.0837752 658.7585238 1429
-249.333763 649.999663 1410
-232.4288189 624.1840736 1354
-199.2424423 588.2266454 1276
-191.1337541 583.6167187 1266
-183.1284976 579.006792 1256
-176.6329864 579.006792 1256
-170.8147741 581.3117554 1261
-164.5539813 582.2337407 1263
-159.0232018 585.9216821 1271
-154.3692371 593.2975648 1287
-150.2384223 603.4394035 1309
-145.8800577 613.5812422 1331
-143.2783183 632.4819416 1372
-9.761160602 729.2904021 1582
-1.579712575 729.2904021 1582
6.585043326 727.4464314 1578
14.78318348 729.2904021 1582
22.9065667 727.4464314 1578
30.98857723 725.6024607 1574
39.02921509 723.7584901 1570
47.14860409 723.7584901 1570
55.40880326 725.6024607 1574
64.19486467 732.9783434 1590
73.00977966 738.9712481 1603
82.11130777 746.3471308 1619
90.98710442 750.4960648 1628
100.7497757 760.6379036 1650
109.2828915 760.6379036 1650
117.8160074 760.6379036 1650
125.9662471 758.3329402 1645
134.1465177 756.4889695 1641
142.2854157 754.6449989 1637
150.290851 752.3400355 1632
157.4664779 746.3471308 1619
187.0653837 731.1343728 1586
194.7750401 729.2904021 1582
202.9564881 729.2904021 1582
210.6040855 727.4464314 1578
218.7648471 727.4464314 1578
226.9256088 727.4464314 1578
235.6822802 729.2904021 1582
243.8637282 729.2904021 1582
252.0451762 729.2904021 1582
260.884593 731.1343728 1586
269.7653824 732.9783434 1590
277.9882031 732.9783434 1590
288.551114 738.9712481 1603
296.8411653 738.9712481 1603
305.1312166 738.9712481 1603
313.4212679 738.9712481 1603
321.7113192 738.9712481 1603
330.0013705 738.9712481 1603
337.4472761 737.1272775 1599
343.7707688 732.9783434 1590
351.9935895 732.9783434 1590
359.3102054 731.1343728 1586
366.5854486 729.2904021 1582
372.8717417 725.6024607 1574
380.0435532 723.7584901 1570
387.173992 721.9145194 1566
394.2630582 720.0705487 1562
397.4470409 711.311688 1543
401.4855126 704.396798 1528
407.244304 700.7088566 1520
411.0086817 693.7939666 1505
407.1047013 674.4322745 1463
365.0220969 562.8720486 1221
370.7283526 561.9500633 1219
377.0325152 561.9500633 1219
383.3366777 561.9500633 1219
390.2801198 562.8720486 1221
400.4923613 568.4039607 1233
410.1687552 573.0138874 1243
421.6243532 579.9287774 1258
437.9996638 593.2975648 1287
449.1469638 599.2904695 1300
459.026048 603.4394035 1309
469.7099024 608.5103229 1320
479.4244945 612.1982642 1328
486.2923598 612.1982642 1328
502.6972695 607.1273448 1317
507.1870253 604.3613888 1311
513.1828898 603.4394035 1309
515.5831464 598.3684841 1298
521.0887088 596.9855061 1295
526.5632418 595.6025281 1292
533.2449301 595.6025281 1292
537.8371191 593.2975648 1287
545.7621637 594.6805428 1290
554.574724 596.9855061 1295
563.4390001 599.2904695 1300
587.7055091 617.7301762 1340
-265.0406875 660.0885839 1416
-257.1717105 658.6900912 1413
-244.9129516 645.637492 1385
-197.6809811 590.1639458 1266
-189.6240088 585.5023032 1256
-181.962074 581.7729892 1248
-175.5079355 581.7729892 1248
-170.1374752 585.5023032 1256
-164.2934049 587.8331245 1261
-158.647852 591.0962743 1268
-154.3692371 599.9533951 1287
-150.4679691 611.1413372 1311
-146.2088632 621.8631151 1334
-143.9048998 642.3743423 1378
-17.98797553 739.3365071 1586
-9.810521717 741.2011641 1590
-1.587701008 741.2011641 1590
6.635119701 741.2011641 1590
14.85794041 741.2011641 1590
23.08076112 741.2011641 1590
31.30358183 741.2011641 1590
39.52640254 741.2011641 1590
47.74922325 741.2011641 1590
56.14805667 743.5319854 1595
65.04272137 750.9906135 1611
73.73851108 754.7199275 1619
82.77063266 760.7800628 1632
91.49010438 763.1108841 1637
100.9940176 771.0356764 1654
109.5478198 771.0356764 1654
117.8160074 769.1710194 1650
126.3491232 769.1710194 1650
134.1465177 764.9755411 1641
142.2854157 763.1108841 1637
150.290851 760.7800628 1632
157.9527858 757.0507488 1624
165.429542 752.8552705 1615
173.7816523 752.8552705 1615
187.5371753 741.2011641 1590
195.759996 741.2011641 1590
202.9564881 737.4718501 1582
212.2056374 741.2011641 1590
219.3193841 737.4718501 1582
228.0760555 739.3365071 1586
236.2781899 739.3365071 1586
244.4803242 739.3365071 1586
253.319741 741.2011641 1590
262.3650226 743.5319854 1595
270.6137012 743.5319854 1595
279.5617212 745.3966424 1599
288.551114 747.2612994 1603
297.5818793 749.1259565 1607
305.1312166 747.2612994 1603
313.4212679 747.2612994 1603
321.7113192 747.2612994 1603
330.0013705 747.2612994 1603
337.4472761 745.3966424 1599
343.7707688 741.2011641 1590
351.108071 739.3365071 1586
359.3102054 739.3365071 1586
367.5123398 739.3365071 1586
374.7668966 737.4718501 1582
381.9800808 735.6071931 1578
390.1408425 735.6071931 1578
397.2919677 733.7425361 1574
402.3410745 728.148565 1562
407.5288155 723.0207582 1551
414.4782489 721.1561012 1547
412.9483095 691.7877532 1484
361.4346561 563.5925833 1209
366.1664779 561.261762 1204
373.3209564 562.6602548 1207
379.5630599 562.6602548 1207
385.8051634 562.6602548 1207
396.5946255 569.1865544 1221
407.8588748 576.1790182 1236
419.2782717 583.171482 1251
440.7222725 603.6827092 1295
474.8061643 631.1864002 1354
485.0110584 635.3818784 1363
500.207352 636.7803712 1366
503.9295373 632.5848929 1357
515.6750274 629.7879074 1351
521.5012281 628.3894146 1348
524.1600639 623.2616078 1337
529.882833 621.8631151 1334
536.7817279 621.8631151 1334
543.6806227 621.8631151 1334
550.5795176 621.8631151 1334
557.4784124 621.8631151 1334
564.3773073 621.8631151 1334
575.1303894 626.0585934 1343
586.8433893 631.1864002 1354
-272.3636523 667.4115488 1416
-263.9176337 664.5835337 1410
-255.3516701 661.2841829 1403
-242.6141297 646.6727718 1372
-197.2125428 595.2971653 1263
-189.1710852 590.5838069 1253
-181.2330593 585.8704485 1243
-174.8047787 585.8704485 1243
-169.7310959 590.5838069 1253
-164.2934049 594.3544936 1261
-159.0232018 599.067852 1271
-154.7290722 608.023233 1290
-151.1566097 620.7493007 1317
-147.4144835 633.9467042 1345
-145.2624932 655.6281528 1391
-18.03334243 749.4239849 1590
-9.841372415 751.7806641 1595
-1.596687995 753.6660074 1599
6.689369108 755.5513508 1603
15.01679889 757.4366941 1607
23.38560136 759.3220375 1611
31.87452766 763.0927242 1619
40.24732435 763.0927242 1619
48.77027582 765.4494034 1624
57.30974061 767.3347468 1628
66.09244872 771.5767693 1637
74.74051679 773.4621127 1641
83.68354405 777.7041352 1650
92.44021542 779.5894786 1654
100.9940176 779.5894786 1654
109.5478198 779.5894786 1654
118.1016219 779.5894786 1654
125.9662471 775.347456 1645
134.1465177 773.4621127 1641
142.2854157 771.5767693 1637
150.7513009 771.5767693 1637
157.9527858 765.4494034 1624
165.8392746 763.0927242 1619
173.7816523 761.2073808 1615
181.2315521 757.4366941 1607
189.0704981 755.5513508 1603
196.3755935 751.7806641 1595
203.9828167 749.4239849 1590
212.8729508 751.7806641 1595
219.8739211 747.5386415 1586
228.0760555 747.5386415 1586
236.8740996 749.4239849 1590
245.0969203 749.4239849 1590
254.7536263 753.6660074 1599
263.68096 755.5513508 1603
271.9710113 755.5513508 1603
280.2610626 755.5513508 1603
289.2711417 757.4366941 1607
297.5818793 757.4366941 1607
305.892617 757.4366941 1607
313.4212679 755.5513508 1603
321.7113192 755.5513508 1603
329.1779111 753.6660074 1599
337.4472761 753.6660074 1599
343.7707688 749.4239849 1590
351.9935895 749.4239849 1590
359.3102054 747.5386415 1586
367.5123398 747.5386415 1586
375.7144741 747.5386415 1586
383.9166085 747.5386415 1586
391.1297927 745.6532981 1582
399.3112407 745.6532981 1582
404.4017202 739.9972681 1570
410.4190908 736.2265813 1562
418.4971071 736.2265813 1562
361.4346561 569.84503 1209
363.4293531 563.2463282 1195
370.2279907 564.1889999 1197
376.4183784 564.1889999 1197
383.5676853 565.6030074 1200
392.0472669 568.9023583 1207
404.5590457 577.8577393 1226
418.2728082 588.2271277 1248
441.7432507 611.7939197 1298
457.7844054 624.5199874 1325
473.7541565 636.7747192 1351
492.8395567 652.8001377 1385
502.168277 655.6281528 1391
508.2634002 654.2141453 1388
537.8271034 638.1887267 1354
544.8294299 638.1887267 1354
551.8317565 638.1887267 1354
560.0722679 639.6027342 1357
568.3438088 641.0167418 1360
576.6463792 642.4307493 1363
587.5494373 646.6727718 1372
-271.7866107 673.3049914 1413
-262.6074043 668.5399171 1403
-253.7136337 664.2513503 1394
-196.9002506 600.8758628 1261
-188.8691361 596.1107885 1251
-180.9414534 591.3457143 1241
-174.523516 591.3457143 1241
-169.7310959 597.0638034 1253
-164.2934049 600.8758628 1261
-159.0232018 605.640937 1271
-155.3287973 617.0771152 1295
-152.0747972 631.372338 1325
-148.4009001 645.1910533 1354
-146.2023656 667.1103948 1400
-18.09005105 760.0293427 1595
-9.841372415 760.0293427 1595
-1.596687995 761.9353724 1599
6.706061233 765.7474318 1607
15.09155583 769.5594912 1615
23.50173098 771.4655209 1619
32.05171775 775.7540877 1628
40.57049619 777.6601174 1632
49.16067828 780.0426545 1637
57.76737367 781.9486842 1641
66.41544175 783.8547139 1645
75.15042822 786.2372511 1650
83.88641325 788.1432808 1654
92.44021542 788.1432808 1654
101.2382595 790.0493105 1658
109.5478198 788.1432808 1654
117.8160074 786.2372511 1650
125.9662471 783.8547139 1645
134.1465177 781.9486842 1641
142.2854157 780.0426545 1637
150.290851 777.6601174 1632
157.4664779 771.4655209 1619
165.8392746 771.4655209 1619
173.7816523 769.5594912 1615
181.6826574 767.6534615 1611
189.0704981 763.8414021 1603
197.3605494 763.8414021 1603
205.1374364 761.9353724 1599
213.4068014 761.9353724 1599
221.6761664 761.9353724 1599
229.9455314 761.9353724 1599
238.810806 763.8414021 1603
247.1008574 763.8414021 1603
256.028191 765.7474318 1607
264.3389287 765.7474318 1607
280.960404 765.7474318 1607
289.9911694 767.6534615 1611
297.5818793 765.7474318 1607
305.892617 765.7474318 1607
313.4212679 763.8414021 1603
321.7113192 763.8414021 1603
329.1779111 761.9353724 1599
337.4472761 761.9353724 1599
344.8518089 760.0293427 1595
351.9935895 757.6468056 1590
360.2164102 757.6468056 1590
368.4392309 757.6468056 1590
376.6620516 757.6468056 1590
384.8848723 757.6468056 1590
393.107693 757.6468056 1590
401.3305138 757.6468056 1590
407.4926888 753.8347462 1582
414.6231276 751.9287165 1578
422.7838893 751.9287165 1578
357.2493086 569.4263727 1195
360.6922283 565.1378059 1186
367.4443216 566.0908208 1188
374.5315695 567.520343 1191
379.7320084 566.0908208 1188
387.4999084 568.4733579 1193
401.2592166 579.4330287 1216
416.5970358 592.2987291 1243
442.4239029 619.4596523 1300
460.8938844 635.6609048 1334
477.9621875 649.4796201 1363
500.3122143 669.9694394 1406
510.1105502 673.3049914 1413
-271.2095691 679.1674044 1410
-262.0458775 674.3506143 1400
-252.6216095 668.5704662 1388
-195.6510817 603.5437998 1253
-188.1142635 600.1720468 1246
-180.5040446 596.3186147 1238
-174.1016219 596.3186147 1238
-169.7310959 603.5437998 1253
-164.2934049 607.3972319 1261
-159.6487848 614.6224171 1276
-156.2883574 627.6277503 1303
-153.1077581 642.5597997 1334
-149.3873168 656.5284909 1363
-147.559959 680.6124415 1413
-18.03334243 765.8696263 1590
-9.841372415 768.2780213 1595
-1.596687995 770.2047374 1599
6.706061233 774.0581694 1607
15.09155583 777.9116015 1615
23.57431199 782.2467126 1624
32.1304689 786.1001447 1632
40.69479305 788.5085398 1637
49.40092594 792.3619718 1645
57.90818384 792.3619718 1645
66.77880891 796.6970829 1654
75.33261108 796.6970829 1654
84.08928245 798.623799 1658
92.66377096 798.623799 1658
101.2382595 798.623799 1658
109.5478198 796.6970829 1654
117.8160074 794.7703669 1650
125.3536453 788.5085398 1637
133.4107964 786.1001447 1632
141.1554765 782.2467126 1624
149.5541312 782.2467126 1624
157.0774317 777.9116015 1615
165.429542 777.9116015 1615
173.7816523 777.9116015 1615
181.6826574 775.9848855 1611
189.5422898 774.0581694 1607
197.8530274 774.0581694 1607
206.1637651 774.0581694 1607
213.9406521 772.1314534 1603
222.2307034 772.1314534 1603
231.6712014 775.9848855 1611
240.5985351 777.9116015 1615
248.9506454 777.9116015 1615
257.9400381 779.8383176 1619
265.6548661 777.9116015 1615
274.0069765 777.9116015 1615
282.3590868 777.9116015 1615
289.9911694 775.9848855 1611
298.3225934 775.9848855 1611
305.892617 774.0581694 1607
313.4212679 772.1314534 1603
321.7113192 772.1314534 1603
329.1779111 770.2047374 1599
336.6031303 768.2780213 1595
343.7707688 765.8696263 1590
351.9935895 765.8696263 1590
361.3491662 768.2780213 1595
368.4392309 765.8696263 1590
377.8465235 768.2780213 1595
386.0952021 768.2780213 1595
394.3438808 768.2780213 1595
402.5925594 768.2780213 1595
409.5533345 765.8696263 1590
417.7761552 765.8696263 1590
424.9272803 763.9429102 1586
352.4660543 567.8995531 1179
357.9551034 566.936195 1177
364.0420594 566.936195 1177
370.1290153 566.936195 1177
376.2159713 566.936195 1177
382.9525499 567.8995531 1179
397.2994217 579.9415283 1204
414.9212633 596.3186147 1238
464.0033634 646.8949107 1343
484.274234 665.1987131 1381
509.564076 689.7643427 1432
-270.4401802 684.5119374 1406
-260.3612968 677.2091785 1391
-250.8015691 670.8801207 1378
-194.8703511 607.5895433 1248
-187.3593909 604.1815891 1241
-180.2124387 601.7473361 1236
-173.3984651 600.2867844 1233
-169.4601763 609.0500951 1251
-164.5539813 614.8923022 1263
-159.6487848 621.22136 1276
-157.2479175 638.2611308 1311
-154.140719 653.8403499 1343
-150.7025389 669.4195689 1375
-148.6042616 692.7883975 1423
-42.48695271 770.1976422 1582
-34.30550468 770.1976422 1582
-26.12405665 770.1976422 1582
-17.94260863 770.1976422 1582
-9.78584116 772.1450446 1586
-1.587701008 774.092447 1590
6.689369108 780.4215047 1603
15.05417736 784.3163095 1611
23.57431199 790.6453672 1624
32.22890783 796.974425 1637
40.79423054 798.9218274 1641
49.55108073 803.3034827 1650
58.08419656 803.3034827 1650
66.77880891 805.2508851 1654
75.51479393 807.1982875 1658
84.08928245 807.1982875 1658
92.44021542 805.2508851 1654
100.7497757 803.3034827 1650
108.9517313 800.8692297 1645
117.1733746 798.9218274 1641
124.9707691 794.540172 1632
133.0838092 792.5927696 1628
140.7208846 788.2111143 1619
149.0936812 788.2111143 1619
157.0774317 786.2637119 1615
165.429542 786.2637119 1615
173.7816523 786.2637119 1615
182.1337627 786.2637119 1615
190.0140814 784.3163095 1611
198.3455054 784.3163095 1611
207.1900937 786.2637119 1615
215.5422041 786.2637119 1615
224.4488514 788.2111143 1619
232.8216481 788.2111143 1619
242.5352416 792.5927696 1628
250.9545825 792.5927696 1628
259.3739235 792.5927696 1628
267.7932644 792.5927696 1628
274.6856315 788.2111143 1619
282.3590868 786.2637119 1615
290.7111971 786.2637119 1615
297.5818793 782.3689071 1607
305.892617 782.3689071 1607
312.6391812 778.4741023 1599
320.9085461 778.4741023 1599
328.3544517 776.5267 1595
335.5479481 774.092447 1590
342.9059367 772.1450446 1586
351.108071 772.1450446 1586
360.2164102 774.092447 1590
368.4392309 774.092447 1590
377.8465235 776.5267 1595
386.0952021 776.5267 1595
394.3438808 776.5267 1595
403.6021959 778.4741023 1599
410.841238 776.5267 1595
419.0899167 776.5267 1595
427.3385953 776.5267 1595
351.2702407 572.0494498 1175
357.3468535 572.0494498 1175
363.4234662 572.0494498 1175
369.500079 572.0494498 1175
375.5766918 572.0494498 1175
381.6533046 572.0494498 1175
397.2994217 586.1681171 1204
414.9212633 602.7210373 1238
467.8038377 659.1957064 1354
488.8329343 678.6697302 1394
519.1717785 710.315019 1459
-269.8631386 690.3071199 1403
-260.3612968 684.4028537 1391
-249.7095448 675.0544322 1372
-194.0896205 611.5835709 1243
-186.9064673 609.12346 1238
-179.7750299 606.6633491 1233
-173.3984651 606.6633491 1233
-170.1374752 617.9798593 1256
-165.5962868 625.360192 1271
-161.4004173 634.7086134 1290
-159.2869828 653.4054563 1328
-156.0918673 669.1501661 1360
-152.784974 685.8789202 1394
-150.2751458 708.0199184 1439
-75.21274481 778.3790902 1582
-67.03129679 778.3790902 1582
-58.84984876 778.3790902 1582
-50.66840073 778.3790902 1582
-42.48695271 778.3790902 1582
-34.30550468 778.3790902 1582
-26.05800341 776.4110015 1578
-17.94260863 778.3790902 1582
-9.761160602 778.3790902 1582
-1.583706792 780.347179 1586
6.672676983 786.7434673 1599
15.05417736 792.6477335 1611
23.50173098 796.5839109 1619
32.1304689 802.9801993 1632
40.79423054 807.4083989 1641
49.55108073 811.8365985 1650
58.08419656 811.8365985 1650
66.77880891 813.8046873 1654
75.33261108 813.8046873 1654
83.88641325 813.8046873 1654
91.93721546 809.3764876 1645
100.4444734 809.3764876 1645
108.4218748 805.4403102 1637
116.5307418 802.9801993 1632
124.6644682 801.0121106 1628
132.7568219 799.0440218 1624
140.7208846 796.5839109 1619
148.7253213 794.6158222 1615
156.6883854 792.6477335 1611
165.0198094 792.6477335 1611
173.3512334 792.6477335 1611
181.6826574 792.6477335 1611
190.0140814 792.6477335 1611
198.3455054 792.6477335 1611
206.6769294 792.6477335 1611
215.5422041 794.6158222 1615
224.4488514 796.5839109 1619
234.1159006 801.0121106 1628
242.5352416 801.0121106 1628
251.5711785 802.9801993 1632
260.0112058 802.9801993 1632
267.7932644 801.0121106 1628
276.2126054 801.0121106 1628
282.3590868 794.6158222 1615
290.7111971 794.6158222 1615
297.5818793 790.6796448 1607
305.1312166 788.711556 1603
311.8570944 784.7753786 1595
320.105773 784.7753786 1595
327.3251274 782.3152677 1590
334.7038023 780.347179 1586
342.9059367 780.347179 1586
351.108071 780.347179 1586
360.2164102 782.3152677 1590
368.4392309 782.3152677 1590
376.6620516 782.3152677 1590
384.8848723 782.3152677 1590
394.3438808 784.7753786 1595
402.5925594 784.7753786 1595
410.841238 784.7753786 1595
417.7761552 782.3152677 1590
425.9989759 782.3152677 1590
351.8681475 579.110107 1177
357.3468535 578.1260626 1175
363.4234662 578.1260626 1175
369.500079 578.1260626 1175
374.9374123 577.1420182 1173
381.6533046 578.1260626 1175
396.6394559 591.4106615 1202
414.2509543 608.1394156 1236
465.7308517 663.2458999 1348
487.7809265 684.4028537 1391
519.1717785 717.860362 1459
-336.8369872 701.0432105 1410
-278.5015044 701.0432105 1410
-269.286097 696.0712728 1400
-259.2382431 688.6133663 1385
-248.0715084 677.6751035 1363
-193.7773283 617.017464 1241
-186.6045182 614.5314951 1236
-179.7750299 613.0399138 1233
-173.1172024 612.0455263 1231
-170.4083947 625.469758 1258
-165.9871514 633.4248583 1274
-164.4032157 653.3126089 1314
-160.366488 664.7480655 1337
-157.1248282 680.658266 1369
-153.7713906 697.5628541 1403
-151.0061576 718.9421861 1446
-145.9102534 730.8748364 1470
-83.60505047 788.5493133 1586
-75.4029161 788.5493133 1586
-67.20078174 788.5493133 1586
-58.99864737 788.5493133 1586
-50.796513 788.5493133 1586
-42.48695271 786.5605383 1582
-34.2187651 784.5717632 1578
-26.05800341 784.5717632 1578
-17.89724173 784.5717632 1578
-9.736480044 784.5717632 1578
-1.579712575 786.5605383 1582
6.655984858 793.0240572 1595
14.97942043 797.0016074 1603
23.44366617 802.9679326 1615
32.05171775 809.4314515 1628
40.69479305 813.9061954 1637
49.28080211 815.8949705 1641
57.90818384 817.8837455 1645
66.41544175 817.8837455 1645
74.92269965 817.8837455 1645
83.42995755 817.8837455 1645
91.49010438 813.9061954 1637
99.9559896 813.9061954 1637
108.0907145 811.4202266 1632
116.2451273 809.4314515 1628
124.3581673 807.4426765 1624
132.3480879 804.9567076 1619
140.373211 802.9679326 1615
148.7253213 802.9679326 1615
156.6883854 800.9791575 1611
165.429542 802.9679326 1615
173.3512334 800.9791575 1611
182.1337627 802.9679326 1615
190.485873 802.9679326 1615
198.8379834 802.9679326 1615
207.1900937 802.9679326 1615
215.5422041 802.9679326 1615
224.4488514 804.9567076 1619
234.1159006 809.4314515 1628
243.1311512 811.4202266 1632
251.5711785 811.4202266 1632
260.0112058 811.4202266 1632
267.7932644 809.4314515 1628
276.2126054 809.4314515 1628
283.0584282 804.9567076 1619
290.7111971 802.9679326 1615
298.3225934 800.9791575 1611
305.1312166 797.0016074 1603
311.8570944 793.0240572 1595
319.1023067 790.5380884 1590
327.3251274 790.5380884 1590
334.7038023 788.5493133 1586
342.0411045 786.5605383 1582
350.2225526 786.5605383 1582
358.4040006 786.5605383 1582
367.5123398 788.5493133 1586
375.7144741 788.5493133 1586
383.9166085 788.5493133 1586
392.1187429 788.5493133 1586
400.3208772 788.5493133 1586
408.5230116 788.5493133 1586
415.6741368 786.5605383 1582
423.8555848 786.5605383 1582
351.8681475 585.1970629 1177
357.9551034 585.1970629 1177
364.0420594 585.1970629 1177
370.1290153 585.1970629 1177
375.5766918 584.2026754 1175
381.003682 583.2082879 1173
396.6394559 597.6269071 1202
414.2509543 614.5314951 1236
464.6943587 668.7256157 1345
486.7289188 690.1049476 1388
520.5951419 727.3944801 1463
-277.7114292 706.3256844 1406
-269.286097 703.3114923 1400
-257.3664868 690.7523585 1375
-246.9794842 681.7097822 1357
-192.9965977 620.9235746 1236
-186.1515946 619.4164786 1233
-179.483424 618.4117479 1231
-172.6953084 616.9046518 1228
-170.8147741 633.4827084 1261
-166.6385923 642.5252847 1279
-165.5292652 664.6293602 1323
-161.3260481 675.681398 1345
-157.8134688 690.7523585 1375
-156.9498442 719.3871835 1432
-151.7371694 729.9368559 1453
-146.2080294 739.984163 1473
-92.03872881 798.7609091 1590
-83.8159081 798.7609091 1590
-75.59308739 798.7609091 1590
-67.37026668 798.7609091 1590
-59.14744597 798.7609091 1590
-50.796513 796.7514477 1586
-42.59437863 796.7514477 1586
-34.30550468 794.7419863 1582
-26.05800341 792.7325249 1578
-17.89724173 792.7325249 1578
-9.736480044 792.7325249 1578
-1.579712575 794.7419863 1582
6.655984858 801.2727359 1595
14.94204196 803.2821973 1599
23.26947175 805.2916587 1603
31.71702536 809.3105815 1611
40.37162121 815.8413311 1624
48.89039965 817.8507925 1628
57.45055078 819.8602539 1632
65.89057807 819.8602539 1632
74.33060537 819.8602539 1632
82.77063266 819.8602539 1632
90.98710442 817.8507925 1628
99.16220349 815.8413311 1624
107.2296978 813.3295043 1619
115.3168799 811.3200429 1615
123.0563885 807.3011201 1607
131.3671261 807.3011201 1607
139.3301902 805.2916587 1603
147.6202415 805.2916587 1603
156.2993391 807.3011201 1607
164.6100768 807.3011201 1607
172.9208144 807.3011201 1607
181.6826574 809.3105815 1611
190.0140814 809.3105815 1611
198.8379834 811.3200429 1615
207.1900937 811.3200429 1615
216.0760547 813.3295043 1619
224.4488514 813.3295043 1619
234.691124 819.8602539 1632
243.1311512 819.8602539 1632
251.5711785 819.8602539 1632
260.8078088 822.3720806 1637
268.4512331 819.8602539 1632
276.2126054 817.8507925 1628
283.0584282 813.3295043 1619
290.7111971 811.3200429 1615
298.3225934 809.3105815 1611
305.892617 807.3011201 1607
312.6391812 803.2821973 1599
319.1023067 798.7609091 1590
326.5016679 796.7514477 1586
333.8596565 794.7419863 1582
342.0411045 794.7419863 1582
348.4515156 790.7230635 1574
357.4977958 792.7325249 1578
364.7316663 790.7230635 1574
372.8717417 790.7230635 1574
380.0435532 788.7136021 1570
387.173992 786.7041407 1566
394.2630582 784.6946793 1562
401.3107516 782.6852179 1558
409.3680816 782.6852179 1558
416.6216399 781.1781218 1555
353.063961 593.2934803 1181
358.5633534 592.2887496 1179
364.6606525 592.2887496 1179
370.7579516 592.2887496 1179
375.5766918 590.2792882 1175
381.6533046 590.2792882 1175
397.2994217 604.8478834 1204
414.2509543 620.9235746 1236
444.4658593 656.0891492 1306
464.0033634 674.6766673 1343
485.676911 695.776012 1385
521.6626644 736.4676055 1466
-277.1188728 712.0743226 1403
-267.554972 705.9838794 1391
-191.7474288 623.2553586 1228
-185.8496456 624.7779694 1231
-179.0460152 623.2553586 1228
-172.4140456 622.2402848 1226
-171.0856936 641.0191514 1263
-167.0294569 650.6623532 1282
-166.1548482 674.0090523 1328
-162.4055533 687.2050127 1354
-158.9612031 702.9386577 1385
-157.7170571 730.3456523 1439
-152.363751 740.4963911 1459
-146.9028402 751.1546667 1480
-143.0123774 771.4561442 1520
-108.2114536 804.9535821 1586
-100.2615495 806.9837298 1590
-92.32815878 809.5214145 1595
-84.07948014 809.5214145 1595
-76.02097279 811.5515623 1599
-67.58212287 809.5214145 1595
-59.33344423 809.5214145 1595
-51.0847656 809.5214145 1595
-42.70180455 806.9837298 1590
-34.30550468 802.9234343 1582
-26.12405665 802.9234343 1582
-17.94260863 802.9234343 1582
-9.761160602 802.9234343 1582
-1.579712575 802.9234343 1582
6.635119701 806.9837298 1590
14.94204196 811.5515623 1599
23.26947175 813.58171 1603
31.63827421 815.6118577 1607
40.24732435 821.702301 1619
48.77027582 824.2399857 1624
57.16893043 824.2399857 1624
65.72908156 826.2701334 1628
74.14842251 826.2701334 1628
82.56776346 826.2701334 1628
90.48410445 821.702301 1619
98.85690114 821.702301 1619
106.9647696 819.6721532 1615
115.0312654 817.6420055 1611
122.7500876 813.58171 1603
130.7131516 811.5515623 1599
138.9825166 811.5515623 1599
147.6202415 813.58171 1603
155.9102928 813.58171 1603
164.2003442 813.58171 1603
172.9208144 815.6118577 1607
181.2315521 815.6118577 1607
190.0140814 817.6420055 1611
198.8379834 819.6721532 1615
207.1900937 819.6721532 1615
216.0760547 821.702301 1619
225.6965597 826.2701334 1628
235.4101531 830.8379659 1637
243.8760384 830.8379659 1637
252.3419236 830.8379659 1637
261.4450912 832.8681136 1641
269.273694 830.8379659 1637
277.7395792 830.8379659 1637
283.9326049 824.2399857 1624
290.7111971 819.6721532 1615
298.3225934 817.6420055 1611
305.892617 815.6118577 1607
312.6391812 811.5515623 1599
319.1023067 806.9837298 1590
326.5016679 804.9535821 1586
333.8596565 802.9234343 1582
341.1762724 800.8932866 1578
348.4515156 798.8631388 1574
356.591591 798.8631388 1574
363.8047752 796.8329911 1570
371.9241642 796.8329911 1570
379.0752894 794.8028433 1566
385.1960917 790.7425478 1558
392.4961943 789.219937 1555
399.5076866 787.1897893 1551
406.4778063 785.1596415 1547
413.4065533 783.1294938 1543
353.9608212 600.9237334 1184
360.0839783 600.9237334 1184
366.2071353 600.9237334 1184
371.3868879 599.4011226 1181
376.8552508 598.3860487 1179
382.3029273 597.3709748 1177
398.9493363 613.6121568 1209
415.9267268 629.8533388 1241
464.6943587 682.6371803 1345
485.676911 702.9386577 1385
523.0860277 746.0792974 1470
531.7712954 747.6019082 1473
-277.1188728 719.3300568 1403
-267.554972 713.1775546 1391
-217.3226623 649.0889893 1266
-191.7474288 629.6060654 1228
-185.8496456 631.144191 1231
-179.0460152 629.6060654 1228
-172.6953084 629.6060654 1228
-171.7629925 650.1144063 1268
-168.3323388 662.4194109 1292
-167.6562474 687.0294199 1340
-163.8448935 700.3598415 1366
-159.994164 714.7156801 1394
-159.2514829 744.965483 1453
-153.8257746 755.2196534 1473
-147.9946856 764.4484068 1491
-144.1414225 785.4694562 1532
-137.9079484 795.2109182 1551
-131.1429783 802.901546 1566
-124.301433 811.1048823 1582
-117.3677977 819.8209272 1599
-109.3713494 821.8717613 1603
-101.081298 821.8717613 1603
-93.25433466 825.9734295 1611
-84.92291066 825.9734295 1611
-76.59148666 825.9734295 1611
-68.26006266 825.9734295 1611
-59.77984005 823.9225954 1607
-51.34099012 821.8717613 1603
-43.05093881 821.8717613 1603
-34.58740832 817.7700931 1595
-26.25616314 815.2065505 1590
-17.98797553 813.1557164 1586
-9.78584116 813.1557164 1586
-1.583706792 813.1557164 1586
6.635119701 815.2065505 1590
14.90466349 817.7700931 1595
23.21140694 819.8209272 1599
31.63827421 823.9225954 1607
40.14788686 828.0242636 1615
48.4999972 828.0242636 1615
56.85210754 828.0242636 1615
65.3657144 830.0750977 1619
73.73851108 830.0750977 1619
82.11130777 830.0750977 1619
90.03699338 825.9734295 1611
98.36841738 825.9734295 1611
106.4349132 823.9225954 1607
114.7456508 823.9225954 1607
122.4437867 819.8209272 1599
130.7131516 819.8209272 1599
138.9825166 819.8209272 1599
147.6202415 821.8717613 1603
155.5212466 819.8209272 1599
164.2003442 821.8717613 1603
172.4903955 821.8717613 1603
181.2315521 823.9225954 1607
190.0140814 825.9734295 1611
198.8379834 828.0242636 1615
207.1900937 828.0242636 1615
216.0760547 830.0750977 1619
225.1420227 832.6386403 1624
235.4101531 839.3038511 1637
244.471948 841.3546852 1641
252.3419236 839.3038511 1637
261.4450912 841.3546852 1641
269.273694 839.3038511 1637
276.8912604 836.7403085 1632
283.0584282 830.0750977 1619
290.7111971 828.0242636 1615
298.3225934 825.9734295 1611
305.1312166 821.8717613 1603
312.6391812 819.8209272 1599
319.1023067 815.2065505 1590
326.5016679 813.1557164 1586
333.8596565 811.1048823 1582
341.1762724 809.0540483 1578
348.4515156 807.0032142 1574
355.6853862 804.9523801 1570
363.8047752 804.9523801 1570
370.9765867 802.901546 1566
377.1387617 798.7998778 1558
383.4654289 795.2109182 1551
391.4865578 795.2109182 1551
397.4470409 791.10925 1543
404.3757879 789.0584159 1539
411.2631622 787.0075818 1535
355.1566348 609.0977245 1188
360.6922283 608.0723075 1186
366.8257285 608.0723075 1186
372.3302924 607.0468905 1184
377.4945302 605.5087649 1181
382.9525499 604.4833478 1179
399.6093021 620.8900206 1211
416.5970358 637.2966933 1243
464.6943587 689.5929626 1345
486.7289188 711.639429 1388
524.1535502 755.2196534 1473
533.2153451 757.2704875 1477
-275.9337601 723.4785105 1397
-269.286097 725.0321508 1400
-259.7997699 718.8175895 1388
-216.464358 653.0468158 1261
-197.7755002 634.921012 1226
-191.7474288 635.9567723 1228
-185.8496456 637.5104126 1231
-179.483424 637.5104126 1231
-172.6953084 635.9567723 1228
-172.1693718 658.2256169 1271
-168.7232033 670.6547395 1295
-168.0315972 695.5129846 1343
-163.8448935 707.4242271 1366
-159.994164 721.9248701 1394
-159.5802885 754.0334368 1456
-154.2434957 764.9089191 1477
-148.6894963 775.7844013 1498
-144.8000322 797.0174857 1539
-138.5303569 806.8572078 1558
-131.8129296 815.1432895 1574
-124.9300116 823.4293712 1590
-117.9550037 832.2333331 1607
-109.9171827 834.3048535 1611
-101.5857587 834.3048535 1611
-93.71742261 838.4478944 1619
-85.34462592 838.4478944 1619
-76.97182924 838.4478944 1619
-68.42954761 836.3763739 1615
-60.07743726 836.3763739 1615
-51.59721465 834.3048535 1611
-43.15836473 832.2333331 1607
-34.6741479 828.0902922 1599
-26.33872969 826.0187718 1595
-18.09005105 826.0187718 1595
-9.810521717 823.4293712 1590
-1.587701008 823.4293712 1590
6.655984858 826.0187718 1595
14.90466349 826.0187718 1595
23.21140694 828.0902922 1599
31.55952306 830.1618126 1603
39.94901187 832.2333331 1607
48.37987337 834.3048535 1611
56.71129737 834.3048535 1611
65.04272137 834.3048535 1611
73.37414537 834.3048535 1611
81.70556937 834.3048535 1611
89.81343784 832.2333331 1607
97.87993362 830.1618126 1603
106.1699849 830.1618126 1603
114.4600363 830.1618126 1603
122.4437867 828.0902922 1599
130.7131516 828.0902922 1599
138.9825166 828.0902922 1599
147.6202415 830.1618126 1603
155.5212466 828.0902922 1599
164.2003442 830.1618126 1603
172.4903955 830.1618126 1603
181.6826574 834.3048535 1611
190.0140814 834.3048535 1611
198.8379834 836.3763739 1615
207.1900937 836.3763739 1615
216.0760547 838.4478944 1619
225.1420227 841.0372949 1624
234.691124 845.1803358 1632
243.8760384 847.7697363 1637
251.5711785 845.1803358 1632
260.0112058 845.1803358 1632
267.7932644 843.1088153 1628
276.2126054 843.1088153 1628
283.9326049 841.0372949 1624
289.9911694 834.3048535 1611
298.3225934 834.3048535 1611
305.1312166 830.1618126 1603
312.6391812 828.0902922 1599
319.1023067 823.4293712 1590
327.3251274 823.4293712 1590
334.7038023 821.3578508 1586
342.0411045 819.2863304 1582
349.3370341 817.2148099 1578
356.591591 815.1432895 1574
363.8047752 813.0717691 1570
370.9765867 811.0002487 1566
376.4125638 805.3035675 1555
383.4654289 803.232047 1551
389.4672847 799.0890062 1543
396.4167181 797.0174857 1539
402.5365218 793.392325 1532
410.4593906 793.392325 1532
408.277727 774.230761 1495
356.053495 616.7952083 1191
361.3004782 615.2415679 1188
367.4443216 615.2415679 1188
372.9592287 614.2058077 1186
378.4534495 613.1700475 1184
383.6021725 611.6164072 1181
400.5992508 628.7064507 1214
417.6024992 645.2786142 1246
465.7308517 698.1023852 1348
487.7809265 720.3712298 1391
525.5769136 764.9089191 1477
534.2983824 766.4625594 1480
-275.9337601 730.7032152 1397
-268.7090553 730.7032152 1397
-259.7997699 725.99575 1388
-215.9493753 657.9990299 1258
-197.7755002 641.2613757 1226
-191.7474288 642.3074791 1228
-185.8496456 643.8766341 1231
-179.483424 643.8766341 1231
-172.6953084 642.3074791 1228
-172.1693718 664.7987019 1271
-168.7232033 677.3519425 1295
-168.2818304 703.5045271 1345
-164.2047285 716.0577678 1369
-160.3384843 730.7032152 1397
-160.3475014 765.2246269 1463
-154.9745075 776.2087125 1484
-149.384307 787.192798 1505
-145.1763805 807.0687624 1543
-139.2416809 819.0989513 1566
-132.8178567 829.5599852 1586
-126.5800307 842.6362775 1611
-118.5422097 844.7284843 1615
-110.1900993 844.7284843 1615
-102.0902193 846.820691 1619
-94.23839654 851.5281563 1628
-85.81905559 851.5281563 1628
-77.39971464 851.5281563 1628
-68.81088874 849.4359495 1624
-60.22623587 846.820691 1619
-51.72532692 844.7284843 1615
-43.26579065 842.6362775 1611
-34.76088749 838.451864 1603
-26.40478293 836.3596572 1599
-18.09005105 834.2674504 1595
-9.841372415 834.2674504 1595
-1.587701008 831.6521919 1590
6.635119701 831.6521919 1590
14.85794041 831.6521919 1590
23.15334213 834.2674504 1595
31.40202077 834.2674504 1595
39.6506994 834.2674504 1595
48.01950187 836.3596572 1599
56.28886685 836.3596572 1599
64.55823183 836.3596572 1599
72.8275968 836.3596572 1599
81.09696178 836.3596572 1599
89.36632676 836.3596572 1599
97.63569174 836.3596572 1599
105.9050567 836.3596572 1599
114.1744217 836.3596572 1599
122.4437867 836.3596572 1599
131.0401389 838.451864 1603
139.3301902 838.451864 1603
147.6202415 838.451864 1603
156.2993391 840.5440707 1607
165.0198094 842.6362775 1611
173.3512334 842.6362775 1611
181.6826574 842.6362775 1611
190.0140814 842.6362775 1611
198.8379834 844.7284843 1615
207.1900937 844.7284843 1615
216.0760547 846.820691 1619
224.4488514 846.820691 1619
234.1159006 851.5281563 1628
242.5352416 851.5281563 1628
250.9545825 851.5281563 1628
258.7366411 849.4359495 1624
267.1352957 849.4359495 1624
274.6856315 846.820691 1619
282.3590868 844.7284843 1615
289.2711417 840.5440707 1607
297.5818793 840.5440707 1607
305.1312166 838.451864 1603
312.6391812 836.3596572 1599
319.1023067 831.6521919 1590
327.3251274 831.6521919 1590
334.7038023 829.5599852 1586
342.9059367 829.5599852 1586
349.3370341 825.3755716 1578
357.4977958 825.3755716 1578
365.6585575 825.3755716 1578
372.8717417 823.2833649 1574
377.1387617 814.9145378 1558
383.4654289 811.2531759 1551
390.4769212 809.1609691 1547
397.4470409 807.0687624 1543
402.5365218 801.3151937 1532
409.3876951 799.222987 1528
405.2736768 776.2087125 1484
354.5946458 631.3233935 1207
356.6514018 624.0006698 1193
362.2128532 622.9545664 1191
368.3722113 622.9545664 1191
373.588165 621.3854113 1188
378.4534495 619.2932046 1184
385.2262292 620.339308 1186
401.2592166 636.0308587 1216
418.2728082 652.7685129 1248
467.8038377 708.2119924 1354
489.884942 730.7032152 1397
526.6444361 774.1165057 1480
534.2983824 774.1165057 1480
-275.3412037 736.3432501 1394
-268.1320137 736.3432501 1394
-255.1203793 719.9683285 1363
-217.3226623 668.7306705 1266
-205.7807567 652.8839721 1236
-197.7755002 647.6017393 1226
-191.7474288 648.6581859 1228
-185.8496456 650.2428557 1231
-179.483424 650.2428557 1231
-173.1172024 650.2428557 1231
-172.8466707 674.0129032 1276
-169.3746443 686.6902619 1300
-166.9055478 704.6498534 1334
-164.9243986 726.3070078 1375
-161.3714452 742.6819294 1406
-161.4435199 778.0728891 1473
-156.1232404 789.6938012 1495
-150.1783765 799.2018202 1513
-146.3054256 821.3871979 1555
-139.953005 831.4234402 1574
-133.571552 842.516129 1595
-126.89432 853.0805946 1615
-118.8358127 855.1934877 1619
-110.8041618 857.8346041 1624
-102.6577375 859.9474972 1628
-94.75937048 864.7015067 1637
-86.29348526 864.7015067 1637
-77.82760004 864.7015067 1637
-69.14985863 862.0603903 1632
-60.56103273 859.9474972 1628
-52.01357951 857.8346041 1624
-43.4806425 855.1934877 1619
-34.84762707 848.8548084 1607
-26.47083617 846.7419153 1603
-18.13541795 844.6290222 1599
-9.841372415 842.516129 1595
-1.587701008 839.8750127 1590
6.635119701 839.8750127 1590
14.85794041 839.8750127 1590
23.08076112 839.8750127 1590
31.40202077 842.516129 1595
39.6506994 842.516129 1595
47.89937804 842.516129 1595
56.14805667 842.516129 1595
64.39673531 842.516129 1595
72.64541395 842.516129 1595
81.09696178 844.6290222 1599
89.36632676 844.6290222 1599
97.63569174 844.6290222 1599
105.9050567 844.6290222 1599
114.4600363 846.7419153 1603
122.4437867 844.6290222 1599
131.0401389 846.7419153 1603
139.3301902 846.7419153 1603
147.6202415 846.7419153 1603
155.9102928 846.7419153 1603
164.6100768 848.8548084 1607
173.3512334 850.9677015 1611
181.6826574 850.9677015 1611
190.485873 853.0805946 1615
198.8379834 853.0805946 1615
207.1900937 853.0805946 1615
216.0760547 855.1934877 1619
224.4488514 855.1934877 1619
233.5406773 857.8346041 1624
241.9393319 857.8346041 1624
250.3379865 857.8346041 1624
257.9400381 855.1934877 1619
266.3128348 855.1934877 1619
274.0069765 853.0805946 1615
282.3590868 853.0805946 1615
289.2711417 848.8548084 1607
296.8411653 846.7419153 1603
305.1312166 846.7419153 1603
312.6391812 844.6290222 1599
320.9085461 844.6290222 1599
328.3544517 842.516129 1595
336.6031303 842.516129 1595
344.8518089 842.516129 1595
351.9935895 839.8750127 1590
361.3491662 842.516129 1595
369.5978448 842.516129 1595
375.7144741 837.7621195 1586
382.9483447 835.6492264 1582
390.1408425 833.5363333 1578
396.2823312 829.3105471 1570
403.3713973 827.197654 1566
409.3680816 822.9718677 1558
416.6216399 821.3871979 1555
354.5946458 637.565497 1207
357.2493086 631.2268177 1195
362.8211031 630.1703711 1193
369.6093976 631.2268177 1195
374.5315695 629.1139246 1191
379.7320084 627.5292547 1188
385.8758518 627.5292547 1188
402.2491654 643.9041764 1219
419.9485807 661.8637678 1253
470.9133167 719.9683285 1363
491.9889575 741.0972596 1403
528.0677994 783.8833451 1484
535.7424321 783.8833451 1484
-282.5503936 743.5524401 1394
-275.3412037 743.5524401 1394
-267.554972 741.9522555 1391
-255.6819062 728.6173839 1366
-207.7786281 665.67679 1248
-198.5820887 656.6090773 1231
-192.9965977 659.2760516 1236
-186.6045182 659.2760516 1236
-180.2124387 659.2760516 1236
-173.8203592 659.2760516 1236
-173.9303488 684.8790051 1284
-170.8078143 699.2806664 1311
-167.6562474 714.7491174 1340
-167.203354 743.5524401 1394
-163.3225935 759.0208911 1423
-163.4163531 795.2917419 1491
-158.0029851 807.0264289 1513
-151.6672566 815.0273518 1528
-147.716732 837.4299361 1570
-141.3756531 848.0978334 1590
-134.9114547 859.2991255 1611
-127.9157604 868.3668382 1628
-119.7900224 870.5004176 1632
-111.6911409 873.167392 1637
-103.2252557 873.167392 1637
-94.99091445 875.3009714 1641
-86.50434289 875.3009714 1641
-77.82760004 873.167392 1637
-69.14985863 870.5004176 1632
-60.56103273 868.3668382 1628
-52.01357951 866.2332587 1624
-43.4806425 863.5662844 1619
-34.84762707 857.165546 1607
-26.53688941 857.165546 1607
-18.18078485 855.0319666 1603
-9.866052972 852.8983871 1599
-1.592693778 850.7648077 1595
6.635119701 848.0978334 1590
14.90466349 850.7648077 1595
23.15334213 850.7648077 1595
31.40202077 850.7648077 1595
39.6506994 850.7648077 1595
47.89937804 850.7648077 1595
56.14805667 850.7648077 1595
64.39673531 850.7648077 1595
72.64541395 850.7648077 1595
80.89409258 850.7648077 1595
89.14277122 850.7648077 1595
97.63569174 852.8983871 1599
105.9050567 852.8983871 1599
114.1744217 852.8983871 1599
122.4437867 852.8983871 1599
130.7131516 852.8983871 1599
138.9825166 852.8983871 1599
147.2518816 852.8983871 1599
155.9102928 855.0319666 1603
164.6100768 857.165546 1607
173.3512334 859.2991255 1611
181.6826574 859.2991255 1611
190.0140814 859.2991255 1611
198.3455054 859.2991255 1611
207.1900937 861.432705 1615
215.5422041 861.432705 1615
223.8943144 861.432705 1615
232.8216481 863.5662844 1619
241.1944448 863.5662844 1619
249.5672415 863.5662844 1619
257.3027558 861.432705 1615
265.6548661 861.432705 1615
273.3283214 859.2991255 1611
281.6597454 859.2991255 1611
288.551114 855.0319666 1603
296.1004512 852.8983871 1599
304.3698162 852.8983871 1599
312.6391812 852.8983871 1599
320.9085461 852.8983871 1599
329.1779111 852.8983871 1599
337.4472761 852.8983871 1599
345.7166411 852.8983871 1599
353.986006 852.8983871 1599
363.1615758 855.0319666 1603
370.524736 852.8983871 1599
378.794101 852.8983871 1599
386.0952021 850.7648077 1595
393.107693 848.0978334 1590
400.3208772 845.9642539 1586
406.4623659 841.697095 1578
413.5721184 839.5635155 1574
420.6404982 837.4299361 1570
355.1822094 644.8743903 1209
357.2493086 637.4068622 1195
363.4293531 637.4068622 1195
368.9908044 636.3400725 1193
374.5315695 635.2732827 1191
379.7320084 633.6730981 1188
385.8758518 633.6730981 1188
402.9091312 651.2751286 1221
419.9485807 668.3437643 1253
471.9498097 728.6173839 1366
494.4436423 752.0867579 1410
529.1353219 793.1581624 1487
-281.9423225 749.1459307 1391
-274.7486473 749.1459307 1391
-267.554972 749.1459307 1391
-256.243433 737.2974688 1369
-209.1105424 676.4394601 1256
-198.9047241 664.0524317 1233
-193.3088899 666.745264 1238
-186.9064673 666.745264 1238
-180.5040446 666.745264 1238
-174.1016219 666.745264 1238
-174.7431075 694.7507193 1290
-171.1986789 707.6763141 1314
-168.2818304 724.371874 1345
-167.9230241 753.9930287 1400
-164.8146481 773.3814209 1436
-164.6219734 808.9268066 1502
-158.7339969 818.6210026 1520
-152.759102 828.8537652 1539
-148.4694287 849.8578567 1578
-141.8202306 859.0134863 1595
-135.2464304 869.7848153 1615
-128.2300497 878.9404449 1632
-119.7900224 878.9404449 1632
-111.6911409 881.6332772 1637
-103.477486 883.787543 1641
-94.99091445 883.787543 1641
-86.50434289 883.787543 1641
-77.82760004 881.6332772 1637
-69.14985863 878.9404449 1632
-60.56103273 876.7861791 1628
-52.01357951 874.6319133 1624
-43.4806425 871.9390811 1619
-34.93436665 867.6305495 1611
-26.47083617 863.3220179 1603
-18.18078485 863.3220179 1603
-9.866052972 861.1677521 1599
-1.587701008 856.3206541 1590
6.635119701 856.3206541 1590
14.90466349 859.0134863 1595
23.15334213 859.0134863 1595
31.40202077 859.0134863 1595
39.6506994 859.0134863 1595
47.89937804 859.0134863 1595
56.14805667 859.0134863 1595
64.39673531 859.0134863 1595
72.41768538 856.3206541 1590
80.89409258 859.0134863 1595
89.14277122 859.0134863 1595
97.39144985 859.0134863 1595
105.6401285 859.0134863 1595
114.1744217 861.1677521 1599
122.4437867 861.1677521 1599
130.7131516 861.1677521 1599
138.9825166 861.1677521 1599
147.2518816 861.1677521 1599
155.5212466 861.1677521 1599
164.6100768 865.4762837 1607
172.9208144 865.4762837 1607
181.6826574 867.6305495 1611
190.0140814 867.6305495 1611
198.8379834 869.7848153 1615
207.1900937 869.7848153 1615
215.5422041 869.7848153 1615
223.8943144 869.7848153 1615
232.2464247 869.7848153 1615
240.5985351 869.7848153 1615
248.9506454 869.7848153 1615
256.6654734 867.6305495 1611
264.3389287 865.4762837 1607
272.6496664 865.4762837 1607
280.2610626 863.3220179 1603
287.8310862 861.1677521 1599
296.1004512 861.1677521 1599
304.3698162 861.1677521 1599
312.6391812 861.1677521 1599
320.9085461 861.1677521 1599
330.0013705 863.3220179 1603
338.2914219 863.3220179 1603
346.5814732 863.3220179 1603
355.757043 865.4762837 1607
364.9739854 867.6305495 1611
373.3054094 867.6305495 1611
382.5844109 869.7848153 1615
390.9365213 869.7848153 1615
398.2996814 867.6305495 1611
405.6214689 865.4762837 1607
411.8715609 861.1677521 1599
420.1409259 861.1677521 1599
427.3385953 859.0134863 1595
353.7133004 648.4340047 1204
357.8472154 644.6640396 1197
363.4293531 643.5869067 1195
369.6093976 643.5869067 1195
374.5315695 641.4326409 1191
379.7320084 639.8169415 1188
385.8758518 639.8169415 1188
402.9091312 657.5896344 1221
420.9540442 676.4394601 1256
471.9498097 735.6817695 1366
495.49565 760.9943926 1413
529.1353219 800.8483098 1487
-281.9423225 756.3396059 1391
-274.7486473 756.3396059 1391
-266.9779304 754.7083918 1388
-257.9280137 749.2710115 1378
-199.7113126 673.1476867 1238
-193.7773283 674.7789008 1241
-187.6613399 675.8663768 1243
-180.9414534 674.7789008 1241
-174.523516 674.7789008 1241
-175.014027 702.5095405 1292
-172.7860281 750.9022256 1381
-168.6426942 764.4956764 1406
-165.5032887 784.0702457 1442
-165.8275937 822.6756461 1513
-159.569439 830.8317166 1528
-153.5531714 841.1627393 1547
-148.8457771 860.1935705 1582
-142.1758926 869.4371171 1599
-135.581406 880.3118778 1619
-127.9157604 885.2055201 1628
-119.7900224 887.3804722 1632
-111.6911409 890.0991624 1637
-103.2252557 890.0991624 1637
-94.75937048 890.0991624 1637
-86.29348526 890.0991624 1637
-77.58988593 887.3804722 1632
-68.98037369 885.2055201 1628
-60.41223413 883.030568 1624
-51.85343918 880.3118778 1619
-43.37321658 878.1369256 1615
-34.84762707 873.7870214 1607
-26.47083617 871.6120692 1603
-18.13541795 869.4371171 1599
-9.841372415 867.262165 1595
-1.587701008 864.5434748 1590
6.635119701 864.5434748 1590
14.90466349 867.262165 1595
23.15334213 867.262165 1595
31.40202077 867.262165 1595
39.6506994 867.262165 1595
47.89937804 867.262165 1595
56.14805667 867.262165 1595
64.19486467 864.5434748 1590
72.41768538 864.5434748 1590
80.64050609 864.5434748 1590
88.86332679 864.5434748 1590
97.0861475 864.5434748 1590
105.3089682 864.5434748 1590
113.8888071 867.262165 1595
122.1374858 867.262165 1595
130.3861644 867.262165 1595
138.9825166 869.4371171 1599
147.2518816 869.4371171 1599
155.5212466 869.4371171 1599
164.6100768 873.7870214 1607
172.9208144 873.7870214 1607
181.6826574 875.9619735 1611
190.0140814 875.9619735 1611
198.8379834 878.1369256 1615
207.1900937 878.1369256 1615
215.5422041 878.1369256 1615
223.8943144 878.1369256 1615
232.2464247 878.1369256 1615
240.5985351 878.1369256 1615
248.3340494 875.9619735 1611
256.028191 873.7870214 1607
263.0229913 869.4371171 1599
271.2923563 869.4371171 1599
278.8623798 867.262165 1595
286.2110238 864.5434748 1590
294.4338445 864.5434748 1590
303.6084158 867.262165 1595
311.8570944 867.262165 1595
320.9085461 869.4371171 1599
330.0013705 871.6120692 1603
339.1355676 873.7870214 1607
347.4463053 873.7870214 1607
356.6425614 875.9619735 1611
365.8801902 878.1369256 1615
375.1591917 880.3118778 1619
384.7164603 883.030568 1624
394.0833787 885.2055201 1628
401.5137695 883.030568 1624
408.6503785 880.3118778 1619
417.0231752 880.3118778 1619
425.3959718 880.3118778 1619
433.7687685 880.3118778 1619
351.0692641 649.7669512 1195
356.6514018 648.6794751 1193
362.8211031 648.6794751 1193
368.9908044 648.6794751 1193
374.5315695 647.591999 1191
379.0927289 644.8733089 1186
385.8758518 645.9607849 1188
401.2592166 661.1854499 1216
419.2782717 680.2162811 1251
472.9863027 744.3773692 1369
495.49565 768.3018427 1413
529.1353219 808.5384572 1487
-281.3342513 761.8865523 1388
-274.1560909 761.8865523 1388
-266.4008888 760.2398234 1385
-258.4895406 758.044185 1381
-200.1952657 681.1968382 1241
-194.5580588 683.9413863 1246
-188.1142635 683.9413863 1246
-181.2330593 682.2946574 1243
-174.8047787 682.2946574 1243
-176.0977052 713.5825057 1300
-173.4135781 730.598704 1331
-174.4125439 765.18001 1394
-171.0415945 782.7451178 1426
-167.9135308 803.0547738 1463
-167.033214 836.5382606 1524
-161.1358929 846.9675434 1543
-154.3472408 853.5544588 1555
-149.2221254 870.570657 1586
-142.1758926 877.7064821 1599
-135.2464304 886.489036 1615
-127.601471 891.4292226 1624
-119.4964194 893.624861 1628
-111.3499951 895.8204995 1632
-102.9099678 895.8204995 1632
-94.46994052 895.8204995 1632
-86.02991322 895.8204995 1632
-77.39971464 893.624861 1628
-68.81088874 891.4292226 1624
-60.22623587 888.6846745 1619
-51.72532692 886.489036 1615
-43.26579065 884.2933975 1611
-34.76088749 879.9021206 1603
-26.40478293 877.7064821 1599
-18.13541795 877.7064821 1599
-9.841372415 875.5108436 1595
-1.592693778 875.5108436 1595
6.655984858 875.5108436 1595
14.90466349 875.5108436 1595
23.15334213 875.5108436 1595
31.40202077 875.5108436 1595
39.6506994 875.5108436 1595
47.89937804 875.5108436 1595
56.14805667 875.5108436 1595
64.19486467 872.7662955 1590
72.41768538 872.7662955 1590
80.64050609 872.7662955 1590
88.86332679 872.7662955 1590
97.39144985 875.5108436 1595
105.3089682 872.7662955 1590
113.8888071 875.5108436 1595
