# .PCD v0.7 - Point Cloud Data file format
VERSION 0.7
FIELDS x y z
SIZE 4 4 4
TYPE F F F
COUNT 1 1 1
WIDTH 1609
HEIGHT 1
VIEWPOINT 0 0 0 1 0 0 0
POINTS 1609
DATA ascii
-984.160004 458.1275897 1473
-979.1941047 459.3716565 1477
-973.5290428 460.3047066 1480
-965.8750965 460.3047066 1480
-956.27881 459.3716565 1477
-948.6403784 459.3716565 1477
-938.4535326 458.1275897 1473
-928.9399915 457.1945396 1470
-916.9504384 455.0174228 1463
-906.8980538 453.773356 1459
-897.5034592 452.8403059 1456
-885.6949115 450.6631891 1449
-876.3830622 449.730139 1446
-866.50134 448.4860722 1442
-855.4695287 446.619972 1436
-840.3658614 442.576755 1423
-1168.475157 485.3490082 1535
-1155.244424 483.1356903 1528
-1141.335214 480.606184 1520
-1120.051681 474.914795 1502
-1107.100213 472.7014771 1495
-1091.279692 469.223406 1484
-1078.493715 467.010088 1477
-1062.880058 463.532017 1466
-1050.259571 461.318699 1459
-1040.570196 460.3701342 1456
-1033.040368 460.3701342 1456
-1025.51054 460.3701342 1456
-1017.980712 460.3701342 1456
-1012.532856 461.318699 1459
-1004.987513 461.318699 1459
-1002.227705 463.532017 1466
-994.6461608 463.532017 1466
-989.7578352 464.7967701 1470
-984.160004 465.7453349 1473
-979.1941047 467.010088 1477
-973.5290428 467.9586529 1480
-965.8750965 467.9586529 1480
-956.27881 467.010088 1477
-948.6403784 467.010088 1477
-938.4535326 465.7453349 1473
-928.9399915 464.7967701 1470
-916.9504384 462.5834521 1463
-906.8980538 461.318699 1459
-897.5034592 460.3701342 1456
-885.6949115 458.1568162 1449
-876.3830622 457.2082514 1446
-866.50134 455.9434983 1442
-855.4695287 454.0463686 1436
-843.9092171 451.8330507 1429
-1176.413541 493.2873917 1535
-1166.191492 492.3233122 1532
-1152.220224 489.7524332 1524
-1139.082578 487.5029142 1517
-1117.068853 481.3970768 1498
-1101.175931 477.8621183 1487
-1088.338238 475.6125992 1480
-1078.493715 474.6485196 1477
-1060.704996 470.1494815 1463
-1050.259571 468.8640421 1459
-1040.570196 467.8999625 1456
-1033.040368 467.8999625 1456
-1025.51054 467.8999625 1456
-1020.078199 468.8640421 1459
-1012.532856 468.8640421 1459
-1004.987513 468.8640421 1459
-1002.227705 471.1135611 1466
-994.6461608 471.1135611 1466
-989.7578352 472.3990006 1470
-984.160004 473.3630802 1473
-979.1941047 474.6485196 1477
-973.5290428 475.6125992 1480
-965.8750965 475.6125992 1480
-958.2211501 475.6125992 1480
-948.6403784 474.6485196 1477
-938.4535326 473.3630802 1473
-928.9399915 472.3990006 1470
-916.9504384 470.1494815 1463
-906.8980538 468.8640421 1459
-897.5034592 467.8999625 1456
-888.139894 466.9358829 1453
-876.3830622 464.6863638 1446
-866.50134 463.4009244 1442
-857.2567213 462.4368448 1439
-845.680895 460.1873257 1432
-1174.114361 500.2461809 1532
-1160.10172 497.6339293 1524
-1146.927873 495.3482092 1517
-1133.075551 492.7359576 1509
-1111.848906 486.8583915 1491
-1098.954325 484.5726713 1484
-1086.132147 482.2869512 1477
-1075.572947 480.9808254 1473
-1060.704996 477.7155109 1463
-1050.259571 476.4093851 1459
-1040.570196 475.4297907 1456
-1033.040368 475.4297907 1456
-1025.51054 475.4297907 1456
-1020.078199 476.4093851 1459
-1015.30882 477.7155109 1463
-1007.742791 477.7155109 1463
-1002.227705 478.6951052 1466
-997.3600657 480.001231 1470
-991.7777492 480.9808254 1473
-984.160004 480.9808254 1473
-979.1941047 482.2869512 1477
-973.5290428 483.2665455 1480
-965.8750965 483.2665455 1480
-958.2211501 483.2665455 1480
-950.5672038 483.2665455 1480
-938.4535326 480.9808254 1473
-930.8357874 480.9808254 1473
-916.9504384 477.7155109 1463
-906.8980538 476.4093851 1459
-897.5034592 475.4297907 1456
-888.139894 474.4501964 1453
-876.3830622 472.1644762 1446
-866.50134 470.8583504 1442
-855.4695287 468.8991617 1436
-845.680895 467.5930359 1432
-830.6651447 463.3481271 1419
-1184.351924 509.1641588 1535
-1167.983216 505.5154254 1524
-1154.773168 503.1935041 1517
-1140.879473 500.5398799 1509
-1127.819402 498.2179586 1502
-1106.628958 492.247304 1484
-1093.770578 489.9253827 1477
-1083.190692 488.5985706 1473
-1070.461602 486.2766494 1466
-1060.704996 485.2815403 1463
-1050.259571 483.9547281 1459
-1040.570196 482.959619 1456
-1033.040368 482.959619 1456
-1027.623542 483.9547281 1459
-1022.87485 485.2815403 1463
-1015.30882 485.2815403 1463
-1007.742791 485.2815403 1463
-1004.962296 487.6034615 1470
-997.3600657 487.6034615 1470
-991.7777492 488.5985706 1473
-986.8325362 489.9253827 1477
-981.1829891 490.9204918 1480
-973.5290428 490.9204918 1480
-968.4855697 492.247304 1484
-958.2211501 490.9204918 1480
-948.6403784 489.9253827 1477
-938.4535326 488.5985706 1473
-928.9399915 487.6034615 1470
-916.9504384 485.2815403 1463
-905.0332874 482.959619 1456
-897.5034592 482.959619 1456
-885.6949115 480.6376978 1449
-873.958766 478.3157765 1442
-864.6986326 477.3206674 1439
-855.4695287 476.3255583 1436
-845.680895 474.9987462 1432
-830.6651447 470.6866067 1419
-1186.853153 514.7444199 1528
-1172.778453 512.049423 1520
-1153.421745 506.9963037 1505
-1143.354844 505.9856798 1502
-1127.270573 502.280059 1491
-1116.556226 500.9325605 1487
-1098.426182 496.2163158 1473
-1088.586831 495.205692 1470
-1078.043146 493.8581935 1466
-1068.271026 492.8475696 1463
-1057.804914 491.5000711 1459
-1048.100025 490.4894473 1456
-1040.570196 490.4894473 1456
-1035.168885 491.5000711 1459
-1027.623542 491.5000711 1459
-1022.87485 492.8475696 1463
-1015.30882 492.8475696 1463
-1009.809249 493.8581935 1466
-1002.227705 493.8581935 1466
-999.3954944 496.2163158 1473
-991.7777492 496.2163158 1473
-986.8325362 497.5638143 1477
-981.1829891 498.5744382 1480
-976.1602024 499.9219366 1484
-968.4855697 499.9219366 1484
-956.27881 497.5638143 1477
-948.6403784 497.5638143 1477
-938.4535326 496.2163158 1473
-926.4122636 493.8581935 1466
-912.5631157 490.4894473 1456
-903.168521 489.4788234 1453
-893.1885387 488.1313249 1449
-883.8611746 487.1207011 1446
-872.1405439 484.7625787 1439
-862.8959252 483.7519549 1436
-853.0866052 482.4044564 1432
-842.1375393 480.3832087 1426
-830.6651447 478.0250863 1419
-1180.639262 519.9102327 1520
-1167.377499 517.5159093 1513
-1148.056993 512.3852162 1498
-1134.981407 509.9908928 1491
-1121.978223 507.5965693 1484
-1109.047441 505.2022459 1477
-1093.206234 501.4397376 1466
-1083.403085 500.413599 1463
-1072.8956 499.0454142 1459
-1065.350257 499.0454142 1459
-1055.629853 498.0192756 1456
-1048.100025 498.0192756 1456
-1040.570196 498.0192756 1456
-1033.040368 498.0192756 1456
-1025.51054 498.0192756 1456
-1022.87485 500.413599 1463
-1015.30882 500.413599 1463
-1009.809249 501.4397376 1466
-1002.227705 501.4397376 1466
-999.3954944 503.834061 1473
-991.7777492 503.834061 1473
-986.8325362 505.2022459 1477
-981.1829891 506.2283845 1480
-973.5290428 506.2283845 1480
-965.8750965 506.2283845 1480
-956.27881 505.2022459 1477
-946.0712779 503.834061 1473
-936.542222 502.8079224 1470
-926.4122636 501.4397376 1466
-912.5631157 498.0192756 1456
-900.6821659 495.6249521 1449
-891.339287 494.5988135 1446
-881.4161921 493.2306287 1442
-870.3223218 491.1783514 1436
-860.4923154 489.8101666 1432
-851.2994126 488.784028 1429
-842.1375393 487.7578894 1426
-828.9089816 484.3374273 1416
-1186.154348 526.7293891 1517
-1175.202108 525.3405179 1513
-1161.204981 522.5627756 1505
-1142.692241 517.7017265 1491
-1126.607969 513.8823308 1480
-1116.685873 512.8406774 1477
-1103.791292 510.4101529 1470
-1087.986286 506.5907572 1459
-1080.440943 506.5907572 1459
-1070.689509 505.5491038 1456
-1063.159681 505.5491038 1456
-1055.629853 505.5491038 1456
-1045.940478 504.5074504 1453
-1038.426164 504.5074504 1453
-1033.040368 505.5491038 1456
-1025.51054 505.5491038 1456
-1020.078199 506.5907572 1459
-1015.30882 507.9796284 1463
-1007.742791 507.9796284 1463
-1002.227705 509.0212817 1466
-999.3954944 511.4518063 1473
-991.7777492 511.4518063 1473
-986.8325362 512.8406774 1477
-981.1829891 513.8823308 1480
-971.5556731 512.8406774 1477
-965.8750965 513.8823308 1480
-953.6890231 511.4518063 1473
-944.1444524 510.4101529 1470
-933.9938078 509.0212817 1466
-924.5164677 507.9796284 1463
-910.6828346 504.5074504 1453
-900.6821659 503.1185793 1449
-888.8736182 500.6880547 1442
-881.4161921 500.6880547 1442
-867.8980256 497.2158768 1432
-858.6896081 496.1742235 1429
-849.51222 495.1325701 1426
-840.3658614 494.0909167 1423
-828.9089816 491.6603922 1416
-819.8453684 490.6187388 1413
-1179.899085 531.755569 1509
-1166.658008 529.2888434 1502
-1155.804028 527.8792859 1498
-1139.626668 524.0030028 1487
-1121.279418 519.0695515 1473
-1111.393523 518.0123834 1470
-1098.535143 515.5456577 1463
-1087.986286 514.1361002 1459
-1078.219338 513.0789321 1456
-1068.483418 512.021764 1453
-1060.969105 512.021764 1453
-1050.554709 510.6122065 1449
-1043.061082 510.6122065 1449
-1035.567455 510.6122065 1449
-1028.073828 510.6122065 1449
-1023.397537 512.021764 1453
-1017.980712 513.0789321 1456
-1012.532856 514.1361002 1459
-1004.987513 514.1361002 1459
-1000.176761 515.5456577 1463
-997.3600657 518.0123834 1470
-991.7777492 519.0695515 1473
-986.8325362 520.479109 1477
-979.1941047 520.479109 1477
-971.5556731 520.479109 1477
-963.9172415 520.479109 1477
-953.6890231 519.0695515 1473
-944.1444524 518.0123834 1470
-932.0824971 515.5456577 1463
-924.5164677 515.5456577 1463
-910.6828346 512.021764 1453
-898.8173995 509.5550383 1446
-888.8736182 508.1454808 1442
-879.5824552 507.0883127 1439
-867.8980256 504.6215871 1432
-858.6896081 503.5644189 1429
-849.51222 502.5072508 1426
-840.3658614 501.4500827 1423
-827.1528185 497.9261889 1413
-819.8453684 497.9261889 1413
-1182.19345 537.0565646 1502
-1168.952374 534.5536379 1495
-1155.006963 531.6931502 1487
-1145.002121 530.6204673 1484
-1128.897163 526.6872967 1473
-1113.667202 523.1116871 1463
-1100.808823 520.6087604 1456
-1091.026359 519.5360775 1453
-1080.529218 518.1058336 1449
-1070.813985 517.0331507 1446
-1063.335873 517.0331507 1446
-1055.85776 517.0331507 1446
-1045.479566 515.6029069 1442
-1038.02214 515.6029069 1442
-1030.564714 515.6029069 1442
-1023.107288 515.6029069 1442
-1018.467198 517.0331507 1446
-1013.086573 518.1058336 1449
-1008.36891 519.5360775 1453
-1002.921055 520.6087604 1456
-997.4421702 521.6814433 1459
-994.6461608 524.18437 1466
-989.7578352 525.6146138 1470
-984.160004 526.6872967 1473
-979.1941047 528.1175406 1477
-968.9245135 526.6872967 1473
-961.3067683 526.6872967 1473
-951.7466829 525.6146138 1470
-941.5753519 524.18437 1466
-932.0824971 523.1116871 1463
-921.9887399 521.6814433 1459
-908.175793 518.1058336 1449
-898.8173995 517.0331507 1446
-888.8736182 515.6029069 1442
-879.5824552 514.530224 1439
-867.8980256 512.0272973 1432
-858.6896081 510.9546144 1429
-847.7250274 508.8092486 1423
-838.0036243 507.3790048 1419
-828.9089816 506.3063219 1416
-819.8453684 505.233639 1413
-808.5126066 502.7307123 1406
-1176.683894 542.285158 1495
-1162.69711 539.3832976 1487
-1152.676754 538.2951 1484
-1139.601168 535.7559721 1477
-1126.597984 533.2168443 1470
-1108.338651 528.1385886 1456
-1098.540672 527.050391 1453
-1088.022845 525.5994608 1449
-1078.292098 524.5112632 1446
-1067.851844 523.060333 1442
-1060.394418 523.060333 1442
-1052.936992 523.060333 1442
-1043.304504 521.9721353 1439
-1035.862593 521.9721353 1439
-1028.420682 521.9721353 1439
-1020.97877 521.9721353 1439
-1013.536859 521.9721353 1439
-1010.989086 524.5112632 1446
-1003.510973 524.5112632 1446
-1000.854597 527.050391 1453
-993.3402832 527.050391 1453
-992.6107321 530.6777165 1463
-987.0646166 531.7659141 1466
-982.1556048 533.2168443 1470
-976.5422587 534.3050419 1473
-966.9511438 533.2168443 1470
-959.3489134 533.2168443 1470
-949.156896 531.7659141 1466
-939.6485265 530.6777165 1463
-929.5340829 529.2267863 1459
-920.092944 528.1385886 1456
-908.175793 525.5994608 1449
-898.8173995 524.5112632 1446
-888.8736182 523.060333 1442
-879.5824552 521.9721353 1439
-867.8980256 519.4330075 1432
-858.6896081 518.3448099 1429
-849.51222 517.2566122 1426
-840.3658614 516.1684146 1423
-828.9089816 513.6292868 1416
-819.8453684 512.5410891 1413
-808.5126066 510.0019613 1406
-1181.246409 548.5450615 1491
-1170.387257 547.073445 1487
-1157.223754 544.4981161 1480
-1147.239599 543.3944037 1477
-1136.514908 541.9227872 1473
-1123.532411 539.3474582 1466
-1108.338651 535.6684169 1456
-1095.516472 533.093088 1449
-1085.77021 531.9893756 1446
-1078.292098 531.9893756 1446
-1067.851844 530.5177591 1442
-1058.188327 529.4140467 1439
-1050.746416 529.4140467 1439
-1043.304504 529.4140467 1439
-1035.862593 529.4140467 1439
-1026.27665 528.3103343 1436
-1018.850253 528.3103343 1436
-1011.423857 528.3103343 1436
-1008.192435 530.5177591 1442
-1003.510973 531.9893756 1446
-996.0328609 531.9893756 1446
-993.3402832 534.5647045 1453
-989.8968271 536.7721293 1459
-985.0447027 538.2437458 1463
-979.4830725 539.3474582 1466
-971.9015284 539.3474582 1466
-964.3199843 539.3474582 1466
-956.7384401 539.3474582 1466
-947.2145558 538.2437458 1463
-939.6485265 538.2437458 1463
-929.5340829 536.7721293 1459
-920.092944 535.6684169 1456
-908.175793 533.093088 1449
-898.8173995 531.9893756 1446
-888.8736182 530.5177591 1442
-881.4161921 530.5177591 1442
-867.8980256 526.8387177 1432
-858.6896081 525.7350053 1429
-849.51222 524.6312929 1426
-840.3658614 523.5275805 1423
-828.9089816 520.9522516 1416
-819.8453684 519.8485392 1413
-810.8127847 518.7448268 1410
-1175.700652 553.6443653 1484
-1168.026019 553.6443653 1484
-1154.878031 551.0328353 1477
-1144.132654 549.5405324 1473
-1134.200214 548.4213052 1470
-1121.233231 545.8097752 1463
-1106.054986 542.079018 1453
-1095.516472 540.5867152 1449
-1085.77021 539.467488 1446
-1075.30927 537.9751851 1442
-1067.851844 537.9751851 1442
-1058.188327 536.855958 1439
-1050.746416 536.855958 1439
-1041.129443 535.7367308 1436
-1033.703046 535.7367308 1436
-1026.27665 535.7367308 1436
-1018.850253 535.7367308 1436
-1011.423857 535.7367308 1436
-1006.094948 536.855958 1439
-1000.735009 537.9751851 1442
-996.0328609 539.467488 1446
-988.5547485 539.467488 1446
-985.8259697 542.079018 1453
-980.3315701 543.1982452 1456
-974.8061411 544.3174723 1459
-965.2719136 543.1982452 1456
-959.715455 544.3174723 1459
-950.2122571 543.1982452 1456
-942.6824288 543.1982452 1456
-937.0794259 544.3174723 1459
-927.6227722 543.1982452 1456
-920.092944 543.1982452 1456
-908.175793 540.5867152 1449
-900.6821659 540.5867152 1449
-888.8736182 537.9751851 1442
-881.4161921 537.9751851 1442
-870.3223218 535.7367308 1436
-860.4923154 534.244428 1432
-851.2994126 533.1252008 1429
-842.1375393 532.0059736 1426
-830.6651447 529.3944436 1419
-819.8453684 527.1559893 1413
-810.8127847 526.0367622 1410
-803.5208493 526.0367622 1410
-1180.185593 559.8060087 1480
-1172.531647 559.8060087 1480
-1164.877701 559.8060087 1480
-1151.750399 557.1582776 1473
-1141.802445 556.0235357 1470
-1131.113955 554.5105465 1466
-1118.167659 551.8628154 1459
-1103.0101 548.0803423 1449
-1093.248322 546.9456004 1446
-1085.77021 546.9456004 1446
-1075.30927 545.4326112 1442
-1065.630238 544.2978693 1439
-1058.188327 544.2978693 1439
-1050.746416 544.2978693 1439
-1041.129443 543.1631274 1436
-1033.703046 543.1631274 1436
-1026.27665 543.1631274 1436
-1018.850253 543.1631274 1436
-1011.423857 543.1631274 1436
-1003.99746 543.1631274 1436
-998.6530364 544.2978693 1439
-993.2775833 545.4326112 1442
-985.8201572 545.4326112 1442
-983.1120648 548.0803423 1449
-978.3116562 549.5933315 1453
-970.7973427 549.5933315 1453
-965.2719136 550.7280735 1456
-957.7420853 550.7280735 1456
-950.2122571 550.7280735 1456
-944.624769 551.8628154 1459
-937.0794259 551.8628154 1459
-929.5340829 551.8628154 1459
-921.9887399 551.8628154 1459
-910.6828346 549.5933315 1453
-900.6821659 548.0803423 1449
-893.1885387 548.0803423 1449
-883.8611746 546.9456004 1446
-872.1405439 544.2978693 1439
-862.8959252 543.1631274 1436
-853.0866052 541.6501382 1432
-843.9092171 540.5153963 1429
-833.0066955 538.2459125 1423
-823.326665 536.7329232 1419
-814.2630518 535.5981813 1416
-805.2304682 534.4634394 1413
-1183.375284 568.9936306 1484
-1175.700652 568.9936306 1484
-1164.877701 567.4599551 1480
-1151.750399 564.7760228 1473
-1141.802445 563.6257662 1470
-1131.113955 562.0920906 1466
-1118.167659 559.4081584 1459
-1103.0101 555.5739695 1449
-1093.248322 554.4237128 1446
-1085.77021 554.4237128 1446
-1078.292098 554.4237128 1446
-1067.851844 552.8900373 1442
-1060.394418 552.8900373 1442
-1052.936992 552.8900373 1442
-1043.304504 551.7397806 1439
-1035.862593 551.7397806 1439
-1028.420682 551.7397806 1439
-1020.97877 551.7397806 1439
-1013.536859 551.7397806 1439
-1008.192435 552.8900373 1442
-1000.735009 552.8900373 1442
-993.2775833 552.8900373 1442
-985.8201572 552.8900373 1442
-983.1120648 555.5739695 1449
-978.3116562 557.1076451 1453
-970.7973427 557.1076451 1453
-965.2719136 558.2579017 1456
-957.7420853 558.2579017 1456
-952.170112 559.4081584 1459
-944.624769 559.4081584 1459
-939.6485265 560.9418339 1463
-932.0824971 560.9418339 1463
-921.9887399 559.4081584 1459
-912.5631157 558.2579017 1456
-905.0332874 558.2579017 1456
-893.1885387 555.5739695 1449
-885.6949115 555.5739695 1449
-873.958766 552.8900373 1442
-864.6986326 551.7397806 1439
-855.4695287 550.589524 1436
-845.680895 549.0558484 1432
-834.7628586 546.7553351 1426
-825.6475295 545.6050784 1423
-815.9881854 544.0714029 1419
-806.940087 542.9211462 1416
-796.228914 540.6206329 1410
-1183.375284 576.6682633 1484
-1175.700652 576.6682633 1484
-1164.877701 575.1139014 1480
-1151.750399 572.3937681 1473
-1141.802445 571.2279966 1470
-1131.113955 569.6736347 1466
-1118.167659 566.9535014 1459
-1103.0101 563.0675967 1449
-1093.248322 561.9018253 1446
-1085.77021 561.9018253 1446
-1078.292098 561.9018253 1446
-1067.851844 560.3474634 1442
-1060.394418 560.3474634 1442
-1052.936992 560.3474634 1442
-1045.479566 560.3474634 1442
-1038.02214 560.3474634 1442
-1028.420682 559.1816919 1439
-1020.97877 559.1816919 1439
-1013.536859 559.1816919 1439
-1008.192435 560.3474634 1442
-1000.735009 560.3474634 1442
-993.2775833 560.3474634 1442
-985.8201572 560.3474634 1442
-981.0766361 561.9018253 1446
-975.6184376 563.0675967 1449
-968.1248104 563.0675967 1449
-963.2830292 564.6219586 1453
-957.7420853 565.78773 1456
-952.170112 566.9535014 1459
-944.624769 566.9535014 1459
-939.6485265 568.5078633 1463
-932.0824971 568.5078633 1463
-924.5164677 568.5078633 1463
-912.5631157 565.78773 1456
-905.0332874 565.78773 1456
-895.6542075 564.6219586 1453
-885.6949115 563.0675967 1449
-873.958766 560.3474634 1442
-864.6986326 559.1816919 1439
-857.2567213 559.1816919 1439
-848.0431321 558.0159205 1436
-836.5190217 555.2957872 1429
-827.3881778 554.1300158 1426
-818.2883635 552.9642444 1423
-808.6497058 551.4098825 1419
-797.9230181 549.0783396 1413
-1187.83954 582.7678477 1480
-1185.767552 585.5241821 1487
-1178.077405 585.5241821 1487
-1168.026019 584.3428959 1484
-1154.878031 581.5865615 1477
-1144.132654 580.0115133 1473
-1131.113955 577.2551789 1466
-1118.167659 574.4988445 1459
-1103.0101 570.5612239 1449
-1093.248322 569.3799377 1446
-1085.77021 569.3799377 1446
-1078.292098 569.3799377 1446
-1067.851844 567.8048894 1442
-1060.394418 567.8048894 1442
-1052.936992 567.8048894 1442
-1045.479566 567.8048894 1442
-1038.02214 567.8048894 1442
-1030.564714 567.8048894 1442
-1023.107288 567.8048894 1442
-1015.649862 567.8048894 1442
-1008.192435 567.8048894 1442
-1000.735009 567.8048894 1442
-993.2775833 567.8048894 1442
-983.7692137 566.6236033 1439
-978.3627311 567.8048894 1442
-970.905305 567.8048894 1442
-966.1204112 569.3799377 1446
-958.6422988 569.3799377 1446
-955.7687156 572.1362721 1453
-948.2544021 572.1362721 1453
-944.624769 574.4988445 1459
-939.6485265 576.0738927 1463
-932.0824971 576.0738927 1463
-924.5164677 576.0738927 1463
-914.4433968 574.4988445 1459
-905.0332874 573.3175583 1456
-897.5034592 573.3175583 1456
-888.139894 572.1362721 1453
-876.3830622 569.3799377 1446
-866.50134 567.8048894 1442
-857.2567213 566.6236033 1439
-848.0431321 565.4423171 1436
-836.5190217 562.6859827 1429
-827.3881778 561.5046965 1426
-818.2883635 560.3234103 1423
-808.6497058 558.7483621 1419
-797.9230181 556.3857897 1413
-1187.83954 590.421794 1480
-1185.767552 593.2143295 1487
-1181.246409 594.8100641 1491
-1170.387257 593.2143295 1487
-1154.878031 589.2249931 1477
-1144.132654 587.6292585 1473
-1134.200214 586.4324576 1470
-1121.233231 583.6399221 1463
-1103.0101 578.054851 1449
-1093.248322 576.8580501 1446
-1085.77021 576.8580501 1446
-1078.292098 576.8580501 1446
-1070.813985 576.8580501 1446
-1063.335873 576.8580501 1446
-1055.85776 576.8580501 1446
-1048.379648 576.8580501 1446
-1040.901535 576.8580501 1446
-1033.423423 576.8580501 1446
-1023.107288 575.2623155 1442
-1015.649862 575.2623155 1442
-1008.192435 575.2623155 1442
-1000.735009 575.2623155 1442
-993.2775833 575.2623155 1442
-985.8201572 575.2623155 1442
-978.3627311 575.2623155 1442
-970.905305 575.2623155 1442
-966.1204112 576.8580501 1446
-958.6422988 576.8580501 1446
-955.7687156 579.6505856 1453
-950.2122571 580.8473865 1456
-944.624769 582.0441875 1459
-939.6485265 583.6399221 1463
-932.0824971 583.6399221 1463
-926.4122636 584.836723 1466
-916.9504384 583.6399221 1463
-906.8980538 582.0441875 1459
-897.5034592 580.8473865 1456
-889.9736309 580.8473865 1456
-876.3830622 576.8580501 1446
-866.50134 575.2623155 1442
-857.2567213 574.0655146 1439
-849.81481 574.0655146 1439
-838.2751847 571.2729791 1432
-829.1288262 570.0761781 1429
-820.0134971 568.8793772 1426
-810.9291976 567.6825763 1423
-799.6171221 564.8900408 1416
-1193.070188 596.8634246 1477
-1191.049917 599.6921613 1484
-1194.539202 605.3496345 1498
-1189.961172 606.9660554 1502
-1176.683894 604.1373188 1495
-1157.223754 598.0757403 1480
-1147.239599 596.8634246 1477
-1134.200214 594.034688 1470
-1123.532411 592.4182671 1466
-1103.0101 585.5484782 1449
-1093.248322 584.3361625 1446
-1085.77021 584.3361625 1446
-1078.292098 584.3361625 1446
-1070.813985 584.3361625 1446
-1063.335873 584.3361625 1446
-1055.85776 584.3361625 1446
-1048.379648 584.3361625 1446
-1040.901535 584.3361625 1446
-1033.423423 584.3361625 1446
-1023.107288 582.7197416 1442
-1015.649862 582.7197416 1442
-1008.192435 582.7197416 1442
-1000.735009 582.7197416 1442
-993.2775833 582.7197416 1442
-985.8201572 582.7197416 1442
-978.3627311 582.7197416 1442
-973.5985236 584.3361625 1446
-966.1204112 584.3361625 1446
-958.6422988 584.3361625 1446
-955.7687156 587.1648991 1453
-950.2122571 588.3772148 1456
-944.624769 589.5895305 1459
-939.6485265 591.2059514 1463
-933.9938078 592.4182671 1466
-926.4122636 592.4182671 1466
-916.9504384 591.2059514 1463
-906.8980538 589.5895305 1459
-897.5034592 588.3772148 1456
-889.9736309 588.3772148 1456
-878.2012843 585.5484782 1449
-866.50134 582.7197416 1442
-859.0439139 582.7197416 1442
-849.81481 581.5074259 1439
-838.2751847 578.6786893 1432
-829.1288262 577.4663736 1429
-820.0134971 576.2540579 1426
-810.9291976 575.0417422 1423
-799.6171221 572.2130056 1416
-790.615568 571.0006899 1413
-1193.070188 604.5018562 1477
-1193.4577 608.5946244 1487
-1197.728893 614.7337766 1502
-1192.337925 615.961607 1505
-1179.045132 613.0966693 1498
-1160.351386 607.3667939 1484
-1147.239599 604.5018562 1477
-1136.514908 602.8647489 1473
-1121.233231 598.7719808 1463
-1103.0101 593.0421054 1449
-1095.516472 593.0421054 1449
-1085.77021 591.8142749 1446
-1078.292098 591.8142749 1446
-1070.813985 591.8142749 1446
-1063.335873 591.8142749 1446
-1055.85776 591.8142749 1446
-1048.379648 591.8142749 1446
-1040.901535 591.8142749 1446
-1030.564714 590.1771677 1442
-1023.107288 590.1771677 1442
-1015.649862 590.1771677 1442
-1008.192435 590.1771677 1442
-998.6530364 588.9493372 1439
-991.2111251 588.9493372 1439
-983.7692137 588.9493372 1439
-976.3273024 588.9493372 1439
-970.905305 590.1771677 1442
-963.447879 590.1771677 1442
-958.6422988 591.8142749 1446
-955.7687156 594.6792126 1453
-950.2122571 595.9070431 1456
-944.624769 597.1348735 1459
-939.6485265 598.7719808 1463
-933.9938078 599.9998112 1466
-926.4122636 599.9998112 1466
-916.9504384 598.7719808 1463
-906.8980538 597.1348735 1459
-897.5034592 595.9070431 1456
-889.9736309 595.9070431 1456
-878.2012843 593.0421054 1449
-866.50134 590.1771677 1442
-859.0439139 590.1771677 1442
-849.81481 588.9493372 1439
-838.2751847 586.0843995 1432
-829.1288262 584.8565691 1429
-820.0134971 583.6287386 1426
-810.9291976 582.4009082 1423
-799.6171221 579.5359705 1416
-790.615568 578.30814 1413
-1200.70862 612.1402878 1477
-1198.72455 615.0414266 1484
-1199.878454 619.600359 1495
-1206.500542 627.0604302 1513
-1201.844938 628.7182238 1517
-1187.703007 625.4026366 1509
-1165.824742 617.9425654 1491
-1149.569808 613.383633 1480
-1136.514908 610.4824942 1473
-1121.233231 606.3380102 1463
-1106.054986 602.1935262 1453
-1095.516472 600.5357326 1449
-1085.77021 599.2923874 1446
-1078.292098 599.2923874 1446
-1070.813985 599.2923874 1446
-1063.335873 599.2923874 1446
-1052.936992 597.6345938 1442
-1045.479566 597.6345938 1442
-1038.02214 597.6345938 1442
-1028.420682 596.3912486 1439
-1020.97877 596.3912486 1439
-1011.423857 595.1479033 1436
-1003.99746 595.1479033 1436
-993.7950994 593.4901097 1432
-986.3893892 593.4901097 1432
-978.983679 593.4901097 1432
-971.5779688 593.4901097 1432
-966.8654772 595.1479033 1436
-961.4434798 596.3912486 1439
-954.0015685 596.3912486 1439
-951.1641864 599.2923874 1446
-948.2544021 602.1935262 1453
-940.7400886 602.1935262 1453
-935.1526005 603.4368714 1456
-932.0824971 606.3380102 1463
-924.5164677 606.3380102 1463
-916.9504384 606.3380102 1463
-906.8980538 604.6802166 1459
-897.5034592 603.4368714 1456
-888.139894 602.1935262 1453
-876.3830622 599.2923874 1446
-866.50134 597.6345938 1442
-857.2567213 596.3912486 1439
-848.0431321 595.1479033 1436
-836.5190217 592.2467645 1429
-827.3881778 591.0034193 1426
-818.2883635 589.7600741 1423
-808.6497058 588.1022805 1419
-797.9230181 585.6155901 1413
-788.9369786 584.3722449 1410
-1217.780307 628.590739 1498
-1222.14976 634.8850388 1513
-1223.153688 639.5008587 1524
-1230.423223 647.4736384 1543
-1216.105458 644.1166785 1535
-1199.5092 639.5008587 1524
-1174.425729 630.269219 1502
-1155.006963 623.9749192 1487
-1139.601168 619.7787193 1477
-1121.233231 613.9040395 1463
-1106.054986 609.7078397 1453
-1095.516472 608.0293597 1449
-1085.77021 606.7704998 1446
-1078.292098 606.7704998 1446
-1067.851844 605.0920198 1442
-1060.394418 605.0920198 1442
-1052.936992 605.0920198 1442
-1045.479566 605.0920198 1442
-1035.862593 603.8331599 1439
-1026.27665 602.5742999 1436
-1018.850253 602.5742999 1436
-1011.423857 602.5742999 1436
-1001.20081 600.89582 1432
-993.7950994 600.89582 1432
-984.322931 599.63696 1429
-978.983679 600.89582 1432
-971.5779688 600.89582 1432
-964.1722586 600.89582 1432
-959.4390806 602.5742999 1436
-954.0015685 603.8331599 1439
-948.5330268 605.0920198 1442
-943.686074 606.7704998 1446
-940.7400886 609.7078397 1453
-933.2257751 609.7078397 1453
-929.5340829 612.2255596 1459
-921.9887399 612.2255596 1459
-914.4433968 612.2255596 1459
-905.0332874 610.9666996 1456
-897.5034592 610.9666996 1456
-888.139894 609.7078397 1453
-876.3830622 606.7704998 1446
-866.50134 605.0920198 1442
-857.2567213 603.8331599 1439
-845.680895 600.89582 1432
-834.7628586 598.3781001 1426
-825.6475295 597.1192401 1423
-815.9881854 595.4407602 1419
-806.940087 594.1819002 1416
-796.228914 591.6641803 1410
-788.9369786 591.6641803 1410
-1214.073815 630.3906919 1484
-1229.974368 642.7096475 1513
-1234.266248 649.081521 1528
-1238.40298 655.4533946 1543
-1239.992296 660.5508935 1555
-1228.781476 658.8517272 1551
-1208.167075 652.055062 1535
-1176.771453 639.3113149 1505
-1158.113908 633.3642329 1491
-1139.601168 627.4171509 1477
-1121.233231 621.4700689 1463
-1103.0101 615.5229869 1449
-1095.516472 615.5229869 1449
-1085.77021 614.2486122 1446
-1078.292098 614.2486122 1446
-1067.851844 612.5494459 1442
-1060.394418 612.5494459 1442
-1052.936992 612.5494459 1442
-1045.479566 612.5494459 1442
-1035.862593 611.2750712 1439
-1026.27665 610.0006965 1436
-1016.01223 608.3015302 1432
-1008.60652 608.3015302 1432
-999.1033219 607.0271555 1429
-991.7131265 607.0271555 1429
-984.322931 607.0271555 1429
-976.9327355 607.0271555 1429
-969.5425401 607.0271555 1429
-964.1722586 608.3015302 1432
-956.7665483 608.3015302 1432
-952.012684 610.0006965 1436
-948.5330268 612.5494459 1442
-943.686074 614.2486122 1446
-938.1503017 615.5229869 1449
-930.6566745 615.5229869 1449
-927.6227722 618.4965279 1456
-921.9887399 619.7709026 1459
-912.5631157 618.4965279 1456
-905.0332874 618.4965279 1456
-895.6542075 617.2221532 1453
-888.139894 617.2221532 1453
-876.3830622 614.2486122 1446
-864.6986326 611.2750712 1439
-855.4695287 610.0006965 1436
-845.680895 608.3015302 1432
-834.7628586 605.7527808 1426
-825.6475295 604.4784061 1423
-814.2630518 601.5048651 1416
-805.2304682 600.2304903 1413
-796.228914 598.9561156 1410
-788.9369786 598.9561156 1410
-1223.073014 642.7949193 1495
-1238.91668 655.2638508 1524
-1246.382736 663.4331508 1543
-1250.441894 669.8825982 1558
-1251.953636 675.042156 1570
-1237.496238 671.6024508 1562
-1217.612029 665.1530034 1547
-1183.026717 650.5342561 1513
-1161.220854 642.7949193 1495
-1141.915862 636.3454719 1480
-1123.532411 630.3259877 1466
-1106.054986 624.7364667 1453
-1095.516472 623.0166141 1449
-1085.77021 621.7267246 1446
-1078.292098 621.7267246 1446
-1070.813985 621.7267246 1446
-1060.394418 620.006872 1442
-1052.936992 620.006872 1442
-1043.304504 618.7169825 1439
-1033.703046 617.427093 1436
-1026.27665 617.427093 1436
-1016.01223 615.7072404 1432
-1008.60652 615.7072404 1432
-999.1033219 614.4173509 1429
-991.7131265 614.4173509 1429
-982.2564728 613.1274615 1426
-974.8817921 613.1274615 1426
-969.5425401 614.4173509 1429
-962.1523446 614.4173509 1429
-956.7665483 615.7072404 1432
-952.012684 617.427093 1436
-948.5330268 620.006872 1442
-943.686074 621.7267246 1446
-938.1503017 623.0166141 1449
-930.6566745 623.0166141 1449
-927.6227722 626.0263562 1456
-920.092944 626.0263562 1456
-912.5631157 626.0263562 1456
-905.0332874 626.0263562 1456
-895.6542075 624.7364667 1453
-888.139894 624.7364667 1453
-873.958766 620.006872 1442
-864.6986326 618.7169825 1439
-855.4695287 617.427093 1436
-845.680895 615.7072404 1432
-834.7628586 613.1274615 1426
-823.326665 610.1177194 1419
-814.2630518 608.8278299 1416
-805.2304682 607.5379404 1413
-796.228914 606.248051 1410
-788.9369786 606.248051 1410
-779.4276105 604.5281983 1406
-1231.254105 654.8777868 1505
-1254.362492 671.412907 1543
-1258.499224 677.9399281 1558
-1266.49378 686.642623 1578
-1267.90209 691.8642399 1590
-1243.834247 683.161545 1570
-1223.908665 676.6345239 1555
-1186.154348 660.0994037 1517
-1163.551063 651.8318436 1498
-1145.002121 645.7399572 1484
-1126.597984 639.6480708 1470
-1106.054986 632.2507802 1453
-1098.540672 632.2507802 1453
-1085.77021 629.204837 1446
-1080.529218 630.5102413 1449
-1067.851844 627.4642981 1442
-1060.394418 627.4642981 1442
-1052.936992 627.4642981 1442
-1043.304504 626.1588938 1439
-1033.703046 624.8534896 1436
-1026.27665 624.8534896 1436
-1016.01223 623.1129506 1432
-1008.60652 623.1129506 1432
-997.0058342 620.5021422 1426
-989.6311535 620.5021422 1426
-982.2564728 620.5021422 1426
-974.8817921 620.5021422 1426
-967.5071114 620.5021422 1426
-962.1523446 621.8075464 1429
-956.7665483 623.1129506 1432
-952.012684 624.8534896 1436
-948.5330268 627.4642981 1442
-941.0756007 627.4642981 1442
-938.1503017 630.5102413 1449
-930.6566745 630.5102413 1449
-925.7114616 632.2507802 1453
-920.092944 633.5561845 1456
-912.5631157 633.5561845 1456
-903.168521 632.2507802 1453
-895.6542075 632.2507802 1453
-888.139894 632.2507802 1453
-873.958766 627.4642981 1442
-864.6986326 626.1588938 1439
-855.4695287 624.8534896 1436
-845.680895 623.1129506 1432
-834.7628586 620.5021422 1426
-825.6475295 619.196738 1423
-814.2630518 616.1507948 1416
-806.940087 616.1507948 1416
-797.9230181 614.8453905 1413
-788.9369786 613.5399863 1410
-779.4276105 611.7994473 1406
-1250.070613 672.7880683 1528
-1276.311803 691.280934 1570
-1284.347732 700.0870606 1590
-1289.769014 707.5722682 1607
-1281.458276 707.5722682 1607
-1259.67927 700.0870606 1590
-1235.714858 691.280934 1570
-1194.755336 672.7880683 1528
-1172.095163 664.4222481 1509
-1150.403074 656.4967342 1491
-1126.597984 647.2503013 1470
-1106.054986 639.7650937 1453
-1095.516472 638.0038684 1449
-1085.77021 636.6829494 1446
-1078.292098 636.6829494 1446
-1067.851844 634.9217241 1442
-1060.394418 634.9217241 1442
-1052.936992 634.9217241 1442
-1043.304504 633.6008052 1439
-1033.703046 632.2798862 1436
-1023.41794 630.5186609 1432
-1016.01223 630.5186609 1432
-1006.493517 629.1977419 1429
-997.0058342 627.8768229 1426
-989.6311535 627.8768229 1426
-982.2564728 627.8768229 1426
-974.8817921 627.8768229 1426
-967.5071114 627.8768229 1426
-962.1523446 629.1977419 1429
-956.7665483 630.5186609 1432
-949.3608381 630.5186609 1432
-946.5596571 633.6008052 1439
-941.0756007 634.9217241 1442
-936.2079616 636.6829494 1446
-930.6566745 638.0038684 1449
-925.7114616 639.7650937 1453
-918.1971481 639.7650937 1453
-910.6828346 639.7650937 1453
-903.168521 639.7650937 1453
-895.6542075 639.7650937 1453
-885.6949115 638.0038684 1449
-873.958766 634.9217241 1442
-864.6986326 633.6008052 1439
-855.4695287 632.2798862 1436
-845.680895 630.5186609 1432
-834.7628586 627.8768229 1426
-825.6475295 626.5559039 1423
-818.2883635 626.5559039 1423
-808.6497058 624.7946786 1419
-799.6171221 623.4737596 1416
-792.2941573 623.4737596 1416
-784.9711924 623.4737596 1416
-1274.613884 694.0545881 1558
-1286.067053 704.746058 1582
-1294.848688 714.1010942 1603
-1299.400145 721.2287408 1619
-1284.647967 717.6649175 1611
-1263.640525 710.5372709 1595
-1238.863176 701.1822347 1574
-1200.228691 683.8085961 1535
-1175.202108 674.008082 1513
-1153.489333 665.9894796 1495
-1128.897163 656.1889655 1473
-1108.338651 648.615841 1456
-1095.516472 645.4974956 1449
-1085.77021 644.1610619 1446
-1078.292098 644.1610619 1446
-1067.851844 642.3791502 1442
-1060.394418 642.3791502 1442
-1052.936992 642.3791502 1442
-1043.304504 641.0427165 1439
-1033.703046 639.7062827 1436
-1026.27665 639.7062827 1436
-1018.850253 639.7062827 1436
-1008.60652 637.9243711 1432
-997.0058342 635.2515036 1426
-989.6311535 635.2515036 1426
-982.2564728 635.2515036 1426
-974.8817921 635.2515036 1426
-967.5071114 635.2515036 1426
-962.1523446 636.5879373 1429
-956.7665483 637.9243711 1432
-949.3608381 637.9243711 1432
-946.5596571 641.0427165 1439
-941.0756007 642.3791502 1442
-933.6181747 642.3791502 1442
-928.7298491 644.1610619 1446
-923.1630474 645.4974956 1449
-918.1971481 647.2794073 1453
-910.6828346 647.2794073 1453
-903.168521 647.2794073 1453
-895.6542075 647.2794073 1453
-885.6949115 645.4974956 1449
-876.3830622 644.1610619 1446
-866.50134 642.3791502 1442
-857.2567213 641.0427165 1439
-848.0431321 639.7062827 1436
-836.5190217 636.5879373 1429
-827.3881778 635.2515036 1426
-820.0134971 635.2515036 1426
-810.9291976 633.9150699 1423
-803.5700316 633.9150699 1423
-793.9727466 632.1331582 1419
-786.634267 632.1331582 1419
-777.6482276 630.7967245 1416
-1281.158756 705.7171141 1566
-1292.570552 716.532702 1590
-1301.310815 725.9963415 1611
-1303.413117 731.854785 1624
-1291.027348 729.6015375 1619
-1266.80953 720.5885475 1599
-1242.011494 711.124908 1578
-1200.228691 691.7469796 1535
-1178.309053 683.6352887 1517
-1153.489333 673.7209997 1495
-1131.962736 665.6093087 1477
-1108.338651 656.1456693 1456
-1095.516472 652.9911228 1449
-1085.77021 651.6391743 1446
-1078.292098 651.6391743 1446
-1067.851844 649.8365763 1442
-1060.394418 649.8365763 1442
-1052.936992 649.8365763 1442
-1043.304504 648.4846278 1439
-1035.862593 648.4846278 1439
-1026.27665 647.1326793 1436
-1018.850253 647.1326793 1436
-1008.60652 645.3300813 1432
-1001.20081 645.3300813 1432
-993.7950994 645.3300813 1432
-984.322931 643.9781328 1429
-976.9327355 643.9781328 1429
-969.5425401 643.9781328 1429
-964.1722586 645.3300813 1432
-956.7665483 645.3300813 1432
-952.012684 647.1326793 1436
-946.5596571 648.4846278 1439
-941.0756007 649.8365763 1442
-936.2079616 651.6391743 1446
-928.7298491 651.6391743 1446
-923.1630474 652.9911228 1449
-918.1971481 654.7937208 1453
-910.6828346 654.7937208 1453
-903.168521 654.7937208 1453
-895.6542075 654.7937208 1453
-888.139894 654.7937208 1453
-876.3830622 651.6391743 1446
-868.9049498 651.6391743 1446
-859.0439139 649.8365763 1442
-849.81481 648.4846278 1439
-840.6167355 647.1326793 1436
-830.8694745 645.3300813 1432
-823.4637643 645.3300813 1432
-814.3484352 643.9781328 1429
-806.9582398 643.9781328 1429
-797.889455 642.6261843 1426
-790.5147743 642.6261843 1426
-781.4925338 641.2742358 1423
-1290.976065 719.2856697 1578
-1299.886989 728.8579125 1599
-1307.772942 737.9743341 1619
-1306.623494 742.0767239 1628
-1291.027348 737.9743341 1619
-1269.978534 730.6811968 1603
-1245.159813 721.1089541 1582
-1200.228691 699.6853631 1535
-1178.309053 691.4805836 1517
-1153.489333 681.4525198 1495
-1131.962736 673.2477403 1477
-1108.338651 663.6754975 1456
-1095.516472 660.48475 1449
-1085.77021 659.1172867 1446
-1078.292098 659.1172867 1446
-1067.851844 657.2940024 1442
-1060.394418 657.2940024 1442
-1052.936992 657.2940024 1442
-1043.304504 655.9265391 1439
-1035.862593 655.9265391 1439
-1028.420682 655.9265391 1439
-1018.850253 654.5590759 1436
-1011.423857 654.5590759 1436
-1001.20081 652.7357915 1432
-993.7950994 652.7357915 1432
-986.3893892 652.7357915 1432
-978.983679 652.7357915 1432
-971.5779688 652.7357915 1432
-964.1722586 652.7357915 1432
-959.4390806 654.5590759 1436
-952.012684 654.5590759 1436
-946.5596571 655.9265391 1439
-941.0756007 657.2940024 1442
-933.6181747 657.2940024 1442
-928.7298491 659.1172867 1446
-923.1630474 660.48475 1449
-915.6694202 660.48475 1449
-910.6828346 662.3080343 1453
-903.168521 662.3080343 1453
-897.5034592 663.6754975 1456
-888.139894 662.3080343 1453
-878.2012843 660.48475 1449
-873.111267 662.3080343 1453
-863.21403 660.48475 1449
-855.7204028 660.48475 1449
-848.2267756 660.48475 1449
-840.7331485 660.48475 1449
-833.2395213 660.48475 1449
-825.7458941 660.48475 1449
-816.5581629 659.1172867 1446
-809.0800504 659.1172867 1446
-799.3845053 657.2940024 1442
-790.2795194 655.9265391 1439
-1311.428791 738.9712481 1603
-1323.462176 750.4960648 1628
-1325.543791 756.4889695 1641
-1317.057219 756.4889695 1641
-1298.204153 750.4960648 1628
-1276.316543 742.6591895 1611
-1248.308131 731.1343728 1586
-1206.483955 711.311688 1543
-1180.639262 700.7088566 1520
-1155.804028 690.5670179 1498
-1131.962736 680.8861719 1477
-1108.338651 671.2053258 1456
-1095.516472 667.9783771 1449
-1085.77021 666.5953991 1446
-1078.292098 666.5953991 1446
-1067.851844 664.7514284 1442
-1060.394418 664.7514284 1442
-1052.936992 664.7514284 1442
-1043.304504 663.3684504 1439
-1035.862593 663.3684504 1439
-1028.420682 663.3684504 1439
-1020.97877 663.3684504 1439
-1013.536859 663.3684504 1439
-1003.99746 661.9854724 1436
-996.5710634 661.9854724 1436
-989.1446668 661.9854724 1436
-981.7182703 661.9854724 1436
-971.5779688 660.1415018 1432
-966.8654772 661.9854724 1436
-959.4390806 661.9854724 1436
-952.012684 661.9854724 1436
-946.5596571 663.3684504 1439
-939.1177458 663.3684504 1439
-933.6181747 664.7514284 1442
-926.1607486 664.7514284 1442
-923.1630474 667.9783771 1449
-915.6694202 667.9783771 1449
-910.6828346 669.8223478 1453
-903.168521 669.8223478 1453
-897.5034592 671.2053258 1456
-889.9736309 671.2053258 1456
-882.4438026 671.2053258 1456
-874.9139743 671.2053258 1456
-867.3841461 671.2053258 1456
-859.8543178 671.2053258 1456
-852.3244895 671.2053258 1456
-844.7946612 671.2053258 1456
-837.264833 671.2053258 1456
-831.4446235 672.5883038 1459
-822.2051764 671.2053258 1456
-812.9967588 669.8223478 1453
-803.2650126 667.9783771 1449
-794.1238256 666.5953991 1446
-784.4696531 664.7514284 1442
-1321.246099 752.8552705 1615
-1334.030363 764.9755411 1641
-1332.813684 769.1710194 1650
-1324.280568 769.1710194 1650
-1301.393844 760.7800628 1632
-1276.316543 750.9906135 1611
-1251.456449 741.2011641 1590
-1203.356323 717.4267872 1539
-1180.639262 708.5696664 1520
-1155.804028 698.3140528 1498
-1131.962736 688.5246034 1477
-1108.338651 678.7351541 1456
-1095.516472 675.4720043 1449
-1085.77021 674.0735115 1446
-1075.30927 672.2088545 1442
-1067.851844 672.2088545 1442
-1060.394418 672.2088545 1442
-1050.746416 670.8103618 1439
-1043.304504 670.8103618 1439
-1035.862593 670.8103618 1439
-1028.420682 670.8103618 1439
-1020.97877 670.8103618 1439
-1013.536859 670.8103618 1439
-1003.99746 669.411869 1436
-996.5710634 669.411869 1436
-989.1446668 669.411869 1436
-981.7182703 669.411869 1436
-974.2918737 669.411869 1436
-968.8853911 670.8103618 1439
-961.4434798 670.8103618 1439
-954.0015685 670.8103618 1439
-948.5330268 672.2088545 1442
-941.0756007 672.2088545 1442
-933.6181747 672.2088545 1442
-928.7298491 674.0735115 1446
-923.1630474 675.4720043 1449
-915.6694202 675.4720043 1449
-910.6828346 677.3366613 1453
-903.168521 677.3366613 1453
-897.5034592 678.7351541 1456
-889.9736309 678.7351541 1456
-882.4438026 678.7351541 1456
-876.7166817 680.1336468 1459
-869.1713387 680.1336468 1459
-861.6259956 680.1336468 1459
-856.4222034 681.9983039 1463
-848.856174 681.9983039 1463
-843.0152783 683.3967966 1466
-835.4337341 683.3967966 1466
-826.1580859 681.9983039 1463
-818.5920566 681.9983039 1463
-808.8085944 680.1336468 1459
-799.6156916 678.7351541 1456
-788.2777582 675.4720043 1449
-1328.60908 765.4494034 1624
-1341.3468 777.7041352 1650
-1339.275811 781.4748219 1658
-1324.280568 777.7041352 1650
-1301.393844 769.2200901 1632
-1276.316543 759.3220375 1611
-1251.456449 749.4239849 1590
-1203.356323 725.385857 1539
-1178.309053 715.0164686 1517
-1155.804028 706.0610876 1498
-1131.962736 696.163035 1477
-1108.338651 686.2649824 1456
-1095.516472 682.9656315 1449
-1082.766696 679.6662806 1442
-1075.30927 679.6662806 1442
-1065.630238 678.2522731 1439
-1058.188327 678.2522731 1439
-1052.936992 679.6662806 1442
-1045.479566 679.6662806 1442
-1035.862593 678.2522731 1439
-1028.420682 678.2522731 1439
-1020.97877 678.2522731 1439
-1013.536859 678.2522731 1439
-1006.094948 678.2522731 1439
-998.6530364 678.2522731 1439
-991.2111251 678.2522731 1439
-983.7692137 678.2522731 1439
-976.3273024 678.2522731 1439
-968.8853911 678.2522731 1439
-961.4434798 678.2522731 1439
-955.9904529 679.6662806 1442
-948.5330268 679.6662806 1442
-941.0756007 679.6662806 1442
-933.6181747 679.6662806 1442
-928.7298491 681.551624 1446
-923.1630474 682.9656315 1449
-915.6694202 682.9656315 1449
-910.6828346 684.8509748 1453
-905.0332874 686.2649824 1456
-899.3527108 687.6789899 1459
-891.8073678 687.6789899 1459
-884.2620247 687.6789899 1459
-879.1202915 689.5643332 1463
-871.5542622 689.5643332 1463
-865.7599106 690.9783408 1466
-858.1783665 690.9783408 1466
-854.6583352 694.2776916 1473
-847.04059 694.2776916 1473
-839.4228447 694.2776916 1473
-831.8050995 694.2776916 1473
-822.508765 692.8636841 1470
-812.6891018 690.9783408 1466
-801.2632514 687.6789899 1459
-792.0858633 686.2649824 1456
-782.9395048 684.8509748 1453
-1335.153953 777.6601174 1632
-1344.598549 788.1432808 1654
-1339.275811 790.0493105 1658
-1327.490945 788.1432808 1654
-1301.393844 777.6601174 1632
-1276.316543 767.6534615 1611
-1248.308131 755.7407759 1586
-1203.356323 733.3449269 1539
-1178.309053 722.8617635 1517
-1153.489333 712.3786002 1495
-1128.897163 701.8954369 1473
-1110.622316 695.2243329 1459
-1095.516472 690.4592587 1449
-1082.766696 687.1237067 1442
-1073.07215 685.6941844 1439
-1063.408632 684.2646621 1436
-1055.982236 684.2646621 1436
-1050.746416 685.6941844 1439
-1043.304504 685.6941844 1439
-1035.862593 685.6941844 1439
-1028.420682 685.6941844 1439
-1020.97877 685.6941844 1439
-1013.536859 685.6941844 1439
-1006.094948 685.6941844 1439
-998.6530364 685.6941844 1439
-991.2111251 685.6941844 1439
-985.8201572 687.1237067 1442
-978.3627311 687.1237067 1442
-970.905305 687.1237067 1442
-963.447879 687.1237067 1442
-955.9904529 687.1237067 1442
-948.5330268 687.1237067 1442
-941.0756007 687.1237067 1442
-936.2079616 689.0297364 1446
-928.7298491 689.0297364 1446
-923.1630474 690.4592587 1449
-918.1971481 692.3652884 1453
-912.5631157 693.7948106 1456
-906.8980538 695.2243329 1459
-901.8183796 697.1303626 1463
-894.2523503 697.1303626 1463
-888.504543 698.5598849 1466
-883.3266087 700.4659146 1470
-877.5115708 701.8954369 1473
-872.2560628 703.8014666 1477
-866.3737943 705.2309888 1480
-862.7813608 708.5665408 1487
-855.0912133 708.5665408 1487
-849.6805577 710.4725705 1491
-841.9697239 710.4725705 1491
-832.0207711 708.5665408 1487
-822.6675491 707.1370185 1484
-808.9518638 701.8954369 1473
-799.7020736 700.4659146 1470
-788.3279391 697.1303626 1463
-1345.78937 792.3619718 1645
-1355.166736 802.9589101 1667
-1343.31464 801.032194 1663
-1324.280568 794.7703669 1650
-1301.393844 786.1001447 1632
-1273.147538 774.0581694 1607
-1248.308131 763.9429102 1586
-1203.356323 741.3039967 1539
-1178.309053 730.7070585 1517
-1153.489333 720.1101203 1495
-1131.962736 711.4398981 1477
-1113.667202 704.696392 1463
-1095.516472 697.9528858 1449
-1085.77021 696.5078488 1446
-1075.30927 694.5811328 1442
-1063.408632 691.6910587 1436
-1055.982236 691.6910587 1436
-1050.746416 693.1360957 1439
-1045.479566 694.5811328 1442
-1035.862593 693.1360957 1439
-1028.420682 693.1360957 1439
-1020.97877 693.1360957 1439
-1013.536859 693.1360957 1439
-1008.192435 694.5811328 1442
-1000.735009 694.5811328 1442
-993.2775833 694.5811328 1442
-985.8201572 694.5811328 1442
-978.3627311 694.5811328 1442
-973.5985236 696.5078488 1446
-963.447879 694.5811328 1442
-958.6422988 696.5078488 1446
-948.5330268 694.5811328 1442
-941.0756007 694.5811328 1442
-936.2079616 696.5078488 1446
-928.7298491 696.5078488 1446
-923.1630474 697.9528858 1449
-918.1971481 699.8796019 1453
-912.5631157 701.3246389 1456
-906.8980538 702.7696759 1459
-901.8183796 704.696392 1463
-896.0860871 706.141429 1466
-888.504543 706.141429 1466
-885.1293161 709.5131821 1473
-879.8944943 711.4398981 1477
-874.0277406 712.8849351 1480
-868.7153451 714.8116512 1484
-865.1022252 718.1834043 1491
-859.6915696 720.1101203 1495
-853.6696683 721.5551573 1498
-845.9226334 721.5551573 1498
-836.4970093 720.1101203 1495
-826.5480564 718.1834043 1491
-812.79617 712.8849351 1480
-803.5101787 711.4398981 1477
-792.0998431 708.068145 1470
-1349.879915 803.3034827 1650
-1355.166736 811.5799428 1667
-1343.31464 809.6325405 1663
-1324.280568 803.3034827 1650
-1298.204153 792.5927696 1628
-1273.147538 782.3689071 1607
-1248.308131 772.1450446 1586
-1206.483955 751.210469 1543
-1180.639262 740.0129053 1520
-1155.804028 729.3021922 1498
-1134.261916 720.5388815 1480
-1118.995753 715.6703755 1470
-1100.808823 708.8544672 1456
-1088.022845 705.446513 1449
-1075.30927 702.0385588 1442
-1063.408632 699.1174553 1436
-1058.188327 700.578007 1439
-1052.936992 702.0385588 1442
-1045.479566 702.0385588 1442
-1038.02214 702.0385588 1442
-1028.420682 700.578007 1439
-1023.107288 702.0385588 1442
-1015.649862 702.0385588 1442
-1008.192435 702.0385588 1442
-1000.735009 702.0385588 1442
-993.2775833 702.0385588 1442
-985.8201572 702.0385588 1442
-978.3627311 702.0385588 1442
-973.5985236 703.9859612 1446
-966.1204112 703.9859612 1446
-958.6422988 703.9859612 1446
-951.1641864 703.9859612 1446
-943.686074 703.9859612 1446
-936.2079616 703.9859612 1446
-930.6566745 705.446513 1449
-923.1630474 705.446513 1449
-918.1971481 707.3939154 1453
-912.5631157 708.8544672 1456
-906.8980538 710.315019 1459
-903.6676313 713.7229731 1466
-896.0860871 713.7229731 1466
-890.9288392 715.6703755 1470
-887.5329259 719.0783297 1477
-881.6816869 720.5388815 1480
-876.3899777 722.4862838 1484
-870.4715082 723.9468356 1487
-867.4230897 727.8416404 1495
-861.4167032 729.3021922 1498
-855.9491601 731.2495946 1502
-848.1814389 731.2495946 1502
-840.4137177 731.2495946 1502
-830.4285637 729.3021922 1498
-816.6404763 723.9468356 1487
-807.3182838 722.4862838 1484
-795.8717471 719.0783297 1477
-1353.152352 813.8046873 1654
