# .PCD v0.7 - Point Cloud Data file format
VERSION 0.7
FIELDS x y z
SIZE 4 4 4
TYPE F F F
COUNT 1 1 1
WIDTH 1642
HEIGHT 1
VIEWPOINT 0 0 0 1 0 0 0
POINTS 1642
DATA ascii
36.98270191 -321.466748 916
41.71987409 -321.466748 916
46.55848087 -322.1686404 918
51.36188511 -322.5195867 919
56.17563252 -322.8705329 920
60.93349104 -322.8705329 920
65.83415685 -323.5724254 922
70.90865945 -324.9762103 926
75.77929429 -325.3271565 927
80.74719071 -326.029049 929
86.19622338 -328.4856726 936
91.03682727 -328.4856726 936
96.08229746 -329.1875651 938
101.148454 -329.8894575 940
192.1708555 -598.0123783 1704
-44.26236752 -321.9161955 931
-39.40525032 -321.5704208 930
-34.5584763 -321.2246462 929
-29.56190511 -319.1499983 923
-24.70796238 -318.1126744 920
-19.92841896 -317.7668997 919
-15.15921872 -317.4211251 918
-10.37767819 -316.3838011 915
-5.645677592 -316.3838011 915
-0.9136769951 -316.3838011 915
3.818323602 -316.3838011 915
8.550324199 -316.3838011 915
13.2823248 -316.3838011 915
18.01432539 -316.3838011 915
22.77118536 -316.7295758 916
27.50835754 -316.7295758 916
32.31593481 -317.4211251 918
37.06345017 -317.4211251 918
41.85651123 -317.7668997 919
46.65991547 -318.1126744 920
51.52955176 -318.8042237 922
56.29775346 -318.8042237 922
61.13218721 -319.1499983 923
65.97696413 -319.495773 924
70.98523467 -320.5330969 927
75.94278792 -321.2246462 929
80.83410911 -321.5704208 930
86.19622338 -323.6450687 936
91.13408883 -323.9908434 937
96.08229746 -324.336618 938
101.2560587 -325.3739419 941
191.6069739 -587.4711236 1699
-44.40499599 -318.1232587 934
-39.44762156 -317.1014495 931
-34.59567595 -316.7608465 930
-29.59393317 -314.7172281 924
-24.76167535 -314.036022 922
-19.95010386 -313.3548158 920
-15.17573203 -313.0142128 919
-10.38901991 -311.9924036 916
-5.651847731 -311.9924036 916
-0.9146755492 -311.9924036 916
3.822496633 -311.9924036 916
8.559668815 -311.9924036 916
13.296841 -311.9924036 916
18.03401318 -311.9924036 916
22.77118536 -311.9924036 916
27.56841946 -312.6736097 918
32.35113736 -313.0142128 919
37.10382429 -313.0142128 919
41.90205695 -313.3548158 920
46.65991547 -313.3548158 920
51.58544065 -314.376625 923
56.35881393 -314.376625 923
61.19841926 -314.7172281 924
65.97696413 -314.7172281 924
70.98523467 -315.7390373 927
76.02453473 -316.7608465 930
81.0948643 -317.7826556 933
86.19622338 -318.8044648 936
91.2313504 -319.4856709 938
96.28716377 -320.1668771 940
101.2560587 -320.5074801 941
190.591987 -575.6191726 1690
-44.54762446 -314.2992924 937
-39.57473527 -313.292998 934
-34.7072749 -312.9575665 933
-29.69001737 -310.9449776 927
-24.81538831 -309.9386832 924
-19.99347365 -309.2678203 922
-15.19224534 -308.5969573 920
-10.41170336 -307.9260944 918
-5.66418801 -307.9260944 918
-0.9166726574 -307.9260944 918
3.830842696 -307.9260944 918
8.559668815 -307.2552314 916
13.296841 -307.2552314 916
18.03401318 -307.2552314 916
22.82090411 -307.9260944 918
27.56841946 -307.9260944 918
32.3863399 -308.5969573 920
37.14419842 -308.5969573 920
41.99314838 -309.2678203 922
46.81206737 -309.6032517 923
51.64132953 -309.9386832 924
56.4198744 -309.9386832 924
61.33088337 -310.6095462 926
66.11977141 -310.6095462 926
71.29153558 -312.2867036 931
76.26977516 -312.9575665 933
81.35561949 -313.9638609 936
86.38040334 -314.6347239 938
91.42587354 -315.3055868 940
96.38959692 -315.6410183 941
101.4712682 -316.3118813 943
190.1408817 -565.5374674 1686
-44.73779575 -310.7745565 941
-39.74422022 -309.7837768 938
-34.81887386 -309.123257 936
-29.81812964 -307.4719576 931
-24.94967071 -306.8114378 929
-20.08021323 -305.8206581 926
-15.25829858 -305.1601384 924
-10.45707026 -304.4996186 922
-5.688868568 -304.4996186 922
-0.9186697656 -303.8390988 920
3.839188758 -303.8390988 920
8.597047282 -303.8390988 920
13.35490581 -303.8390988 920
18.11276433 -303.8390988 920
22.87062285 -303.8390988 920
27.62848138 -303.8390988 920
32.49194753 -304.8298785 923
37.26532081 -304.8298785 923
42.0842398 -305.1601384 924
46.96421927 -305.8206581 926
51.80899619 -306.150918 927
56.72517675 -306.8114378 929
61.5958116 -307.1416977 930
66.40538597 -307.1416977 930
71.44468603 -308.1324774 933
76.5150156 -309.123257 936
81.44253788 -309.4535169 937
86.5645833 -310.4442966 940
91.42587354 -310.4442966 940
96.38959692 -310.7745565 941
101.4712682 -311.4350763 943
-44.88042421 -306.8833596 944
-39.9560764 -306.5582713 943
-34.96767246 -305.5830064 940
-29.91421383 -303.6324765 934
-24.97652719 -302.3321233 930
-20.14526792 -302.007035 929
-15.30783851 -301.3568584 927
-10.47975371 -300.3815935 924
-5.695038708 -300.0565052 923
-0.9206668738 -299.7314169 922
3.847534821 -299.7314169 922
8.615736515 -299.7314169 922
13.35490581 -299.0812403 920
18.11276433 -299.0812403 920
22.9203416 -299.7314169 922
27.68854329 -299.7314169 922
32.49194753 -300.0565052 923
37.30569494 -300.3815935 924
42.17533123 -301.0317701 926
46.96421927 -301.0317701 926
51.92077396 -302.007035 929
56.78623722 -302.3321233 930
61.66204365 -302.6572116 931
66.6195969 -303.3073882 933
71.67441171 -304.2826531 936
76.59676241 -304.6077415 937
81.52945628 -304.9328298 938
86.5645833 -305.5830064 940
91.42587354 -305.5830064 940
96.59446323 -306.5582713 943
101.578873 -306.8833596 944
-44.97550986 -302.6412165 946
-39.99844764 -302.001383 944
-35.00487211 -301.0416329 941
-29.97826997 -299.4420493 936
-25.05709663 -298.4822991 933
-20.16695282 -297.5225489 930
-15.34086513 -297.2026322 929
-10.50243716 -296.2428821 926
-5.701208847 -295.6030486 924
-0.9216654279 -295.2831319 923
3.851707852 -295.2831319 923
8.615736515 -294.9632152 922
13.38393821 -294.9632152 922
18.1521399 -294.9632152 922
22.9203416 -294.9632152 922
27.68854329 -294.9632152 922
32.49194753 -295.2831319 923
37.30569494 -295.6030486 924
42.17533123 -296.2428821 926
46.96421927 -296.2428821 926
51.92077396 -297.2026322 929
56.78623722 -297.5225489 930
61.66204365 -297.8424657 931
66.6195969 -298.4822991 933
71.67441171 -299.4420493 936
76.67850922 -300.0818827 938
81.70329307 -300.7217161 940
86.65667329 -301.0416329 941
91.71765824 -301.6814663 943
96.59446323 -301.6814663 943
101.578873 -302.001383 944
-45.0705955 -298.378387 948
-40.08319011 -297.7488967 946
-35.07927142 -296.8046613 943
-30.01029803 -294.9161905 937
-25.13766608 -294.6014454 936
-20.2320075 -293.65721 933
-15.35737844 -292.7129746 930
-10.51377889 -291.7687392 927
-5.713549126 -291.453994 926
-0.922663982 -290.8245038 924
3.851707852 -290.5097586 923
8.625081132 -290.5097586 923
13.38393821 -290.1950135 922
18.1521399 -290.1950135 922
22.9203416 -290.1950135 922
27.71857425 -290.5097586 923
32.52715007 -290.8245038 924
37.30569494 -290.8245038 924
42.17533123 -291.453994 926
46.96421927 -291.453994 926
51.97666284 -292.7129746 930
56.78623722 -292.7129746 930
61.79450776 -293.65721 933
66.69100054 -293.9719551 934
71.75098693 -294.9161905 937
76.84200284 -295.8604259 940
81.96404826 -296.8046613 943
87.1171232 -297.7488967 946
92.00944294 -297.7488967 946
97.00419584 -298.0636418 947
102.0092919 -298.378387 948
-45.0705955 -293.4757241 948
-40.12556135 -293.1661505 947
-35.11647107 -292.2374299 944
-30.0423261 -290.3799886 938
-25.13766608 -289.7608415 936
-20.2536924 -289.1416944 934
-15.37389175 -288.2129737 931
-10.51377889 -286.9746795 927
-5.713549126 -286.665106 926
-0.9246610902 -286.665106 926
3.855880883 -286.0459589 924
8.625081132 -285.7363853 923
13.41297061 -286.0459589 924
18.19151548 -286.0459589 924
22.97006034 -286.0459589 924
27.74860521 -286.0459589 924
32.59755516 -286.665106 926
37.3864432 -286.665106 926
42.22087695 -286.9746795 927
47.11637117 -287.5938266 929
52.03255173 -288.2129737 931
56.96941863 -288.8321208 933
61.79450776 -288.8321208 933
66.83380782 -289.7608415 936
71.82756216 -290.3799886 938
76.92374966 -291.3087092 941
82.05096666 -292.2374299 944
87.20921318 -293.1661505 947
92.10670451 -293.1661505 947
97.10662899 -293.4757241 948
102.3321061 -294.4044447 951
-45.0705955 -288.5730612 948
-40.08319011 -287.9642572 946
-35.07927142 -287.0510513 943
-30.0423261 -285.5290415 938
-25.16452256 -285.2246396 937
-20.2536924 -284.3114337 934
-15.37389175 -283.3982278 931
-10.51377889 -282.1806199 927
-5.713549126 -281.876218 926
-0.9246610902 -281.876218 926
3.855880883 -281.267414 924
8.634425748 -281.267414 924
13.41297061 -281.267414 924
18.19151548 -281.267414 924
22.97006034 -281.267414 924
27.80866712 -281.876218 926
32.6327577 -282.1806199 927
37.42681732 -282.1806199 927
42.31196837 -282.7894238 929
47.16708847 -283.0938258 930
52.1443295 -284.0070317 933
56.96941863 -284.0070317 933
61.99320393 -284.9202376 936
66.90521146 -285.2246396 937
72.05728784 -286.4422474 941
77.16899009 -287.3554533 944
82.31172185 -288.2686592 947
87.48548313 -289.1818651 950
97.41392845 -289.486267 951
102.5473156 -290.095071 953
-44.97550986 -283.0719375 946
-39.99844764 -282.4734767 944
-35.00487211 -281.5757856 941
-30.10638223 -281.2765552 940
-25.16452256 -280.3788641 937
-20.29706219 -280.0796337 936
-15.40691837 -279.1819426 933
-10.53646234 -277.9850211 929
-5.719719265 -277.3865603 927
-0.9246610902 -277.0873299 926
3.855880883 -276.4888692 924
8.634425748 -276.4888692 924
13.44200302 -277.0873299 926
18.23089105 -277.0873299 926
23.01977909 -277.0873299 926
27.80866712 -277.0873299 926
32.6327577 -277.3865603 927
37.50756558 -277.9850211 929
42.35751409 -278.2842514 930
47.21780576 -278.5834818 931
52.1443295 -279.1819426 933
57.0304791 -279.4811729 934
62.05943599 -280.3788641 937
66.9766151 -280.6780945 938
72.05728784 -281.5757856 941
77.16899009 -282.4734767 944
82.39864025 -283.6703982 948
87.57757311 -284.5680894 951
92.78753548 -285.4657805 954
97.72122791 -285.4657805 954
182.3900314 -507.1954905 1695
-44.97550986 -278.1796177 946
-39.99844764 -277.5915002 944
-35.00487211 -276.7093238 941
-30.10638223 -276.415265 940
-25.19137904 -275.8271474 938
-20.29706219 -275.2390298 936
-15.40691837 -274.3568534 933
-10.53646234 -273.1806183 929
-5.719719265 -272.5925007 927
-0.9246610902 -272.2984419 926
3.855880883 -271.7103243 924
8.634425748 -271.7103243 924
13.41297061 -271.7103243 924
18.19151548 -271.7103243 924
23.01977909 -272.2984419 926
27.80866712 -272.2984419 926
32.70316279 -273.1806183 929
37.50756558 -273.1806183 929
42.4030598 -273.7687359 931
47.31924036 -274.3568534 933
52.31199615 -275.2390298 936
57.21366051 -275.5330886 937
62.12566804 -275.8271474 938
67.3336333 -277.2974414 943
72.5167392 -278.4736765 947
77.49597734 -278.7677353 948
82.83323223 -280.2380293 953
88.03802302 -281.1202057 956
93.07932018 -281.4142645 957
98.23339367 -282.002382 959
182.8204504 -499.6058885 1699
-45.02305268 -273.5761852 947
-40.08319011 -273.287298 946
-35.11647107 -272.7095236 944
-30.1384103 -271.842862 941
-25.245092 -271.5539748 940
-20.34043198 -270.9762003 938
-15.4564583 -270.3984259 936
-10.54780406 -268.6651027 930
-5.732059544 -268.3762155 929
-0.9256596442 -267.7984411 927
3.864226946 -267.5095539 926
8.634425748 -266.9317794 924
13.41297061 -266.9317794 924
18.23089105 -267.5095539 926
23.01977909 -267.5095539 926
27.83869808 -267.7984411 927
32.73836533 -268.6651027 930
37.58831384 -268.9539899 931
42.49415123 -269.5317643 933
47.36995766 -269.8206515 934
52.36788504 -270.6873131 937
57.27472098 -270.9762003 938
62.25813215 -271.5539748 940
67.3336333 -272.4206364 943
72.5167392 -273.5761852 947
77.65947096 -274.4428468 950
82.92015063 -275.5983957 954
88.130113 -276.4650573 957
93.27384332 -277.0428317 959
98.54069313 -277.9094933 962
182.8204504 -490.819365 1699
-45.0705955 -268.9624095 948
-40.08319011 -268.3949783 946
-35.11647107 -267.827547 944
-30.1384103 -266.9764001 941
-25.245092 -266.6926845 940
-20.34043198 -266.1252533 938
-15.4564583 -265.557822 936
-10.58182924 -264.7066752 933
-5.738229684 -263.8555283 930
-0.9256596442 -263.0043814 927
3.864226946 -262.7206658 926
8.634425748 -262.1532346 924
13.41297061 -262.1532346 924
18.23089105 -262.7206658 926
23.01977909 -262.7206658 926
27.83869808 -263.0043814 927
32.77356788 -264.1392439 931
37.6690621 -264.7066752 933
42.53969694 -264.9903908 934
47.47139226 -265.557822 936
52.36788504 -265.8415377 937
57.27472098 -266.1252533 938
62.25813215 -266.6926845 940
67.40503695 -267.827547 944
72.59331442 -268.9624095 948
77.74121777 -269.8135564 951
83.09398742 -271.2321345 956
88.31429297 -272.0832813 959
93.37110489 -272.366997 960
98.54069313 -272.9344282 962
183.3584741 -483.4514196 1704
-45.0705955 -264.0597466 948
-40.12556135 -263.7812025 947
-35.19087037 -263.5026585 946
-30.20246643 -262.6670264 943
-25.27194848 -262.1099383 941
-20.38380177 -261.8313943 940
-15.47297161 -260.9957622 937
-10.58182924 -259.881586 933
-5.744399823 -259.324498 931
-0.9276567524 -258.7674099 929
3.876746039 -258.7674099 929
8.653114981 -257.9317778 926
13.44200302 -257.9317778 926
18.25057884 -258.2103218 927
23.04463846 -258.2103218 927
27.89876 -258.7674099 929
32.77356788 -259.324498 931
37.70943623 -260.1601301 934
42.63078837 -260.7172181 936
47.52210956 -260.9957622 937
52.36788504 -260.9957622 937
57.27472098 -261.2743062 938
62.25813215 -261.8313943 940
67.54784423 -263.5026585 946
72.59331442 -264.0597466 948
77.90471139 -265.4524668 953
83.09398742 -266.2880989 956
88.40638295 -267.402275 960
93.37110489 -267.402275 960
98.64312628 -268.2379071 963
183.8964977 -476.0317583 1709
-45.21322397 -259.977201 951
-40.25267506 -259.7038286 950
-35.26526967 -259.1570837 948
-30.29855063 -258.6103388 946
-25.35251792 -258.0635939 944
-20.40548667 -257.2434765 941
-15.52251154 -256.9701041 940
-10.61585441 -255.8766143 936
-5.756740102 -255.0564969 933
-0.9296538606 -254.509752 931
3.880919071 -254.2363795 930
8.662459598 -253.4162622 927
13.45651922 -253.4162622 927
18.28995441 -253.9630071 929
23.09435721 -253.9630071 929
27.89876 -253.9630071 929
32.84397296 -255.0564969 933
37.70943623 -255.3298694 934
42.63078837 -255.8766143 936
47.52210956 -256.1499867 937
52.42377392 -256.4233592 938
57.39684192 -256.9701041 940
62.32436421 -257.2434765 941
67.61924787 -258.8837112 947
72.8230401 -259.977201 951
77.98645821 -260.7973184 954
83.18090582 -261.6174357 957
88.59056291 -262.984298 962
93.66288959 -263.2576704 963
98.84799259 -263.8044153 965
184.8649404 -469.653871 1718
-45.45093808 -256.4000277 956
-40.42216001 -255.863626 954
-35.45126793 -255.5954251 953
-30.42666289 -254.7908225 950
-25.45994385 -254.2544208 948
-20.51391114 -253.718019 946
-15.58856478 -253.1816173 944
-10.66122131 -252.1088138 940
-5.78142066 -251.3042112 937
-0.9326495229 -250.4996086 934
3.885092102 -249.695006 931
8.690493448 -249.4268052 930
13.50006782 -249.4268052 930
18.3096422 -249.4268052 930
23.11921658 -249.4268052 930
27.92879096 -249.4268052 930
32.84397296 -250.2314078 933
37.79018448 -251.0360104 936
42.67633409 -251.3042112 937
47.57282686 -251.5724121 938
52.53555169 -252.1088138 940
57.39684192 -252.1088138 940
62.45682832 -252.9134164 943
67.69065151 -254.2544208 948
72.8230401 -255.0590234 951
78.14995183 -256.4000277 956
83.35474262 -257.2046303 959
88.59056291 -258.0092329 962
93.66288959 -258.2774337 963
98.95042574 -259.0820363 966
185.4029641 -462.1100917 1723
-45.4984809 -251.7190214 957
-40.54927372 -251.7190214 957
-35.56286689 -251.4559921 956
-30.45869096 -250.1408457 951
-25.51365681 -249.8778164 950
-20.55728093 -249.3517578 948
-15.6215914 -248.8256993 946
-10.67256303 -247.5105529 941
-5.78142066 -246.4584358 937
-0.9346466311 -246.1954065 936
3.897611196 -245.6693479 934
8.699838064 -244.8802601 931
13.51458403 -244.8802601 931
18.32932999 -244.8802601 931
23.14407595 -244.8802601 931
27.95882191 -244.8802601 931
32.87917551 -245.6693479 934
37.83055861 -246.4584358 937
42.7218798 -246.721465 938
47.67426146 -247.2475236 940
52.53555169 -247.2475236 940
57.45790239 -247.5105529 941
62.52306037 -248.2996407 944
67.69065151 -249.3517578 948
73.05276578 -250.9299335 954
78.39519226 -252.2450799 959
83.61549781 -253.0341678 962
88.95892284 -254.0862849 966
94.14919743 -254.6123435 968
99.2577252 -254.8753727 969
-45.64110937 -247.5433873 960
-40.63401619 -247.2855296 959
-35.60006654 -246.7698142 957
-30.61883129 -246.5119565 956
-25.59422625 -245.7383834 953
-20.60065073 -244.9648103 950
-15.65461802 -244.4490949 948
-10.69524648 -243.1598065 943
-5.806101218 -242.6440911 941
-0.9366437393 -241.870518 938
3.905957258 -241.3548026 936
8.718527298 -240.5812295 933
13.54361643 -240.5812295 933
18.36870556 -240.5812295 933
23.1937947 -240.5812295 933
28.01888383 -240.5812295 933
32.94958059 -241.3548026 936
37.87093274 -241.870518 938
42.81297123 -242.3862334 940
47.67426146 -242.3862334 940
52.59144057 -242.6440911 941
57.45790239 -242.6440911 941
62.45682832 -243.1598065 943
67.61924787 -244.1912372 947
72.97619055 -245.7383834 953
78.47693907 -247.5433873 960
83.7024162 -248.3169604 963
88.95892284 -249.0905334 966
94.44098213 -250.3798219 971
99.56502466 -250.6376796 972
-45.73619501 -243.0840376 962
-40.67638743 -242.5786653 960
-35.67446584 -242.3259792 959
-30.61883129 -241.5679209 956
-25.62108273 -241.0625487 954
-20.66570541 -240.8098626 953
-15.68764464 -240.0518042 950
-10.72927166 -239.0410598 946
-5.818441496 -238.2830015 943
-0.9396394016 -237.7776292 941
3.922649383 -237.5249431 940
8.765250381 -237.0195709 938
13.64522984 -237.5249431 940
18.50652008 -237.5249431 940
23.36781031 -237.5249431 940
28.16903862 -237.0195709 938
33.09039077 -237.5249431 940
37.99205513 -237.7776292 941
42.85851694 -237.7776292 941
47.72497876 -237.7776292 941
52.70321834 -238.2830015 943
57.45790239 -237.7776292 941
62.52306037 -238.5356876 944
67.69065151 -239.546432 948
73.05276578 -241.0625487 954
78.47693907 -242.5786653 960
83.61549781 -243.0840376 962
88.95892284 -244.094782 966
94.44098213 -245.3582125 971
100.0771904 -246.8743292 977
-40.80350114 -238.356487 963
-35.82326445 -238.356487 963
-30.74694356 -237.6139434 960
-25.78222162 -237.6139434 960
-20.75244499 -236.8713998 957
-15.75369788 -236.1288562 954
-10.77463856 -235.1387982 950
-5.849292194 -234.6437691 948
-0.944632172 -234.1487401 946
3.947687571 -234.1487401 946
8.811973464 -233.4061965 943
13.68877845 -233.4061965 943
18.56558344 -233.4061965 943
23.39266968 -232.9111674 941
28.25913149 -232.9111674 941
33.1959984 -233.4061965 943
38.07280338 -233.4061965 943
42.99515409 -233.653711 944
47.82641336 -233.4061965 943
52.75910723 -233.653711 944
57.6410838 -233.653711 944
62.52306037 -233.653711 944
67.69065151 -234.6437691 948
73.05276578 -236.1288562 954
78.47693907 -237.6139434 960
83.7024162 -238.356487 963
89.14310281 -239.5940596 968
94.5382437 -240.5841177 972
178.9507182 -432.4078741 1747
-41.01535733 -234.587965 968
-35.89766375 -233.8609362 965
-30.84302775 -233.3762503 963
-25.83593458 -233.1339073 962
-20.79581478 -232.4068785 959
-15.80323781 -231.9221926 957
-10.80866373 -230.9528209 953
-5.861632473 -230.2257921 950
-0.9466292802 -229.7411062 948
3.951860602 -229.4987632 947
8.840007314 -229.2564203 946
13.70329465 -228.7717344 944
18.58527122 -228.7717344 944
23.4672478 -228.7717344 944
28.31919341 -228.5293915 943
33.23120094 -228.7717344 944
38.11317751 -228.7717344 944
42.99515409 -228.7717344 944
47.87713066 -228.7717344 944
52.75910723 -228.7717344 944
57.6410838 -228.7717344 944
62.52306037 -228.7717344 944
67.69065151 -229.7411062 948
73.05276578 -231.1951638 954
78.47693907 -232.6492215 960
83.7024162 -233.3762503 963
89.23519279 -234.8303079 969
94.73276683 -236.0420226 974
178.9507182 -423.3731145 1747
-41.14247104 -230.2933844 971
-36.00926271 -229.5818703 968
-30.90708389 -228.8703563 965
-25.86279106 -228.3960136 963
-20.86086947 -228.1588422 962
-15.80323781 -226.9729855 957
-10.82000546 -226.2614714 954
-5.867802612 -225.5499573 951
-0.9486263884 -225.312786 950
3.956033633 -224.8384433 948
8.84935193 -224.6012719 947
13.73232706 -224.3641006 946
18.6246468 -224.3641006 946
23.51696654 -224.3641006 946
28.40928628 -224.3641006 946
33.30160603 -224.3641006 946
38.19392577 -224.3641006 946
43.08624551 -224.3641006 946
47.87713066 -223.8897579 944
52.75910723 -223.8897579 944
57.6410838 -223.8897579 944
62.65552448 -224.3641006 946
67.69065151 -224.8384433 948
73.05276578 -226.2614714 954
78.47693907 -227.6844995 960
83.7024162 -228.3960136 963
89.23519279 -229.8190417 969
94.73276683 -231.0048985 974
178.9507182 -414.3383549 1747
-41.18484227 -225.5037748 972
-36.12086166 -225.271775 971
-30.93911195 -224.1117762 966
-25.91650402 -223.8797764 965
-20.88255437 -223.4157769 963
-15.83626443 -222.4877778 959
-10.84268891 -221.7917785 956
-5.88631303 -221.327779 954
-0.9526206048 -221.327779 954
3.97689879 -221.0957792 953
8.886730397 -220.6317797 951
13.80490807 -220.6317797 951
18.70339795 -220.3997799 950
23.61640403 -220.3997799 950
28.4693482 -219.9357804 948
33.37201111 -219.9357804 948
38.2342999 -219.7037806 947
43.13179123 -219.7037806 947
47.97856526 -219.4717808 946
52.870885 -219.4717808 946
57.76320474 -219.4717808 946
62.65552448 -219.4717808 946
67.90486243 -220.6317797 951
73.20591623 -221.7917785 956
78.6404327 -223.1837771 962
83.876253 -223.8797764 965
89.41937275 -225.271775 971
169.9159586 -405.3035952 1747
-36.26966027 -221.1574784 975
-31.09925228 -220.2501657 971
-25.99707346 -219.5696811 968
-20.94760905 -219.1160247 966
-15.88580436 -218.208712 962
-10.85403063 -217.0745711 957
-5.898653309 -216.8477429 956
-0.9526206048 -216.3940865 954
3.981071821 -216.3940865 954
8.90541963 -216.1672584 953
13.83394047 -216.1672584 953
18.76246131 -216.1672584 953
23.64126341 -215.713602 951
28.52941012 -215.4867738 950
33.4424162 -215.4867738 950
38.27467403 -215.0331174 948
43.17733694 -215.0331174 948
47.97856526 -214.5794611 946
52.92677388 -214.8062893 947
57.76320474 -214.5794611 946
62.72175654 -214.8062893 947
68.04766971 -216.1672584 953
73.28249146 -217.0745711 957
78.6404327 -218.208712 962
83.876253 -218.8891966 965
89.41937275 -220.2501657 971
94.8300284 -221.1574784 975
-36.26966027 -216.1151827 975
-31.09925228 -215.2285563 971
-25.99707346 -214.5635865 968
-20.94760905 -214.1202733 966
-15.93534429 -213.8986167 965
-10.87671408 -212.5686771 959
-5.904823449 -212.1253639 957
-0.955616267 -212.1253639 957
3.993590915 -212.1253639 957
8.93345348 -211.9037073 956
13.87748908 -211.9037073 956
18.7821491 -211.4603941 954
23.71584152 -211.4603941 954
28.61950299 -211.2387375 953
33.47761874 -210.7954243 951
38.35542229 -210.5737677 950
43.17733694 -210.1304545 948
48.02928256 -209.9087979 947
52.92677388 -209.9087979 947
57.88532568 -210.1304545 948
62.7879886 -210.1304545 948
68.11907335 -211.4603941 954
73.51221714 -212.7903337 960
78.72217951 -213.4553035 963
83.96317139 -214.1202733 966
89.51146274 -215.4502129 972
94.8300284 -216.1151827 975
-36.34405957 -211.505857 977
-31.09925228 -210.2069469 971
-26.02392995 -209.7739769 969
-21.01266374 -209.7739769 969
-15.93534429 -208.9080368 965
-10.8880558 -207.8256118 960
-5.917163728 -207.6091268 959
-0.9576133752 -207.6091268 959
4.001936977 -207.6091268 959
8.96148733 -207.6091268 959
13.89200528 -207.1761567 957
18.84121246 -207.1761567 957
23.79041964 -207.1761567 957
28.64953395 -206.5267017 954
33.54802383 -206.3102167 953
38.39579641 -205.8772467 951
43.31397408 -205.8772467 951
48.18143445 -205.6607616 950
53.09444054 -205.6607616 950
58.00744662 -205.6607616 950
62.98668476 -205.8772467 951
68.47609156 -207.6091268 959
73.74194282 -208.4750668 963
78.96741994 -209.1245218 966
84.22392658 -209.7739769 969
89.6956427 -210.8564019 974
95.02455154 -211.505857 977
-36.34405957 -206.4532181 977
-31.13128035 -205.396651 972
-26.10449939 -205.396651 972
-21.05603353 -205.1853375 971
-15.9518576 -204.1287704 966
-10.8880558 -202.8608898 960
-5.917163728 -202.6495764 959
-0.9586119293 -202.8608898 960
4.018629102 -203.4948301 963
8.989521179 -203.2835167 962
13.96458629 -203.2835167 962
18.90027582 -202.8608898 960
23.9147165 -203.2835167 962
28.79968874 -202.6495764 959
33.688834 -202.2269495 957
38.5169188 -201.5930093 954
43.45061123 -201.5930093 954
48.38430365 -201.5930093 954
53.31799608 -201.5930093 954
58.2516885 -201.5930093 954
63.38407709 -202.2269495 957
68.76170612 -203.4948301 963
74.12481895 -204.5513972 968
79.45790081 -205.396651 972
84.65851857 -205.8192778 974
90.24818259 -207.0871584 980
95.60812094 -207.7210986 983
-36.49285818 -202.2251466 981
-31.22736455 -200.9882955 975
-26.15821235 -200.7821537 974
-21.07771843 -200.36987 972
-15.98488422 -199.5453026 968
-10.91073925 -198.3084516 962
-5.923333867 -197.8961679 960
-0.9606090375 -198.3084516 962
4.018629102 -198.5145934 963
8.998865796 -198.5145934 963
13.97910249 -198.5145934 963
18.95933918 -198.5145934 963
23.9147165 -198.3084516 962
28.88978161 -198.3084516 962
33.75923909 -197.6900261 959
38.63804119 -197.2777424 957
43.54170265 -197.0716005 956
48.48573825 -197.0716005 956
53.42977385 -197.0716005 956
58.43486991 -197.2777424 957
63.51654121 -197.6900261 959
68.97591704 -199.1330189 966
74.35454462 -200.1637281 971
79.62139444 -200.7821537 974
84.74543697 -200.9882955 975
90.34027258 -202.2251466 981
95.80264408 -203.0497139 985
-36.49285818 -197.1518213 981
-31.22736455 -195.9459998 975
-26.15821235 -195.7450295 974
-21.05603353 -195.1421188 971
-15.98488422 -194.539208 968
-10.91073925 -193.3333865 962
-5.923333867 -192.931446 960
-0.9606090375 -193.3333865 962
4.026975165 -193.9362972 965
9.017555029 -193.9362972 965
14.00813489 -193.9362972 965
18.99871476 -193.9362972 965
23.98929462 -193.9362972 965
28.91981257 -193.5343567 963
33.86484672 -193.3333865 962
38.71878944 -192.7304757 959
43.6783398 -192.7304757 959
48.63789015 -192.7304757 959
53.5974405 -192.7304757 959
58.55699085 -192.7304757 959
63.71523737 -193.3333865 962
69.11872433 -194.539208 968
74.43111985 -195.343089 972
79.70314125 -195.9459998 975
84.91927376 -196.3479403 977
90.52445254 -197.5537618 983
95.89990564 -198.1566726 986
-41.73566835 -192.8616908 985
-36.45565852 -191.8826974 980
-31.19533648 -190.7079054 974
-26.10449939 -190.3163081 972
-21.01266374 -189.7289121 969
-15.9518576 -189.141516 966
-10.8880558 -187.966724 960
-5.923333867 -187.966724 960
-0.9606090375 -188.3583214 962
4.026975165 -188.9457174 965
9.017555029 -188.9457174 965
14.0226511 -189.141516 966
19.01840255 -189.141516 966
24.014154 -189.141516 966
28.97987449 -188.9457174 965
33.90004926 -188.55412 963
38.83991183 -188.3583214 962
43.81497694 -188.3583214 962
48.79004205 -188.3583214 962
53.76510716 -188.3583214 962
58.74017226 -188.3583214 962
63.78146943 -188.55412 963
69.19012797 -189.7289121 969
74.5842703 -190.7079054 974
79.86663487 -191.2953014 977
85.00619216 -191.4911001 978
90.34027258 -192.0784961 981
95.60812094 -192.4700934 983
-41.65092588 -187.386425 983
-36.38125922 -186.4332896 978
-31.13128035 -185.2895271 972
-26.07764291 -185.0989 971
-21.01266374 -184.7176458 969
-15.9518576 -184.1457646 966
-10.8880558 -183.0020021 960
-5.917163728 -182.811375 959
-0.9606090375 -183.3832563 962
4.018629102 -183.5738833 963
8.998865796 -183.5738833 963
14.00813489 -183.9551375 965
19.01840255 -184.1457646 966
24.014154 -184.1457646 966
29.06996736 -184.5270188 968
34.00565689 -184.1457646 966
38.96103422 -183.9551375 965
43.95161408 -183.9551375 965
48.94219395 -183.9551375 965
53.93277381 -183.9551375 965
58.92335367 -183.9551375 965
63.98016559 -184.1457646 966
69.40433889 -185.2895271 972
74.5842703 -185.6707813 974
79.86663487 -186.2426625 977
85.00619216 -186.4332896 978
90.34027258 -187.0051709 981
95.41359781 -187.0051709 981
-41.56618341 -181.9318456 981
-36.34405957 -181.1900236 977
-31.13128035 -180.2627461 972
-26.07764291 -180.0772906 971
-20.99097884 -179.5209241 968
-15.9518576 -179.1500131 966
-10.8880558 -178.0372801 960
-5.917163728 -177.8518246 959
-0.9586119293 -178.0372801 960
4.018629102 -178.5936466 963
8.998865796 -178.5936466 963
14.00813489 -178.9645576 965
19.01840255 -179.1500131 966
24.014154 -179.1500131 966
29.06996736 -179.5209241 968
34.07606198 -179.5209241 968
39.00140834 -179.1500131 966
43.99715979 -179.1500131 966
48.99291124 -179.1500131 966
53.93277381 -178.9645576 965
58.98441414 -179.1500131 966
64.1126297 -179.5209241 968
69.33293525 -180.0772906 971
74.5842703 -180.6336571 974
79.86663487 -181.1900236 977
84.91927376 -181.1900236 977
90.24818259 -181.7463901 980
95.41359781 -181.9318456 981
-41.52381217 -176.6782365 980
-36.26966027 -175.7768169 975
-31.13128035 -175.2359652 972
-26.07764291 -175.0556813 971
-20.99097884 -174.5148295 968
-15.93534429 -173.9739778 965
-10.91073925 -173.433126 962
-5.917163728 -172.8922743 959
-0.9606090375 -173.433126 962
4.018629102 -173.6134099 963
8.998865796 -173.6134099 963
14.00813489 -173.9739778 965
19.01840255 -174.1542617 966
24.014154 -174.1542617 966
29.06996736 -174.5148295 968
34.11126453 -174.6951134 969
39.0821566 -174.5148295 968
43.99715979 -174.1542617 966
48.99291124 -174.1542617 966
53.98866269 -174.1542617 966
58.98441414 -174.1542617 966
64.1126297 -174.5148295 968
69.33293525 -175.0556813 971
74.5842703 -175.596533 974
79.62139444 -175.596533 974
84.91927376 -176.1373848 977
90.06400263 -176.3176687 978
95.31633624 -176.6782365 980
-41.26958475 -170.5594089 974
-36.15806131 -170.2091842 972
-31.09925228 -170.0340719 971
-26.02392995 -169.6838472 969
-20.94760905 -169.1585102 966
-15.93534429 -168.9833979 965
-10.91073925 -168.4580609 962
-5.923333867 -168.1078363 960
-0.9606090375 -168.4580609 962
4.014456071 -168.4580609 962
8.998865796 -168.6331733 963
14.00813489 -168.9833979 965
18.99871476 -168.9833979 965
24.014154 -169.1585102 966
29.00990545 -169.1585102 966
34.07606198 -169.5087349 968
39.0821566 -169.5087349 968
44.08825122 -169.5087349 968
49.09434584 -169.5087349 968
53.98866269 -169.1585102 966
58.98441414 -169.1585102 966
64.1126297 -169.5087349 968
69.33293525 -170.0340719 971
74.43111985 -170.2091842 972
79.62139444 -170.5594089 974
84.74543697 -170.7345212 975
89.97191265 -171.0847459 977
95.1218131 -171.2598582 978
-41.14247104 -165.0124625 971
-36.12086166 -165.0124625 971
-31.03519615 -164.672581 969
-26.02392995 -164.672581 969
-20.94760905 -164.1627588 966
-15.9518576 -164.1627588 966
-10.94476443 -163.992818 965
-5.941844285 -163.6529366 963
-0.9616075916 -163.6529366 963
4.026975165 -163.992818 965
9.017555029 -163.992818 965
14.0226511 -164.1627588 966
19.01840255 -164.1627588 966
24.014154 -164.1627588 966
29.00990545 -164.1627588 966
34.11126453 -164.672581 969
39.0821566 -164.5026403 968
44.08825122 -164.5026403 968
49.09434584 -164.5026403 968
54.10044046 -164.5026403 968
59.10653508 -164.5026403 968
64.1126297 -164.5026403 968
69.33293525 -165.0124625 971
74.43111985 -165.1824033 972
79.45790081 -165.1824033 972
84.65851857 -165.5222847 974
89.78773268 -165.6922255 975
95.02455154 -166.032107 977
-41.05772856 -159.6613148 969
-36.04646236 -159.6613148 969
-31.03519615 -159.6613148 969
-25.99707346 -159.4965457 968
-20.94760905 -159.1670073 966
-15.98488422 -159.4965457 968
-10.94476443 -159.0022382 965
-5.954184564 -159.0022382 965
-0.9636046998 -159.0022382 965
4.031148196 -159.1670073 966
9.026899646 -159.1670073 966
14.0516835 -159.4965457 968
19.05777812 -159.4965457 968
24.06387274 -159.4965457 968
29.09999832 -159.6613148 969
34.18166961 -159.9908531 971
39.12253073 -159.6613148 969
44.13379694 -159.6613148 969
49.14506314 -159.6613148 969
54.15632935 -159.6613148 969
59.16759555 -159.6613148 969
64.17886176 -159.6613148 969
69.40433889 -160.1556223 972
74.43111985 -160.1556223 972
79.62139444 -160.4851606 974
84.65851857 -160.4851606 974
89.78773268 -160.6499298 975
95.02455154 -160.9794681 977
-41.05772856 -154.6500486 969
-36.00926271 -154.490451 968
-31.03519615 -154.6500486 969
-25.99707346 -154.490451 968
-20.94760905 -154.1712559 966
-15.98488422 -154.490451 968
-10.95610615 -154.1712559 966
-5.960354704 -154.1712559 966
-0.9666003621 -154.490451 968
4.039494258 -154.490451 968
9.045588879 -154.490451 968
14.09523211 -154.9692438 971
19.11684148 -154.9692438 971
24.13845086 -154.9692438 971
29.19009119 -155.1288413 972
34.21687216 -155.1288413 972
39.24365312 -155.1288413 972
44.22488836 -154.9692438 971
49.24649774 -154.9692438 971
54.26810712 -154.9692438 971
59.28971649 -154.9692438 971
64.31132587 -154.9692438 971
69.40433889 -155.1288413 972
74.5842703 -155.4480365 974
79.62139444 -155.4480365 974
84.74543697 -155.6076341 975
89.97191265 -155.9268292 977
-36.04646236 -149.6387824 969
-31.03519615 -149.6387824 969
-26.02392995 -149.6387824 969
-20.99097884 -149.4843564 968
-16.00139753 -149.6387824 969
-10.9787896 -149.4843564 968
-5.978865122 -149.6387824 969
-0.9695960243 -149.9476344 971
4.052013352 -149.9476344 971
9.082967345 -150.1020604 972
14.10974831 -150.1020604 972
19.13652927 -150.1020604 972
24.16331023 -150.1020604 972
29.25015311 -150.4109123 974
34.21687216 -150.1020604 972
39.32440137 -150.4109123 974
44.27043408 -150.1020604 972
49.29721504 -150.1020604 972
54.323996 -150.1020604 972
59.35077696 -150.1020604 972
64.31132587 -149.9476344 971
69.54714617 -150.4109123 974
74.5842703 -150.4109123 974
79.70314125 -150.5653383 975
84.74543697 -150.5653383 975
90.06400263 -151.0286163 978
-36.12086166 -144.926025 971
-31.09925228 -144.926025 971
-26.07764291 -144.926025 971
-21.05603353 -144.926025 971
-16.03442415 -144.926025 971
-11.01281478 -144.926025 971
-5.99737554 -145.0752794 972
-0.9725916866 -145.3737882 974
4.068705477 -145.5230426 975
9.111001195 -145.5230426 975
14.18232932 -145.8215514 977
19.23496821 -145.8215514 977
24.23788835 -145.5230426 975
29.28018407 -145.5230426 975
34.32247979 -145.5230426 975
39.3647755 -145.5230426 975
44.40707122 -145.5230426 975
49.44936694 -145.5230426 975
54.49166266 -145.5230426 975
59.47289791 -145.3737882 974
64.51002204 -145.3737882 974
69.76135709 -145.8215514 977
74.81399598 -145.8215514 977
79.86663487 -145.8215514 977
85.00619216 -145.9708058 978
90.24818259 -146.2693146 980
-36.12086166 -139.9044156 971
-31.09925228 -139.9044156 971
-26.07764291 -139.9044156 971
-21.05603353 -139.9044156 971
-16.05093746 -140.0484984 972
-11.0241565 -140.0484984 972
-6.009715819 -140.3366641 974
-0.9735902407 -140.4807469 975
4.068705477 -140.4807469 975
9.129690429 -140.7689125 977
14.19684552 -140.9129954 978
19.25465599 -140.9129954 978
24.28760709 -140.7689125 977
29.34024598 -140.7689125 977
34.39288487 -140.7689125 977
39.44552376 -140.7689125 977
44.49816265 -140.7689125 977
49.55080154 -140.7689125 977
54.60344043 -140.7689125 977
59.65607932 -140.7689125 977
64.7087182 -140.7689125 977
69.83276073 -140.9129954 978
74.89057121 -140.9129954 978
79.94838168 -140.9129954 978
85.18002895 -141.201161 980
90.34027258 -141.3452438 981
-36.15806131 -135.0217175 972
-31.13128035 -135.0217175 972
-26.15821235 -135.29954 974
-21.12108822 -135.29954 974
-16.08396408 -135.29954 974
-11.04683995 -135.29954 974
-6.015885959 -135.4384512 975
-0.9755873489 -135.7162736 977
4.07705154 -135.7162736 977
9.139035045 -135.8551849 978
14.22587792 -136.1330073 980
19.29403157 -136.1330073 980
24.31246647 -135.8551849 978
29.43033886 -136.1330073 980
34.42808742 -135.8551849 978
39.48589789 -135.8551849 978
44.63479979 -136.1330073 980
49.60151884 -135.8551849 978
54.65932931 -135.8551849 978
59.71713979 -135.8551849 978
64.90741437 -136.1330073 980
69.97556802 -136.1330073 980
75.04372166 -136.1330073 980
80.19362212 -136.2719186 981
85.26694735 -136.2719186 981
90.70863251 -136.8275635 985
-36.15806131 -129.9949365 972
-31.19533648 -130.2624158 974
-26.15821235 -130.2624158 974
-21.12108822 -130.2624158 974
-16.08396408 -130.2624158 974
-11.05818168 -130.3961555 975
-6.028226238 -130.6636348 977
-0.976585903 -130.7973744 978
4.089570634 -131.0648537 980
9.157724278 -131.0648537 980
14.24039413 -131.1985933 981
19.31371936 -131.1985933 981
24.36218521 -131.0648537 980
29.43033886 -131.0648537 980
34.53369505 -131.1985933 981
39.56664615 -131.0648537 980
44.68034551 -131.1985933 981
49.75367074 -131.1985933 981
54.82699597 -131.1985933 981
59.9003212 -131.1985933 981
65.10611054 -131.4660726 983
70.18977894 -131.4660726 983
75.27344734 -131.4660726 983
80.52060936 -131.7335519 985
85.61462093 -131.7335519 985
90.80072249 -131.8672916 986
-31.19533648 -125.2252917 974
-26.18506883 -125.3538597 975
-21.1861429 -125.6109959 977
-16.13350402 -125.6109959 977
-11.08086513 -125.6109959 977
-6.034396377 -125.7395639 978
-0.9795815653 -126.1252681 981
4.093743665 -126.1252681 981
9.167068895 -126.1252681 981
14.26942653 -126.3824042 983
19.35309493 -126.3824042 983
24.43676333 -126.3824042 983
29.52043173 -126.3824042 983
34.60410013 -126.3824042 983
39.68776853 -126.3824042 983
44.77143693 -126.3824042 983
49.95653993 -126.6395404 985
55.05055151 -126.6395404 985
60.14456308 -126.6395404 985
65.23857465 -126.6395404 985
70.33258622 -126.6395404 985
75.42659779 -126.6395404 985
80.60235617 -126.7681084 986
85.70153933 -126.7681084 986
90.98490245 -127.0252445 988
-31.22736455 -120.311564 975
-26.23878179 -120.558357 977
-21.1861429 -120.558357 977
-16.15001733 -120.6817535 978
-11.09220685 -120.6817535 978
-6.046736656 -120.9285464 980
-0.9795815653 -121.0519429 981
4.102089727 -121.2987358 983
9.185758128 -121.2987358 983
14.26942653 -121.2987358 983
19.35309493 -121.2987358 983
24.43676333 -121.2987358 983
29.46036982 -121.0519429 981
34.60410013 -121.2987358 983
39.60702028 -121.0519429 981
44.77143693 -121.2987358 983
49.85510533 -121.2987358 983
54.93877374 -121.2987358 983
60.14456308 -121.5455288 985
65.23857465 -121.5455288 985
70.40398986 -121.6689253 986
75.50317302 -121.6689253 986
80.7658498 -121.9157182 988
85.87537612 -121.9157182 988
91.07699243 -122.0391147 989
-31.22736455 -115.2692683 975
-26.23878179 -115.5057181 977
-21.2078278 -115.623943 978
-16.15001733 -115.623943 978
-11.09220685 -115.623943 978
-6.046736656 -115.8603928 980
-0.9795815653 -115.9786177 981
4.093743665 -115.9786177 981
9.167068895 -115.9786177 981
14.24039413 -115.9786177 981
19.31371936 -115.9786177 981
24.38704459 -115.9786177 981
29.52043173 -116.2150674 983
34.60410013 -116.2150674 983
39.68776853 -116.2150674 983
44.86252836 -116.4515172 985
50.00725723 -116.5697421 986
55.21821816 -116.8061919 988
60.32774449 -116.8061919 988
65.50350287 -116.9244168 989
70.76100806 -117.1608666 991
75.7328987 -116.9244168 989
80.84759661 -116.9244168 989
85.96229452 -116.9244168 989
91.07699243 -116.9244168 989
-26.26563827 -110.5661325 978
-21.2078278 -110.5661325 978
-16.15001733 -110.5661325 978
-11.1148903 -110.7922391 980
-6.046736656 -110.7922391 980
-0.9795815653 -110.9052924 981
4.093743665 -110.9052924 981
9.139035045 -110.5661325 978
14.19684552 -110.5661325 978
19.25465599 -110.5661325 978
24.31246647 -110.5661325 978
29.43033886 -110.7922391 980
34.53369505 -110.9052924 981
39.68776853 -111.131399 983
44.86252836 -111.3575056 985
50.10869183 -111.6966656 988
55.38588481 -112.0358255 991
60.57198637 -112.1488788 992
65.83466315 -112.3749854 994
71.11802627 -112.601092 996
76.34550051 -112.7141453 997
81.41982429 -112.601092 996
86.39688651 -112.3749854 994
91.53744235 -112.3749854 994
-26.31935123 -105.7240855 980
-21.25119759 -105.7240855 980
-16.18304395 -105.7240855 980
-11.1148903 -105.7240855 980
-6.052906795 -105.8319672 981
-0.9795815653 -105.8319672 981
4.093743665 -105.8319672 981
9.139035045 -105.508322 978
14.19684552 -105.508322 978
19.25465599 -105.508322 978
24.31246647 -105.508322 978
29.43033886 -105.7240855 980
34.53369505 -105.8319672 981
39.68776853 -106.0477306 983
44.86252836 -106.2634941 985
50.15940913 -106.695021 989
55.4417737 -107.0186661 992
60.69410731 -107.2344296 994
65.96712726 -107.450193 996
71.33223719 -107.7738382 999
76.49865096 -107.7738382 999
81.66506472 -107.7738382 999
86.6576417 -107.5580747 997
91.72162231 -107.450193 996
-26.31935123 -100.6559318 980
-21.27288249 -100.758642 981
-16.18304395 -100.6559318 980
-11.12623203 -100.758642 981
-6.052906795 -100.758642 981
-0.9795815653 -100.758642 981
4.089570634 -100.6559318 980
9.129690429 -100.3478014 977
14.18232932 -100.3478014 977
19.23496821 -100.3478014 977
24.28760709 -100.3478014 977
29.37027694 -100.4505116 978
34.53369505 -100.758642 981
39.68776853 -100.9640622 983
44.86252836 -101.1694825 985
50.26084373 -101.7857433 991
55.4417737 -101.8884534 992
60.81622825 -102.299294 996
66.16582342 -102.6074244 999
71.40364083 -102.7101345 1000
76.57522618 -102.7101345 1000
81.74681154 -102.7101345 1000
86.83147849 -102.6074244 999
91.81371229 -102.4020041 997
-21.27288249 -95.68531673 981
-16.19955726 -95.68531673 981
-11.12623203 -95.68531673 981
-6.052906795 -95.68531673 981
-0.9795815653 -95.68531673 981
4.081224571 -95.39270109 978
9.111001195 -95.10008544 975
14.15329691 -95.10008544 975
19.19559263 -95.10008544 975
24.28760709 -95.29516254 977
29.34024598 -95.29516254 977
34.42808742 -95.39270109 978
39.60702028 -95.68531673 981
44.77143693 -95.88039383 983
50.15940913 -96.46562513 989
55.4417737 -96.75824077 992
60.81622825 -97.14839497 996
66.16582342 -97.44101062 999
71.40364083 -97.53854917 1000
76.72837664 -97.73362627 1002
81.74681154 -97.53854917 1000
86.91839689 -97.53854917 1000
91.81371229 -97.24593352 997
-21.31625228 -90.79672543 983
-16.23258388 -90.79672543 983
-11.14891548 -90.79672543 983
-6.052906795 -90.6119915 981
-0.9785830112 -90.51962454 980
4.081224571 -90.33489061 978
9.111001195 -90.05778972 975
14.13878071 -89.96542276 974
19.19559263 -90.05778972 975
24.23788835 -90.05778972 975
29.34024598 -90.24252365 977
34.4984925 -90.51962454 980
39.60702028 -90.6119915 981
44.86252836 -90.98145936 985
50.15940913 -91.35092721 989
55.4417737 -91.62802811 992
60.81622825 -91.99749596 996
66.16582342 -92.27459685 999
71.54644811 -92.55169774 1002
76.72837664 -92.55169774 1002
81.91030516 -92.55169774 1002
87.09223368 -92.55169774 1002
91.99789226 -92.27459685 999
96.96978289 -92.08986292 997
-26.56105956 -86.2362293 989
-21.44636165 -86.2362293 989
-16.31515043 -86.14903392 988
-11.18294065 -85.97464317 986
-6.077587353 -85.88744779 985
-0.9795815653 -85.53866627 981
4.089570634 -85.45147089 980
9.129690429 -85.18988476 977
14.15329691 -85.015494 975
19.23496821 -85.18988476 977
24.28760709 -85.18988476 977
29.37027694 -85.27708014 978
34.53369505 -85.53866627 981
39.68776853 -85.71305703 983
44.86252836 -85.88744779 985
50.26084373 -86.41062006 991
55.55355147 -86.67220619 994
60.81622825 -86.84659695 996
66.23205548 -87.19537846 1000
71.54644811 -87.36976922 1002
76.88152709 -87.54415998 1004
82.07379878 -87.54415998 1004
87.09223368 -87.36976922 1002
92.2741622 -87.36976922 1002
97.26156759 -87.19537846 1000
-26.64162901 -81.36760277 992
-21.51141634 -81.36760277 992
-16.36469036 -81.28557897 991
-11.21696582 -81.12153139 989
-6.096097771 -81.03950759 988
-0.9835757816 -80.79343622 985
4.093743665 -80.46534104 981
9.157724278 -80.38331725 980
14.19684552 -80.21926966 978
19.25465599 -80.21926966 978
24.36218521 -80.38331725 980
29.37027694 -80.21926966 978
34.53369505 -80.46534104 981
39.68776853 -80.62938863 983
44.90807408 -80.87546001 986
50.26084373 -81.28557897 991
55.4417737 -81.36760277 992
60.81622825 -81.69569794 996
66.16582342 -81.94176932 999
71.54644811 -82.1878407 1002
76.88152709 -82.35188828 1004
81.91030516 -82.1878407 1002
87.26607048 -82.35188828 1004
92.45834217 -82.35188828 1004
97.45609073 -82.1878407 1002
-26.74905493 -76.54479893 996
-21.59815592 -76.54479893 996
-16.41423029 -76.39109451 994
-11.23964927 -76.16053789 991
-6.102267911 -76.00683347 989
-0.9865714439 -75.92998127 988
4.114608821 -75.77627685 986
9.204447361 -75.69942464 985
14.24039413 -75.39201581 981
19.31371936 -75.39201581 981
24.38704459 -75.39201581 981
29.46036982 -75.39201581 981
34.60410013 -75.54572023 983
39.68776853 -75.54572023 983
44.86252836 -75.69942464 985
50.10869183 -75.92998127 988
55.27410704 -76.00683347 989
60.57198637 -76.2373901 992
65.96712726 -76.54479893 996
71.33223719 -76.77535555 999
76.57522618 -76.85220776 1000
81.74681154 -76.85220776 1000
86.91839689 -76.85220776 1000
92.2741622 -77.00591218 1002
97.45609073 -77.00591218 1002
-21.59815592 -71.39389992 996
-16.41423029 -71.25053867 994
-11.250991 -71.10717743 992
-6.11460819 -71.03549681 991
-0.987569998 -70.89213556 989
4.127127915 -70.89213556 989
9.232481211 -70.82045494 988
14.34200754 -70.82045494 988
19.3924705 -70.60541307 985
24.43676333 -70.46205183 983
29.52043173 -70.46205183 983
34.60410013 -70.46205183 983
39.68776853 -70.46205183 983
44.86252836 -70.60541307 985
50.10869183 -70.82045494 988
55.27410704 -70.89213556 989
60.5109259 -71.03549681 991
65.70219904 -71.10717743 992
71.11802627 -71.39389992 996
76.49865096 -71.60894179 999
81.66506472 -71.60894179 999
86.83147849 -71.60894179 999
92.2741622 -71.82398365 1002
-26.77591141 -66.30950995 997
-21.61984081 -66.30950995 997
-16.44725691 -66.24300091 996
-11.27367445 -66.10998283 994
-6.120778329 -65.97696476 992
-0.9895671062 -65.91045572 991
4.135473977 -65.91045572 991
9.241825828 -65.77743765 989
14.38555614 -65.91045572 991
19.45153387 -65.71092861 988
24.51134145 -65.57791054 986
29.58049365 -65.5114015 985
34.67450522 -65.5114015 985
39.68776853 -65.37838343 983
44.77143693 -65.37838343 983
50.00725723 -65.57791054 986
55.10644039 -65.57791054 986
60.38880496 -65.77743765 989
65.63596698 -65.91045572 991
70.97521899 -66.10998283 994
76.26892528 -66.24300091 996
81.41982429 -66.24300091 996
86.6576417 -66.30950995 997
92.08998224 -66.50903706 1000
-26.77591141 -61.15343935 997
-21.61984081 -61.15343935 997
-16.44725691 -61.0921019 996
-11.27367445 -60.96942699 994
-6.133118608 -60.96942699 994
-0.9905656603 -60.84675209 992
4.139647009 -60.84675209 992
9.260515061 -60.78541464 991
14.40007235 -60.84675209 992
19.51059723 -60.78541464 991
24.56106019 -60.60140228 988
29.61052461 -60.47872738 986
34.67450522 -60.41738993 985
39.68776853 -60.29471503 983
44.77143693 -60.29471503 983
49.95653993 -60.41738993 985
55.10644039 -60.47872738 986
60.32774449 -60.60140228 988
65.50350287 -60.66273974 989
70.83241171 -60.84675209 992
76.26892528 -61.0921019 996
81.41982429 -61.0921019 996
86.5707233 -61.0921019 996
92.08998224 -61.3374517 1000
-21.61984081 -55.99736875 997
-16.44725691 -55.94120289 996
-11.27367445 -55.82887115 994
-6.133118608 -55.82887115 994
-0.9925627685 -55.82887115 994
4.139647009 -55.71653942 992
9.269859678 -55.71653942 992
14.42910475 -55.82887115 994
19.53028502 -55.71653942 992
24.58591957 -55.54804182 989
29.70061748 -55.54804182 989
34.70970776 -55.37954422 986
39.68776853 -55.21104662 983
44.77143693 -55.21104662 983
49.85510533 -55.21104662 983
55.05055151 -55.32337836 985
60.20562355 -55.37954422 986
65.43727081 -55.49187596 988
70.76100806 -55.66037356 991
75.96262437 -55.71653942 992
81.25633067 -55.82887115 994
86.39688651 -55.82887115 994
-21.55478613 -50.68831532 994
-16.41423029 -50.68831532 994
-11.27367445 -50.68831532 994
-6.133118608 -50.68831532 994
-0.9925627685 -50.68831532 994
4.147993071 -50.68831532 994
9.307238144 -50.79030388 996
14.45813715 -50.79030388 996
19.53028502 -50.58632675 992
24.58591957 -50.43334391 989
29.67058652 -50.38234963 988
34.67450522 -50.22936679 985
39.68776853 -50.12737822 983
44.68034551 -50.02538966 981
49.75367074 -50.02538966 981
54.93877374 -50.12737822 983
60.20562355 -50.28036107 986
65.3048067 -50.28036107 986
70.61820078 -50.43334391 989
75.88604915 -50.53533247 991
81.01109023 -50.53533247 991
-16.38120367 -45.45611408 992
-11.27367445 -45.54775948 994
-6.133118608 -45.54775948 994
-0.9945598767 -45.63940487 996
4.156339134 -45.63940487 996
9.307238144 -45.63940487 996
14.45813715 -45.63940487 996
19.56966059 -45.54775948 994
24.58591957 -45.318646 989
29.67058652 -45.2728233 988
34.67450522 -45.13535521 985
39.60702028 -44.95206443 981
44.68034551 -44.95206443 981
49.70295344 -44.90624174 980
54.82699597 -44.95206443 981
60.02244214 -45.04370982 983
65.10611054 -45.04370982 983
70.40398986 -45.18117791 986
-6.145458887 -40.48850586 996
-0.9945598767 -40.48850586 996
4.156339134 -40.48850586 996
9.307238144 -40.48850586 996
14.45813715 -40.48850586 996
19.60903616 -40.48850586 996
24.63563831 -40.2852503 991
29.67058652 -40.16329697 988
