# .PCD v0.7 - Point Cloud Data file format
VERSION 0.7
FIELDS x y z
SIZE 4 4 4
TYPE F F F
COUNT 1 1 1
WIDTH 1605
HEIGHT 1
VIEWPOINT 0 0 0 1 0 0 0
POINTS 1605
DATA ascii
-836.5190217 377.931096 1429
-827.3881778 377.1376787 1426
-818.2883635 376.3442614 1423
-805.2304682 373.6995372 1413
-796.228914 372.9061199 1410
-786.6988596 371.8482302 1406
-777.764536 371.0548129 1403
-765.5661223 368.6745611 1394
-756.7248873 367.8811438 1391
-747.9146818 367.0877265 1388
-740.7365213 367.0877265 1388
-729.858859 365.2364196 1381
-721.1469136 364.4430023 1378
-714.020469 364.4430023 1378
-705.3550679 363.649585 1375
-698.244138 363.649585 1375
-691.1332082 363.649585 1375
-684.0222783 363.649585 1375
-676.9113485 363.649585 1375
-671.2618013 364.4430023 1378
-665.5812247 365.2364196 1381
-658.4392653 365.2364196 1381
-651.2973059 365.2364196 1381
-646.0211115 366.2943093 1385
-640.2422748 367.0877265 1388
-633.0641143 367.0877265 1388
-627.2387333 367.8811438 1391
-620.045058 367.8811438 1391
-614.1731327 368.6745611 1394
-606.9639428 368.6745611 1394
-599.7547528 368.6745611 1394
-593.8207685 369.4679784 1397
-587.8557546 370.2613956 1400
-580.6155351 370.2613956 1400
-574.603977 371.0548129 1403
-568.5613894 371.8482302 1406
-562.8869829 372.9061199 1410
-556.7771647 373.6995372 1413
-551.8029193 375.2863717 1419
-545.9992232 376.3442614 1423
-539.7756301 377.1376787 1426
-533.5210075 377.931096 1429
-528.7080798 379.782403 1436
-523.4597404 381.3692375 1442
-518.5071799 383.2205445 1449
-515.9508818 386.9231584 1463
-511.8598001 389.5678827 1473
-508.00761 392.4770794 1484
-504.0416449 395.3862761 1495
-504.6096252 401.9980867 1520
-500.6705167 405.1717558 1532
-496.2856532 408.0809525 1543
-493.0528759 412.0480389 1558
-486.2407207 413.1059286 1562
-479.3871927 414.1638183 1566
-473.6960941 416.2795977 1574
-466.7391344 417.3374874 1578
-459.7408021 418.3953771 1582
-451.559354 418.3953771 1582
-445.6200193 420.5111565 1590
-438.7726615 421.8335186 1595
-431.6036668 422.8914083 1599
-424.3932995 423.949298 1603
-420.2564933 428.1808568 1619
-414.1733527 430.5611086 1628
-407.9971237 432.9413605 1637
-402.7040583 436.379502 1650
-396.0820743 438.4952814 1658
-388.6761853 439.8176435 1663
-380.9900321 440.8755332 1667
-371.4754924 439.8176435 1663
-360.9112997 437.4373917 1654
-866.50134 388.8266636 1442
-857.2567213 388.0177316 1439
-843.9092171 385.3212914 1429
-834.7628586 384.5123594 1426
-825.6475295 383.7034274 1423
-815.9881854 382.6248513 1419
-803.5208493 380.1980552 1410
-793.9701086 379.1194792 1406
-785.0202702 378.3105472 1403
-776.1014614 377.5016151 1400
-765.5661223 375.8837511 1394
-756.7248873 375.074819 1391
-747.9146818 374.265887 1388
-739.1355058 373.456955 1385
-728.2733582 371.5694469 1378
-721.1469136 371.5694469 1378
-712.4659977 370.7605149 1375
-705.3550679 370.7605149 1375
-698.244138 370.7605149 1375
-691.1332082 370.7605149 1375
-684.0222783 370.7605149 1375
-676.9113485 370.7605149 1375
-671.2618013 371.5694469 1378
-665.5812247 372.3783789 1381
-658.4392653 372.3783789 1381
-651.2973059 372.3783789 1381
-646.0211115 373.456955 1385
-640.2422748 374.265887 1388
-633.0641143 374.265887 1388
-627.2387333 375.074819 1391
-620.045058 375.074819 1391
-614.1731327 375.8837511 1394
-606.9639428 375.8837511 1394
-599.7547528 375.8837511 1394
-593.8207685 376.6926831 1397
-587.8557546 377.5016151 1400
-580.6155351 377.5016151 1400
-575.8326384 379.1194792 1406
-568.5613894 379.1194792 1406
-562.8869829 380.1980552 1410
-556.7771647 381.0069873 1413
-551.8029193 382.6248513 1419
-545.9992232 383.7034274 1423
-539.7756301 384.5123594 1426
-533.5210075 385.3212914 1429
-528.7080798 387.2087995 1436
-522.3707118 388.0177316 1439
-516.0023143 388.8266636 1442
-512.4242182 391.7927477 1453
-508.3848524 394.4891878 1463
-504.2420549 397.1856279 1473
-500.3329773 400.151712 1484
-500.9578451 406.8928123 1509
-498.0560492 410.9374725 1524
-492.7476479 413.0946246 1532
-492.1034802 419.2964368 1555
-484.995546 420.1053688 1558
-479.3871927 422.2625209 1566
-472.4922921 423.341097 1570
-465.5560187 424.419673 1574
-458.5783727 425.4982491 1578
-451.559354 426.5768251 1582
-444.4989627 427.6554011 1586
-437.3971986 428.7339772 1590
-430.5239829 430.0821972 1595
-423.3343018 431.1607733 1599
-418.1798707 434.3965014 1611
-411.8836966 436.5536535 1619
-405.7540118 438.9804496 1628
-400.5074907 442.4858217 1641
-392.9764851 443.5643978 1645
-385.6378266 444.9126178 1650
-378.018904 445.9911939 1654
-368.571595 444.9126178 1650
-358.0746329 442.4858217 1641
-864.6986326 395.4596429 1439
-855.4695287 394.6351961 1436
-842.1375393 391.8870401 1426
-833.0066955 391.0625933 1423
-823.326665 389.963331 1419
-812.5379183 388.3144374 1413
-801.2413576 386.3907282 1406
-790.5819004 384.7418346 1400
-781.6630916 383.9173878 1397
-772.7753123 383.092941 1394
-762.2710027 381.4440475 1388
-753.4607972 380.6196007 1385
-746.2981515 380.6196007 1385
-737.0008184 379.5203383 1381
-728.2733582 378.6958915 1378
-719.5769276 377.8714447 1375
-712.4659977 377.8714447 1375
-705.3550679 377.8714447 1375
-698.244138 377.8714447 1375
-691.1332082 377.8714447 1375
-684.0222783 377.8714447 1375
-678.3882459 378.6958915 1378
-671.2618013 378.6958915 1378
-665.5812247 379.5203383 1381
-658.4392653 379.5203383 1381
-651.2973059 379.5203383 1381
-646.0211115 380.6196007 1385
-638.8584658 380.6196007 1385
-633.0641143 381.4440475 1388
-625.8859538 381.4440475 1388
-620.045058 382.2684943 1391
-612.8513828 382.2684943 1391
-605.6577076 382.2684943 1391
-599.7547528 383.092941 1394
-593.8207685 383.9173878 1397
-586.5960637 383.9173878 1397
-580.6155351 384.7418346 1400
-575.8326384 386.3907282 1406
-570.1789183 387.4899906 1410
-562.8869829 387.4899906 1410
-556.7771647 388.3144374 1413
-551.8029193 389.963331 1419
-545.9992232 391.0625933 1423
-539.7756301 391.8870401 1426
-533.5210075 392.7114869 1429
-527.2353553 393.5359337 1432
-519.8296451 393.5359337 1432
-514.9288005 395.4596429 1439
-511.0135528 398.2077988 1449
-505.952389 400.131508 1456
-501.8457926 402.879664 1466
-497.9729161 405.9026355 1477
-499.629925 413.5974722 1505
-495.7683902 416.8952594 1517
-491.4611005 419.9182309 1528
-490.8376191 426.2389896 1551
-484.995546 428.1626988 1558
-478.1627043 429.2619612 1562
-471.28849 430.3612236 1566
-465.5560187 432.5597484 1574
-458.5783727 433.6590107 1578
-451.559354 434.7582731 1582
-444.4989627 435.8575355 1586
-437.3971986 436.9567979 1590
-430.5239829 438.3308759 1595
-423.3343018 439.4301383 1599
-418.1798707 442.7279254 1611
-410.8660717 443.8271878 1615
-404.7570732 446.3005282 1624
-399.5312384 449.8731309 1637
-392.0209191 450.9723933 1641
-384.4692271 452.0716557 1645
-375.9619692 452.0716557 1645
-366.5612044 450.9723933 1641
-355.2379661 447.3997906 1628
-344.9013231 444.9264502 1619
-864.6986326 402.9015542 1439
-855.4695287 402.0615927 1436
-842.1375393 399.2617208 1426
-830.6651447 397.3018106 1419
-821.5860167 396.461849 1416
-810.8127847 394.7819259 1410
-799.5317387 392.8220157 1403
-788.8877963 391.1420926 1397
-779.9845023 390.302131 1394
-771.1122377 389.4621695 1391
-762.2710027 388.6222079 1388
-753.4607972 387.7822464 1385
-744.1427778 386.6622977 1381
-737.0008184 386.6622977 1381
-728.2733582 385.8223361 1378
-719.5769276 384.9823746 1375
-712.4659977 384.9823746 1375
-705.3550679 384.9823746 1375
-698.244138 384.9823746 1375
-691.1332082 384.9823746 1375
-684.0222783 384.9823746 1375
-676.9113485 384.9823746 1375
-671.2618013 385.8223361 1378
-664.1353567 385.8223361 1378
-658.4392653 386.6622977 1381
-651.2973059 386.6622977 1381
-644.1553466 386.6622977 1381
-638.8584658 387.7822464 1385
-631.6958201 387.7822464 1385
-625.8859538 388.6222079 1388
-620.045058 389.4621695 1391
-612.8513828 389.4621695 1391
-605.6577076 389.4621695 1391
-599.7547528 390.302131 1394
-593.8207685 391.1420926 1397
-586.5960637 391.1420926 1397
-580.6155351 391.9820541 1400
-575.8326384 393.6619772 1406
-570.1789183 394.7819259 1410
-564.0846148 395.6218875 1413
-556.7771647 395.6218875 1413
-553.3583891 398.4217593 1423
-545.9992232 398.4217593 1423
-539.7756301 399.2617208 1426
-532.4009494 399.2617208 1426
-527.2353553 400.9416439 1432
-519.8296451 400.9416439 1432
-513.8552867 402.0615927 1436
-509.9555537 404.8614645 1446
-504.9099047 406.8213747 1453
-500.818823 409.6212466 1463
-496.6243097 412.4211184 1473
-497.3060649 419.4207979 1498
-494.4611565 423.6206056 1513
-490.1745532 426.7004646 1524
-489.5717581 433.1401698 1547
-484.0616649 435.3800673 1555
-478.1627043 437.3399775 1562
-471.28849 438.4599263 1566
-465.5560187 440.6998237 1574
-458.5783727 441.8197724 1578
-451.559354 442.9397212 1582
-444.4989627 444.0596699 1586
-437.3971986 445.1796186 1590
-430.5239829 446.5795545 1595
-423.3343018 447.6995032 1599
-417.1415594 449.9394007 1607
-410.8660717 452.1792981 1615
-404.7570732 454.6991828 1624
-398.3109231 456.9390802 1632
-391.0653532 458.3390161 1637
-382.599468 458.3390161 1637
-374.1335828 458.3390161 1637
-364.5508139 456.9390802 1632
-353.2741198 453.2992469 1619
-343.1970547 451.0593494 1611
-853.0866052 408.3473542 1432
-840.3658614 405.7809252 1423
-830.6651447 404.6402902 1419
-819.8453684 402.9293376 1413
-808.5126066 400.9332262 1406
-797.8221199 399.2222736 1400
-788.8877963 398.3667973 1397
-779.9845023 397.511321 1394
-771.1122377 396.6558447 1391
-760.6234429 394.9448921 1385
-753.4607972 394.9448921 1385
-744.1427778 393.804257 1381
-737.0008184 393.804257 1381
-728.2733582 392.9487807 1378
-719.5769276 392.0933044 1375
-712.4659977 392.0933044 1375
-705.3550679 392.0933044 1375
-698.244138 392.0933044 1375
-691.1332082 392.0933044 1375
-684.0222783 392.0933044 1375
-676.9113485 392.0933044 1375
-669.8004186 392.0933044 1375
-664.1353567 392.9487807 1378
-657.0089121 392.9487807 1378
-651.2973059 393.804257 1381
-644.1553466 393.804257 1381
-637.0133872 393.804257 1381
-631.6958201 394.9448921 1385
-624.5331744 394.9448921 1385
-618.7077934 395.8003684 1388
-612.8513828 396.6558447 1391
-605.6577076 396.6558447 1391
-598.4640324 396.6558447 1391
-593.8207685 398.3667973 1397
-586.5960637 398.3667973 1397
-580.6155351 399.2222736 1400
-575.8326384 400.9332262 1406
-570.1789183 402.0738613 1410
-564.0846148 402.9293376 1413
-556.7771647 402.9293376 1413
-553.3583891 405.7809252 1423
-547.1503108 406.6364016 1426
-539.7756301 406.6364016 1426
-533.5210075 407.4918779 1429
-527.2353553 408.3473542 1432
-519.8296451 408.3473542 1432
-513.8552867 409.4879892 1436
-508.5448883 411.1989418 1442
-503.5199256 413.1950532 1449
-498.4225607 415.1911646 1456
-495.6128549 419.1833873 1470
-494.9822048 425.1717214 1491
-491.846689 429.1639441 1505
-488.8880058 433.4413256 1520
-488.305897 439.9999773 1543
-482.8164902 442.2812474 1551
-476.938216 444.2773588 1558
-470.084688 445.4179938 1562
-465.5560187 448.839899 1574
-458.5783727 449.9805341 1578
-451.559354 451.1211692 1582
-444.4989627 452.2618042 1586
-437.3971986 453.4024393 1590
-430.5239829 454.8282332 1595
-423.3343018 455.9688682 1599
-417.1415594 458.2501384 1607
-409.8484467 459.3907734 1611
-403.5108999 461.6720436 1619
-397.3346708 464.2384725 1628
-389.8708958 465.3791075 1632
-381.4308685 465.3791075 1632
-372.076648 464.2384725 1628
-362.7638001 463.0978374 1624
-352.4012993 460.5314085 1615
-341.4927863 457.1095033 1603
-853.0866052 415.7530644 1432
-840.3658614 413.1400912 1423
-828.9089816 411.1077787 1416
-818.10472 409.3657966 1410
-806.787473 407.3334842 1403
-796.1125011 405.591502 1397
-787.1936923 404.720511 1394
-778.305913 403.8495199 1391
-769.4491632 402.9785289 1388
-760.6234429 402.1075378 1385
-751.2847371 400.9462164 1381
-744.1427778 400.9462164 1381
-735.3998029 400.0752254 1378
-726.6878575 399.2042343 1375
-719.5769276 399.2042343 1375
-712.4659977 399.2042343 1375
-705.3550679 399.2042343 1375
-698.244138 399.2042343 1375
-691.1332082 399.2042343 1375
-684.0222783 399.2042343 1375
-676.9113485 399.2042343 1375
-669.8004186 399.2042343 1375
-664.1353567 400.0752254 1378
-657.0089121 400.0752254 1378
-649.8824675 400.0752254 1378
-644.1553466 400.9462164 1381
-637.0133872 400.9462164 1381
-631.6958201 402.1075378 1385
-624.5331744 402.1075378 1385
-618.7077934 402.9785289 1388
-612.8513828 403.8495199 1391
-605.6577076 403.8495199 1391
-598.4640324 403.8495199 1391
-592.5455628 404.720511 1394
-586.5960637 405.591502 1397
-580.6155351 406.4624931 1400
-575.8326384 408.2044752 1406
-570.1789183 409.3657966 1410
-564.0846148 410.2367877 1413
-556.7771647 410.2367877 1413
-553.3583891 413.1400912 1423
-547.1503108 414.0110823 1426
-540.9112029 414.8820733 1429
-533.5210075 414.8820733 1429
-527.2353553 415.7530644 1432
-521.2816832 416.9143858 1436
-513.8552867 416.9143858 1436
-507.4868892 417.7853768 1439
-502.4774413 419.8176893 1446
-497.3955912 421.8500018 1453
-491.9041873 423.5919839 1459
-491.3304246 429.6889213 1480
-488.5786047 434.0438766 1495
-484.0634531 436.9471801 1505
-484.8247792 444.7860996 1532
-480.3261408 447.9797335 1543
-474.7953614 450.3023763 1551
-468.880886 452.3346888 1558
-464.3729031 455.818653 1570
-457.4159434 456.9799744 1574
-450.417611 458.1412958 1578
-444.4989627 460.4639386 1586
-437.3971986 461.62526 1590
-430.5239829 463.0769118 1595
-422.2753042 463.0769118 1595
-416.1032482 465.3995546 1603
-409.8484467 467.7221974 1611
-402.5139613 468.8835188 1615
-395.1381033 470.0448402 1619
-387.959764 471.496492 1624
-379.5611094 471.496492 1624
-369.10552 468.8835188 1615
-358.9663958 466.560876 1607
-348.9100171 464.2382332 1599
-338.7233501 461.62526 1590
-328.8376336 459.3026172 1582
-853.0866052 423.1587746 1432
-838.0036243 419.3172494 1419
-827.1528185 417.5442378 1413
-815.7838556 415.4757242 1406
-805.0623394 413.7027126 1400
-794.4028822 411.929701 1394
-785.4995882 411.0431952 1391
-776.6273237 410.1566893 1388
-767.7860886 409.2701835 1385
-758.4266965 408.0881758 1381
-751.2847371 408.0881758 1381
-742.5262475 407.20167 1378
-735.3998029 407.20167 1378
-726.6878575 406.3151642 1375
-719.5769276 406.3151642 1375
-712.4659977 406.3151642 1375
-703.8161114 405.4286583 1372
-696.7206963 405.4286583 1372
-689.6252812 405.4286583 1372
-682.5298661 405.4286583 1372
-675.434451 405.4286583 1372
-668.3390359 405.4286583 1372
-662.6894887 406.3151642 1375
-655.5785589 406.3151642 1375
-648.467629 406.3151642 1375
-642.7560229 407.20167 1378
-637.0133872 408.0881758 1381
-629.8714278 408.0881758 1381
-622.7294685 408.0881758 1381
-617.3705287 409.2701835 1385
-611.5296329 410.1566893 1388
-605.6577076 411.0431952 1391
-598.4640324 411.0431952 1391
-592.5455628 411.929701 1394
-586.5960637 412.8162068 1397
-580.6155351 413.7027126 1400
-575.8326384 415.4757242 1406
-570.1789183 416.657732 1410
-564.0846148 417.5442378 1413
-557.9592818 418.4307436 1416
-553.3583891 420.4992572 1423
-547.1503108 421.385763 1426
-540.9112029 422.2722688 1429
-534.6410656 423.1587746 1432
-527.2353553 423.1587746 1432
-521.2816832 424.3407823 1436
-513.8552867 424.3407823 1436
-507.4868892 425.2272882 1439
-501.0874622 426.113794 1442
-496.0262984 428.1823075 1449
-490.8927325 430.2508211 1456
-490.3344845 436.4563618 1477
-485.9641373 439.4113812 1487
-481.8119952 442.6619025 1498
-482.2930571 450.3449529 1524
-479.0809661 454.7774819 1539
-473.570873 457.1414974 1547
-467.9780345 459.5055129 1555
-463.1897874 462.7560342 1566
-457.4159434 465.1200497 1574
-450.417611 466.3020575 1578
-444.4989627 468.666073 1586
-437.3971986 469.8480807 1590
-430.5239829 471.3255904 1595
-422.2753042 471.3255904 1595
-416.1032482 473.6896059 1603
-409.8484467 476.0536214 1611
-402.5139613 477.2356292 1615
-395.1381033 478.4176369 1619
-386.7653066 478.4176369 1619
-378.3925099 478.4176369 1619
-368.1913267 476.0536214 1611
-358.0728889 473.6896059 1603
-348.0371965 471.3255904 1595
-337.8712159 468.666073 1586
-328.8376336 467.4840652 1582
-855.4695287 431.7671789 1436
-838.0036243 426.655729 1419
-827.1528185 424.8516879 1413
-815.7838556 422.7469732 1406
-805.0623394 420.9429321 1400
-794.4028822 419.138891 1394
-783.8054841 417.3348498 1388
-774.9487343 416.4328292 1385
-767.7860886 416.4328292 1385
-758.4266965 415.2301352 1381
-749.6526921 414.3281146 1378
-742.5262475 414.3281146 1378
-735.3998029 414.3281146 1378
-726.6878575 413.426094 1375
-719.5769276 413.426094 1375
-712.4659977 413.426094 1375
-703.8161114 412.5240734 1372
-696.7206963 412.5240734 1372
-689.6252812 412.5240734 1372
-682.5298661 412.5240734 1372
-675.434451 412.5240734 1372
-668.3390359 412.5240734 1372
-661.2436208 412.5240734 1372
-654.1482057 412.5240734 1372
-648.467629 413.426094 1375
-641.3566992 413.426094 1375
-635.6295783 414.3281146 1378
-629.8714278 415.2301352 1381
-622.7294685 415.2301352 1381
-617.3705287 416.4328292 1385
-611.5296329 417.3348498 1388
-605.6577076 418.2368704 1391
-598.4640324 418.2368704 1391
-592.5455628 419.138891 1394
-586.5960637 420.0409115 1397
-580.6155351 420.9429321 1400
-574.603977 421.8449527 1403
-570.1789183 423.9496673 1410
-564.0846148 424.8516879 1413
-557.9592818 425.7537085 1416
-554.5249915 428.7604437 1426
-548.3013984 429.6624643 1429
-542.0467758 430.5644848 1432
-534.6410656 430.5644848 1432
-528.7080798 431.7671789 1436
-521.2816832 431.7671789 1436
-514.9288005 432.6691995 1439
-508.5448883 433.5712201 1442
-501.0874622 433.5712201 1442
-494.9993289 434.7739141 1446
-489.8812776 436.8786288 1453
-488.0106244 441.9900787 1470
-483.6764783 444.9968139 1480
-479.5605372 448.3042227 1491
-480.0778003 456.1217343 1517
-476.9019104 460.6318371 1532
-472.3463846 463.9392459 1543
-466.7742325 466.3446341 1551
-463.1897874 470.8547369 1566
-456.2535141 472.057431 1570
-449.275868 473.2601251 1574
-443.377906 475.6655133 1582
-436.2968283 476.8682074 1586
-429.1743779 478.0709014 1590
-422.2753042 479.5742691 1595
-416.1032482 481.9796572 1603
-408.8308218 483.1823513 1607
-402.5139613 485.5877395 1615
-394.161851 485.5877395 1615
-385.8097406 485.5877395 1615
-377.4576303 485.5877395 1615
-368.1913267 484.3850454 1611
-358.0728889 481.9796572 1603
-348.0371965 479.5742691 1595
-337.8712159 476.8682074 1586
-328.0061858 474.4628192 1578
-855.4695287 439.1935755 1436
-843.9092171 437.0526597 1429
-827.1528185 432.159138 1413
-815.7838556 430.0182222 1406
-805.0623394 428.1831516 1400
-794.4028822 426.3480809 1394
-783.8054841 424.5130103 1388
-774.9487343 423.595475 1385
-765.5686559 422.3720945 1381
-758.4266965 422.3720945 1381
-749.6526921 421.4545592 1378
-742.5262475 421.4545592 1378
-735.3998029 421.4545592 1378
-726.6878575 420.5370239 1375
-719.5769276 420.5370239 1375
-710.9115265 419.6194885 1372
-703.8161114 419.6194885 1372
-696.7206963 419.6194885 1372
-689.6252812 419.6194885 1372
-682.5298661 419.6194885 1372
-675.434451 419.6194885 1372
-668.3390359 419.6194885 1372
-661.2436208 419.6194885 1372
-654.1482057 419.6194885 1372
-647.0527906 419.6194885 1372
-641.3566992 420.5370239 1375
-635.6295783 421.4545592 1378
-629.8714278 422.3720945 1381
-622.7294685 422.3720945 1381
-617.3705287 423.595475 1385
-611.5296329 424.5130103 1388
-605.6577076 425.4305456 1391
-598.4640324 425.4305456 1391
-593.8207685 427.2656163 1397
-587.8557546 428.1831516 1400
-581.8597113 429.1006869 1403
-575.8326384 430.0182222 1406
-571.3920649 432.159138 1413
-565.2822467 433.0766733 1416
-559.1413989 433.9942086 1419
-554.5249915 436.1351244 1426
-548.3013984 437.0526597 1429
-542.0467758 437.970195 1432
-536.1344764 439.1935755 1436
-528.7080798 439.1935755 1436
-522.3707118 440.1111108 1439
-514.9288005 440.1111108 1439
-507.4868892 440.1111108 1439
-501.0874622 441.0286461 1442
-494.9993289 442.2520266 1446
-488.5326712 443.1695619 1449
-486.6827043 448.3689287 1466
-482.696053 451.7332249 1477
-478.2739899 454.791676 1487
-478.8119392 462.7436488 1513
-474.411561 466.107945 1524
-471.1218963 470.6956216 1539
-465.5704305 473.1423825 1547
-462.0066717 477.7300591 1562
-456.2535141 480.17682 1570
-449.275868 481.4002004 1574
-443.377906 483.8469613 1582
-436.2968283 485.0703417 1586
-429.1743779 486.2937222 1590
-422.2753042 487.8229477 1595
-416.1032482 490.2697086 1603
-408.8308218 491.493089 1607
-401.5170227 492.7164694 1611
-394.161851 493.9398499 1615
-385.8097406 493.9398499 1615
-377.4576303 493.9398499 1615
-368.1913267 492.7164694 1611
-357.179382 489.0463281 1599
-348.0371965 487.8229477 1595
-338.7233501 486.2937222 1590
-329.6690815 485.0703417 1586
-316.602378 477.7300591 1562
-304.7715045 471.9190021 1543
-840.3658614 442.576755 1423
-827.1528185 439.4665881 1413
-815.7838556 437.2894712 1406
-805.0623394 435.4233711 1400
-794.4028822 433.5572709 1394
-783.8054841 431.6911708 1388
-774.9487343 430.7581207 1385
-765.5686559 429.5140539 1381
-758.4266965 429.5140539 1381
-749.6526921 428.5810038 1378
-742.5262475 428.5810038 1378
-735.3998029 428.5810038 1378
-726.6878575 427.6479537 1375
-719.5769276 427.6479537 1375
-710.9115265 426.7149037 1372
-703.8161114 426.7149037 1372
-696.7206963 426.7149037 1372
-689.6252812 426.7149037 1372
-681.0374538 425.7818536 1369
-673.9575535 425.7818536 1369
-666.8776531 425.7818536 1369
-661.2436208 426.7149037 1372
-654.1482057 426.7149037 1372
-647.0527906 426.7149037 1372
-639.9573755 426.7149037 1372
-634.2457693 427.6479537 1375
-628.5031336 428.5810038 1378
-622.7294685 429.5140539 1381
-617.3705287 430.7581207 1385
-611.5296329 431.6911708 1388
-605.6577076 432.6242208 1391
-599.7547528 433.5572709 1394
-593.8207685 434.490321 1397
-587.8557546 435.4233711 1400
-581.8597113 436.3564212 1403
-575.8326384 437.2894712 1406
-571.3920649 439.4665881 1413
-565.2822467 440.3996382 1416
-559.1413989 441.3326883 1419
-555.6915939 444.4428552 1429
-548.3013984 444.4428552 1429
-542.0467758 445.3759053 1432
-536.1344764 446.619972 1436
-529.8126231 447.5530221 1439
-522.3707118 447.5530221 1439
-514.9288005 447.5530221 1439
-508.5448883 448.4860722 1442
-501.0874622 448.4860722 1442
-493.6300361 448.4860722 1442
-487.5212164 449.730139 1446
-484.3588442 453.773356 1459
-479.1011602 455.9504729 1466
-475.0576214 459.3716565 1477
-470.5838424 462.4818234 1487
-470.9873306 470.5682575 1513
-467.7545533 475.2335079 1528
-463.1628264 478.6546915 1539
-460.823556 484.5640087 1558
-453.9286554 485.8080754 1562
-448.1341251 488.296209 1570
-442.2568494 490.7843425 1578
-435.196458 492.0284093 1582
-428.0946939 493.2724761 1586
-420.9515572 494.5165429 1590
-415.0649369 497.3156931 1599
-407.8131968 498.5597599 1603
-401.5170227 501.0478934 1611
-393.1855987 501.0478934 1611
-384.8541747 501.0478934 1611
-377.4576303 502.2919602 1615
-368.1913267 501.0478934 1611
-358.0728889 498.5597599 1603
-348.9100171 497.3156931 1599
-339.7885179 496.0716263 1595
-330.5005294 494.5165429 1590
-317.4131395 487.0521422 1566
-305.5615797 481.142825 1547
-843.9092171 451.8330507 1429
-828.9089816 447.722603 1416
-815.7838556 444.5607202 1406
-805.0623394 442.6635906 1400
-796.1125011 441.7150257 1397
-783.8054841 438.8693312 1388
-774.9487343 437.9207664 1385
-765.5686559 436.6560133 1381
-758.4266965 436.6560133 1381
-749.6526921 435.7074484 1378
-742.5262475 435.7074484 1378
-733.7987873 434.7588836 1375
-726.6878575 434.7588836 1375
-719.5769276 434.7588836 1375
-710.9115265 433.8103188 1372
-703.8161114 433.8103188 1372
-695.1972545 432.8617539 1369
-688.1173542 432.8617539 1369
-681.0374538 432.8617539 1369
-673.9575535 432.8617539 1369
-666.8776531 432.8617539 1369
-659.7977528 432.8617539 1369
-652.7178524 432.8617539 1369
-647.0527906 433.8103188 1372
-639.9573755 433.8103188 1372
-634.2457693 434.7588836 1375
-628.5031336 435.7074484 1378
-622.7294685 436.6560133 1381
-617.3705287 437.9207664 1385
-611.5296329 438.8693312 1388
-605.6577076 439.8178961 1391
-599.7547528 440.7664609 1394
-595.0959741 442.6635906 1400
-589.1154455 443.6121554 1403
-583.1038874 444.5607202 1406
-577.4708536 445.8254734 1410
-572.6052115 447.722603 1416
-566.4798786 448.6711679 1419
-560.7175551 449.935921 1423
-555.6915939 451.8330507 1429
-549.452486 452.7816155 1432
-543.5608729 454.0463686 1436
-537.2545345 454.9949334 1439
-529.8126231 454.9949334 1439
-522.3707118 454.9949334 1439
-516.0023143 455.9434983 1442
-508.5448883 455.9434983 1442
-501.0874622 455.9434983 1442
-493.6300361 455.9434983 1442
-487.5212164 457.2082514 1446
-482.3669641 459.4215694 1453
-478.1207349 462.5834521 1463
-473.771074 465.7453349 1473
-469.6344467 469.223406 1484
-469.7421559 477.128113 1509
-465.3055766 480.606184 1520
-461.9590244 485.3490082 1535
-459.9362193 491.6727738 1555
-453.9286554 493.8860918 1562
-446.9923821 495.1508449 1566
-442.2568494 498.9451042 1578
-435.196458 500.2098573 1582
-428.0946939 501.4746105 1586
-420.9515572 502.7393636 1590
-415.0649369 505.5850581 1599
-407.8131968 506.8498112 1603
-401.5170227 509.3793174 1611
-393.1855987 509.3793174 1611
-385.8097406 510.6440705 1615
-377.4576303 510.6440705 1615
-368.1913267 509.3793174 1611
-359.8599027 509.3793174 1611
-350.6556582 508.1145643 1607
-342.3449205 508.1145643 1607
-332.3712871 505.5850581 1599
-321.4669471 501.4746105 1586
-309.3144368 495.1508449 1566
-296.7917483 487.8785145 1543
-845.680895 460.1873257 1432
-830.6651447 456.0096475 1419
-819.8453684 454.0814883 1413
-806.787473 450.8678897 1403
-796.1125011 448.9397305 1397
-785.4995882 447.0115713 1391
-774.9487343 445.0834121 1385
-767.7860886 445.0834121 1385
-758.4266965 443.7979726 1381
-749.6526921 442.833893 1378
-742.5262475 442.833893 1378
-735.3998029 442.833893 1378
-726.6878575 441.8698135 1375
-719.5769276 441.8698135 1375
-710.9115265 440.9057339 1372
-703.8161114 440.9057339 1372
-695.1972545 439.9416543 1369
-688.1173542 439.9416543 1369
-681.0374538 439.9416543 1369
-673.9575535 439.9416543 1369
-666.8776531 439.9416543 1369
-659.7977528 439.9416543 1369
-652.7178524 439.9416543 1369
-647.0527906 440.9057339 1372
-639.9573755 440.9057339 1372
-634.2457693 441.8698135 1375
-628.5031336 442.833893 1378
-622.7294685 443.7979726 1381
-617.3705287 445.0834121 1385
-611.5296329 446.0474917 1388
-605.6577076 447.0115713 1391
-599.7547528 447.9756509 1394
-595.0959741 449.9038101 1400
-589.1154455 450.8678897 1403
-583.1038874 451.8319692 1406
-578.699515 454.0814883 1413
-573.8183582 456.0096475 1419
-568.0767211 457.2950869 1423
-561.8996722 458.2591665 1426
-556.8581962 460.1873257 1432
-549.452486 460.1873257 1432
-543.5608729 461.4727652 1436
-537.2545345 462.4368448 1439
-529.8126231 462.4368448 1439
-522.3707118 462.4368448 1439
-516.0023143 463.4009244 1442
-508.5448883 463.4009244 1442
-501.0874622 463.4009244 1442
-493.6300361 463.4009244 1442
-487.5212164 464.6863638 1446
-482.3669641 466.9358829 1453
-476.8135012 468.8640421 1459
-472.8061635 472.3990006 1470
-468.3685856 475.6125992 1480
-468.4969812 483.6465958 1505
-464.3872103 487.5029142 1517
-459.8523709 491.0378727 1528
-458.7531036 498.4291496 1551
-452.7662261 500.6786686 1558
-446.9923821 503.2495475 1566
-440.0147361 504.534987 1570
-435.196458 508.3913054 1582
-428.0946939 509.6767448 1586
-420.9515572 510.9621843 1590
-415.0649369 513.8544231 1599
-407.8131968 515.1398625 1603
-400.5200841 516.425302 1607
-393.1855987 517.7107414 1611
-384.8541747 517.7107414 1611
-376.5227507 517.7107414 1611
-369.10552 518.9961809 1615
-359.8599027 517.7107414 1611
-351.5284787 517.7107414 1611
-344.0491889 518.9961809 1615
-334.0341828 516.425302 1607
-323.2911606 512.5689836 1595
-310.8945872 505.8204265 1574
-299.0999148 499.714589 1555
-288.0632896 494.5728312 1539
-830.6651447 463.3481271 1419
-819.8453684 461.3889384 1413
-808.5126066 459.1032182 1406
-797.8221199 457.1440296 1400
-785.4995882 454.2052465 1391
-776.6273237 453.2256522 1388
-767.7860886 452.2460578 1385
-758.4266965 450.939932 1381
-749.6526921 449.9603377 1378
-742.5262475 449.9603377 1378
-735.3998029 449.9603377 1378
-726.6878575 448.9807433 1375
-719.5769276 448.9807433 1375
-710.9115265 448.001149 1372
-703.8161114 448.001149 1372
-695.1972545 447.0215546 1369
-688.1173542 447.0215546 1369
-681.0374538 447.0215546 1369
-673.9575535 447.0215546 1369
-666.8776531 447.0215546 1369
-659.7977528 447.0215546 1369
-652.7178524 447.0215546 1369
-647.0527906 448.001149 1372
-639.9573755 448.001149 1372
-634.2457693 448.9807433 1375
-627.1348394 448.9807433 1375
-621.376689 449.9603377 1378
-617.3705287 452.2460578 1385
-610.207883 452.2460578 1385
-605.6577076 454.2052465 1391
-599.7547528 455.1848409 1394
-595.0959741 457.1440296 1400
-589.1154455 458.1236239 1403
-584.762789 460.409344 1410
-578.699515 461.3889384 1413
-573.8183582 463.3481271 1419
-568.0767211 464.6542529 1423
-561.8996722 465.6338472 1426
-556.8581962 467.5930359 1432
-550.9872695 468.8991617 1436
-543.5608729 468.8991617 1436
-537.2545345 469.8787561 1439
-529.8126231 469.8787561 1439
-522.3707118 469.8787561 1439
-516.0023143 470.8583504 1442
-508.5448883 470.8583504 1442
-501.0874622 470.8583504 1442
-493.6300361 470.8583504 1442
-487.5212164 472.1644762 1446
-482.3669641 474.4501964 1453
-475.8330759 475.4297907 1456
-471.5196161 478.6951052 1466
-467.4191898 482.2869512 1477
-466.3179255 489.1441116 1498
-463.1627219 494.0420834 1513
-458.6485689 497.6339293 1524
-457.5699879 505.1441527 1547
-451.894404 507.7564043 1555
-445.8506391 510.0421244 1562
-440.0147361 512.654376 1570
-434.0960877 515.2666276 1578
-427.01501 516.5727534 1582
-419.8925596 517.8788792 1586
-414.0266256 520.8176622 1595
-407.8131968 523.4299138 1603
-400.5200841 524.7360396 1607
-393.1855987 526.0421654 1611
-384.8541747 526.0421654 1611
-377.4576303 527.3482912 1615
-368.1913267 526.0421654 1611
-360.7534096 527.3482912 1615
-352.4012993 527.3482912 1615
-344.0491889 527.3482912 1615
-333.202735 523.4299138 1603
-323.2911606 520.8176622 1595
-312.4747376 516.5727534 1582
-300.4463453 510.0421244 1562
-290.3093971 506.4502785 1551
-830.6651447 470.6866067 1419
-819.8453684 468.6963885 1413
-808.5126066 466.3744673 1406
-797.8221199 464.384249 1400
-785.4995882 461.3989217 1391
-776.6273237 460.4038126 1388
-767.7860886 459.4087035 1385
-758.4266965 458.0818914 1381
-749.6526921 457.0867823 1378
-742.5262475 457.0867823 1378
-735.3998029 457.0867823 1378
-726.6878575 456.0916732 1375
-719.5769276 456.0916732 1375
-712.4659977 456.0916732 1375
-703.8161114 455.0965641 1372
-695.1972545 454.101455 1369
-688.1173542 454.101455 1369
-681.0374538 454.101455 1369
-673.9575535 454.101455 1369
-666.8776531 454.101455 1369
-659.7977528 454.101455 1369
-652.7178524 454.101455 1369
-647.0527906 455.0965641 1372
-639.9573755 455.0965641 1372
-634.2457693 456.0916732 1375
-627.1348394 456.0916732 1375
-620.0239096 456.0916732 1375
-615.5875091 458.0818914 1381
-610.207883 459.4087035 1385
-604.3514724 460.4038126 1388
-598.4640324 461.3989217 1391
-593.8207685 463.3891399 1397
-589.1154455 465.3793581 1403
-583.1038874 466.3744673 1406
-578.699515 468.6963885 1413
-573.8183582 470.6866067 1419
-568.0767211 472.0134188 1423
-561.8996722 473.008528 1426
-556.8581962 474.9987462 1432
-549.452486 474.9987462 1432
-543.5608729 476.3255583 1436
-536.1344764 476.3255583 1436
-529.8126231 477.3206674 1439
-522.3707118 477.3206674 1439
-516.0023143 478.3157765 1442
-508.5448883 478.3157765 1442
-501.0874622 478.3157765 1442
-493.6300361 478.3157765 1442
-487.5212164 479.6425887 1446
-481.0390441 480.6376978 1449
-475.8330759 482.959619 1456
-469.2681582 483.9547281 1459
-465.203933 487.6034615 1470
-464.1388697 494.5692252 1491
-459.795379 498.2179586 1502
-456.5419153 503.1935041 1517
-455.2037566 510.4909709 1539
-450.7319747 514.4714073 1551
-444.7088961 516.7933286 1558
-437.7726227 518.1201407 1562
-432.9957174 522.1005771 1574
-427.01501 524.7542014 1582
-419.8925596 526.0810136 1586
-414.0266256 529.0663409 1595
-406.7955719 530.393153 1599
-399.5231455 531.7199652 1603
-392.2093465 533.0467773 1607
-384.8541747 534.3735894 1611
-376.5227507 534.3735894 1611
-368.1913267 534.3735894 1611
-358.9663958 533.0467773 1607
-351.5284787 534.3735894 1611
-343.1970547 534.3735894 1611
-334.0341828 533.0467773 1607
-322.2777087 527.4078257 1590
-311.6846624 523.4273893 1578
-300.4463453 518.1201407 1562
-290.3093971 514.4714073 1551
-830.6651447 478.0250863 1419
-819.8453684 476.0038386 1413
-808.5126066 473.6457163 1406
-799.5317387 472.6350924 1403
-787.1936923 469.6032208 1394
-778.305913 468.592597 1391
-769.4491632 467.5819731 1388
-760.6234429 466.5713492 1385
-751.2847371 465.2238507 1381
-742.5262475 464.2132269 1378
-735.3998029 464.2132269 1378
-726.6878575 463.202603 1375
-719.5769276 463.202603 1375
-712.4659977 463.202603 1375
-705.3550679 463.202603 1375
-696.7206963 462.1919792 1372
-689.6252812 462.1919792 1372
-682.5298661 462.1919792 1372
-673.9575535 461.1813553 1369
-666.8776531 461.1813553 1369
-659.7977528 461.1813553 1369
-652.7178524 461.1813553 1369
-647.0527906 462.1919792 1372
-639.9573755 462.1919792 1372
-634.2457693 463.202603 1375
-627.1348394 463.202603 1375
-620.0239096 463.202603 1375
-614.2502444 464.2132269 1378
-608.4455497 465.2238507 1381
-603.0452372 466.5713492 1385
-597.1733119 467.5819731 1388
-593.8207685 470.6138447 1397
-587.8557546 471.6244685 1400
-583.1038874 473.6457163 1406
-577.4708536 474.9932147 1410
-573.8183582 478.0250863 1419
-568.0767211 479.3725848 1423
-561.8996722 480.3832087 1426
-555.6915939 481.3938325 1429
-549.452486 482.4044564 1432
-542.0467758 482.4044564 1432
-536.1344764 483.7519549 1436
-529.8126231 484.7625787 1439
-522.3707118 484.7625787 1439
-516.0023143 485.7732026 1442
-508.5448883 485.7732026 1442
-502.4774413 487.1207011 1446
-494.9993289 487.1207011 1446
-487.5212164 487.1207011 1446
-481.0390441 488.1313249 1449
-474.8526506 489.4788234 1453
-469.2681582 491.5000711 1459
-463.938072 493.8581935 1466
-462.893695 500.9325605 1487
-458.5708906 504.6381813 1498
-454.1343113 508.3438022 1509
-453.1333041 516.0919184 1532
-448.407116 519.7975393 1543
-443.8525888 523.8400347 1555
-437.7726227 526.198157 1562
-432.9957174 530.2406525 1574
-425.935326 531.588151 1578
-419.8925596 534.2831479 1586
-414.0266256 537.3150195 1595
-406.7955719 538.662518 1599
-399.5231455 540.0100165 1603
-392.2093465 541.357515 1607
-384.8541747 542.7050134 1611
-376.5227507 542.7050134 1611
-368.1913267 542.7050134 1611
-358.9663958 541.357515 1607
-350.6556582 541.357515 1607
-342.3449205 541.357515 1607
-333.202735 540.0100165 1603
-321.4669471 534.2831479 1586
-310.104512 528.893154 1570
-299.6769565 524.8506586 1558
-290.3093971 522.4925362 1551
-819.8453684 483.3112887 1413
-810.8127847 482.2851501 1410
-799.5317387 479.8908266 1403
-788.8877963 477.8385494 1397
-779.9845023 476.8124108 1394
-771.1122377 475.7862722 1391
-762.2710027 474.7601336 1388
-751.2847371 472.3658101 1381
-744.1427778 472.3658101 1381
-735.3998029 471.3396715 1378
-726.6878575 470.3135329 1375
-719.5769276 470.3135329 1375
-712.4659977 470.3135329 1375
-705.3550679 470.3135329 1375
-696.7206963 469.2873943 1372
-689.6252812 469.2873943 1372
-682.5298661 469.2873943 1372
-675.434451 469.2873943 1372
-666.8776531 468.2612557 1369
-659.7977528 468.2612557 1369
-652.7178524 468.2612557 1369
-645.6379521 468.2612557 1369
-639.9573755 469.2873943 1372
-632.8619604 469.2873943 1372
-627.1348394 470.3135329 1375
-620.0239096 470.3135329 1375
-614.2502444 471.3396715 1378
-607.1237998 471.3396715 1378
-603.0452372 473.7339949 1385
-597.1733119 474.7601336 1388
-592.5455628 476.8124108 1394
-586.5960637 477.8385494 1397
-581.8597113 479.8908266 1403
-575.8326384 480.9169653 1406
-572.6052115 484.3374273 1416
-566.4798786 485.3635659 1419
-560.7175551 486.7317508 1423
-555.6915939 488.784028 1429
-548.3013984 488.784028 1429
-542.0467758 489.8101666 1432
-534.6410656 489.8101666 1432
-529.8126231 492.2044901 1439
-522.3707118 492.2044901 1439
-516.0023143 493.2306287 1442
-508.5448883 493.2306287 1442
-502.4774413 494.5988135 1446
-494.9993289 494.5988135 1446
-487.5212164 494.5988135 1446
-481.0390441 495.6249521 1449
-474.8526506 496.9931369 1453
-469.2681582 499.0454142 1459
-463.938072 501.4397376 1466
-461.959814 507.5965693 1484
-457.6525243 511.3590776 1495
-452.9305093 514.7795396 1505
-451.9501885 522.6466024 1528
-447.2446867 526.4091106 1539
-441.5691028 529.1454803 1547
-435.8107736 531.8818499 1555
-431.895347 537.012543 1570
-425.935326 539.7489127 1578
-418.8335619 541.1170975 1582
-412.7287365 543.8534671 1590
-405.7779469 545.5636981 1595
-398.5262069 546.931883 1599
-391.2330942 548.3000678 1603
-383.8986088 549.6682526 1607
-375.5878711 549.6682526 1607
-367.2771335 549.6682526 1607
-358.0728889 548.3000678 1603
-349.7828376 548.3000678 1603
-341.4927863 548.3000678 1603
-332.3712871 546.931883 1599
-320.6561856 541.1170975 1582
-310.8945872 538.3807278 1574
-300.4463453 534.2761734 1562
-291.0580996 531.8818499 1555
-819.8453684 490.6187388 1413
-810.8127847 489.5770854 1410
-799.5317387 487.1465609 1403
-788.8877963 485.0632541 1397
-779.9845023 484.0216008 1394
-771.1122377 482.9799474 1391
-762.2710027 481.938294 1388
-753.4607972 480.8966407 1385
-744.1427778 479.5077695 1381
-737.0008184 479.5077695 1381
-728.2733582 478.4661161 1378
-719.5769276 477.4244627 1375
-712.4659977 477.4244627 1375
-705.3550679 477.4244627 1375
-698.244138 477.4244627 1375
-689.6252812 476.3828094 1372
-682.5298661 476.3828094 1372
-675.434451 476.3828094 1372
-666.8776531 475.341156 1369
-659.7977528 475.341156 1369
-652.7178524 475.341156 1369
-645.6379521 475.341156 1369
-639.9573755 476.3828094 1372
-632.8619604 476.3828094 1372
-625.7665452 476.3828094 1372
-620.0239096 477.4244627 1375
-612.9129797 477.4244627 1375
-607.1237998 478.4661161 1378
-601.3035904 479.5077695 1381
-595.8825915 480.8966407 1385
-592.5455628 484.0216008 1394
-586.5960637 485.0632541 1397
-580.6155351 486.1049075 1400
-575.8326384 488.1882143 1406
-572.6052115 491.6603922 1416
-566.4798786 492.7020456 1419
-560.7175551 494.0909167 1423
-554.5249915 495.1325701 1426
-548.3013984 496.1742235 1429
-542.0467758 497.2158768 1432
-534.6410656 497.2158768 1432
-528.7080798 498.604748 1436
-522.3707118 499.6464014 1439
-516.0023143 500.6880547 1442
-508.5448883 500.6880547 1442
-502.4774413 502.0769259 1446
-494.9993289 502.0769259 1446
-487.5212164 502.0769259 1446
-481.0390441 503.1185793 1449
-474.8526506 504.5074504 1453
-468.3032476 505.5491038 1456
-462.9886762 507.9796284 1463
-460.7146393 513.8823308 1480
-455.2035476 516.3128553 1487
-450.8238557 520.132251 1498
-449.5839571 527.7710425 1520
-445.2104354 531.9376559 1532
-440.4273598 535.7570516 1543
-434.689717 538.534794 1551
-430.7949767 543.7430608 1566
-424.855642 546.5208032 1574
-417.7745643 547.9096743 1578
-411.6904252 550.6874167 1586
-404.5059158 552.0762878 1590
-397.5292683 553.8123768 1595
-389.2805897 553.8123768 1595
-382.9430429 556.5901191 1603
-373.718112 555.2012479 1599
-365.448747 555.2012479 1599
-356.2858751 553.8123768 1595
-348.0371965 553.8123768 1595
-338.7233501 552.0762878 1590
-329.6690815 550.6874167 1586
-319.0346625 546.5208032 1574
-309.3144368 543.7430608 1566
-300.4463453 542.3541897 1562
-291.0580996 539.9236651 1555
-808.5126066 495.4594633 1406
-799.5317387 494.4022951 1403
-788.8877963 492.2879589 1397
-779.9845023 491.2307908 1394
-771.1122377 490.1736226 1391
-762.2710027 489.1164545 1388
-753.4607972 488.0592864 1385
-746.2981515 488.0592864 1385
-737.0008184 486.6497289 1381
-728.2733582 485.5925607 1378
-721.1469136 485.5925607 1378
-712.4659977 484.5353926 1375
-705.3550679 484.5353926 1375
-698.244138 484.5353926 1375
-691.1332082 484.5353926 1375
-684.0222783 484.5353926 1375
-675.434451 483.4782245 1372
-668.3390359 483.4782245 1372
-661.2436208 483.4782245 1372
-654.1482057 483.4782245 1372
-647.0527906 483.4782245 1372
-639.9573755 483.4782245 1372
-632.8619604 483.4782245 1372
-625.7665452 483.4782245 1372
-618.6711301 483.4782245 1372
-611.575715 483.4782245 1372
-605.8020499 484.5353926 1375
-599.9973552 485.5925607 1378
-592.8709106 485.5925607 1378
-589.9951515 489.1164545 1388
-585.3363728 491.2307908 1394
-579.371359 492.2879589 1397
-574.603977 494.4022951 1403
-571.3920649 497.9261889 1413
-565.2822467 498.983357 1416
-559.1413989 500.0405252 1419
-554.5249915 502.5072508 1426
-547.1503108 502.5072508 1426
-540.9112029 503.5644189 1429
-534.6410656 504.6215871 1432
-528.7080798 506.0311446 1436
-522.3707118 507.0883127 1439
-516.0023143 508.1454808 1442
-509.9555537 509.5550383 1446
-502.4774413 509.5550383 1446
-494.9993289 509.5550383 1446
-488.5326712 510.6122065 1449
-481.0390441 510.6122065 1449
-474.8526506 512.021764 1453
-468.3032476 513.0789321 1456
-461.7228151 514.1361002 1459
-457.6017025 518.0123834 1470
-452.1423267 520.479109 1477
-447.5134002 524.0030028 1487
-442.1894841 526.8221178 1495
-440.8513254 534.5746841 1517
-436.1458236 538.4509672 1528
-430.2054903 540.9176928 1535
-427.7689584 547.9654804 1555
-421.6165901 550.432206 1562
-415.656569 553.251321 1570
-410.6521139 557.4799935 1582
-403.4882908 558.889551 1586
-396.2830951 560.2991085 1590
-388.0602743 560.2991085 1590
-381.031911 562.0610554 1595
-372.7832324 562.0610554 1595
-363.3918122 560.2991085 1590
-354.2754846 558.889551 1586
-346.0733502 558.889551 1586
-337.0190817 557.4799935 1582
-328.0061858 556.070436 1578
-317.4131395 551.8417635 1566
-308.5243616 550.432206 1562
-299.0999148 547.9654804 1555
-289.5606946 545.1463654 1547
-277.3741591 537.0414097 1524
-808.5126066 502.7307123 1406
-799.5317387 501.6580294 1403
-788.8877963 499.5126636 1397
-779.9845023 498.4399807 1394
-772.7753123 498.4399807 1394
-763.9185625 497.3672979 1391
-753.4607972 495.2219321 1385
-746.2981515 495.2219321 1385
-739.1355058 495.2219321 1385
-729.858859 493.7916882 1381
-721.1469136 492.7190053 1378
-714.020469 492.7190053 1378
-706.8940244 492.7190053 1378
-698.244138 491.6463225 1375
-691.1332082 491.6463225 1375
-684.0222783 491.6463225 1375
-676.9113485 491.6463225 1375
-668.3390359 490.5736396 1372
-661.2436208 490.5736396 1372
-654.1482057 490.5736396 1372
-647.0527906 490.5736396 1372
-639.9573755 490.5736396 1372
-632.8619604 490.5736396 1372
-625.7665452 490.5736396 1372
-618.6711301 490.5736396 1372
-611.575715 490.5736396 1372
-605.8020499 491.6463225 1375
-598.69112 491.6463225 1375
-592.8709106 492.7190053 1378
-589.9951515 496.294615 1388
-584.0766819 497.3672979 1391
-579.371359 499.5126636 1397
-573.3753156 500.5853465 1400
-570.1789183 504.1609561 1410
-565.2822467 506.3063219 1416
-559.1413989 507.3790048 1419
-553.3583891 508.8092486 1423
-547.1503108 509.8819315 1426
-540.9112029 510.9546144 1429
-534.6410656 512.0272973 1432
-528.7080798 513.4575411 1436
-522.3707118 514.530224 1439
-516.0023143 515.6029069 1442
-509.9555537 517.0331507 1446
-503.5199256 518.1058336 1449
-496.0262984 518.1058336 1449
-488.5326712 518.1058336 1449
-481.0390441 518.1058336 1449
-474.8526506 519.5360775 1453
-468.3032476 520.6087604 1456
-460.7734194 520.6087604 1456
-456.3565278 524.18437 1466
-450.9178383 526.6872967 1473
-445.4067467 529.1902234 1480
-439.8232528 531.6931502 1487
-438.5264667 539.5594913 1509
-433.8623376 543.4926619 1520
-429.3646979 547.7833935 1532
-426.6685881 554.5770517 1551
-420.5369061 557.0799785 1558
-414.5975714 559.9404662 1566
-409.6138026 564.2311977 1578
-402.4706659 565.6614416 1582
-395.2861565 567.0916854 1586
-387.0840221 567.0916854 1586
-379.8374536 568.5219292 1590
-371.6146329 568.5219292 1590
-362.477619 567.0916854 1586
-353.3819777 565.6614416 1582
-344.3277091 564.2311977 1578
-335.3148132 562.8009539 1574
-326.34329 561.37071 1570
-315.1835453 556.0072956 1555
-307.1417301 556.0072956 1555
-296.7917483 551.716564 1543
-287.3145871 548.8560763 1535
-273.9160823 538.1292475 1505
-799.5317387 508.9137636 1403
-790.5819004 507.825566 1400
-781.6630916 506.7373684 1397
-772.7753123 505.6491707 1394
-763.9185625 504.5609731 1391
-755.0928423 503.4727754 1388
-746.2981515 502.3845778 1385
-739.1355058 502.3845778 1385
-729.858859 500.9336476 1381
-722.7168997 500.9336476 1381
-714.020469 499.84545 1378
-706.8940244 499.84545 1378
-698.244138 498.7572523 1375
-691.1332082 498.7572523 1375
-684.0222783 498.7572523 1375
-676.9113485 498.7572523 1375
-669.8004186 498.7572523 1375
-661.2436208 497.6690547 1372
-654.1482057 497.6690547 1372
-647.0527906 497.6690547 1372
-639.9573755 497.6690547 1372
-632.8619604 497.6690547 1372
-625.7665452 497.6690547 1372
-618.6711301 497.6690547 1372
-611.575715 497.6690547 1372
-605.8020499 498.7572523 1375
-598.69112 498.7572523 1375
-592.8709106 499.84545 1378
-588.7199458 502.3845778 1385
-584.0766819 504.5609731 1391
-578.1271828 505.6491707 1394
-573.3753156 507.825566 1400
-570.1789183 511.4528915 1410
-564.0846148 512.5410891 1413
-557.9592818 513.6292868 1416
-553.3583891 516.1684146 1423
-547.1503108 517.2566122 1426
-540.9112029 518.3448099 1429
-534.6410656 519.4330075 1432
-529.8126231 521.9721353 1439
-522.3707118 521.9721353 1439
-516.0023143 523.060333 1442
-509.9555537 524.5112632 1446
-503.5199256 525.5994608 1449
-496.0262984 525.5994608 1449
-488.5326712 525.5994608 1449
-481.0390441 525.5994608 1449
-474.8526506 527.050391 1453
-467.3383371 527.050391 1453
-460.7734194 528.1385886 1456
-455.4226468 530.6777165 1463
-448.7749837 531.7659141 1466
-443.3000931 534.3050419 1473
-437.7528003 536.8441698 1480
-436.4922154 544.8242858 1502
-431.8642874 548.8143438 1513
-427.1225845 552.8044018 1524
-424.4678474 559.6963202 1543
-418.6474592 562.5981806 1551
-412.4795762 565.1373084 1558
-406.4988688 568.0391688 1566
-401.4530409 572.3919594 1578
-394.2892178 573.8428896 1582
-386.1077698 573.8428896 1582
-377.9263218 573.8428896 1582
-369.7448738 573.8428896 1582
-361.5634257 573.8428896 1582
-351.5949639 570.9410292 1574
-342.582068 569.490099 1570
-333.6105448 568.0391688 1566
-324.6803943 566.5882386 1562
-312.7512607 559.6963202 1543
-304.7715045 559.6963202 1543
-295.2529706 556.7944599 1535
-285.2556552 552.8044018 1524
-272.642054 543.3733556 1498
-801.2413576 517.2732103 1406
-792.2760045 516.1694979 1403
-783.3416809 515.0657855 1400
-774.4383869 513.9620731 1397
-765.5661223 512.8583607 1394
-755.0928423 510.6509359 1388
-747.9146818 510.6509359 1388
-739.1355058 509.5472235 1385
-731.9728601 509.5472235 1385
-722.7168997 508.075607 1381
-715.5749403 508.075607 1381
-706.8940244 506.9718946 1378
-699.7675798 506.9718946 1378
-692.6411352 506.9718946 1378
-684.0222783 505.8681822 1375
-676.9113485 505.8681822 1375
-669.8004186 505.8681822 1375
-662.6894887 505.8681822 1375
-655.5785589 505.8681822 1375
-647.0527906 504.7644698 1372
-639.9573755 504.7644698 1372
-632.8619604 504.7644698 1372
-625.7665452 504.7644698 1372
-618.6711301 504.7644698 1372
-611.575715 504.7644698 1372
-605.8020499 505.8681822 1375
-598.69112 505.8681822 1375
-592.8709106 506.9718946 1378
-588.7199458 509.5472235 1385
-582.816991 510.6509359 1388
-578.1271828 512.8583607 1394
-572.1466542 513.9620731 1397
-570.1789183 518.7448268 1410
-564.0846148 519.8485392 1413
-557.9592818 520.9522516 1416
-553.3583891 523.5275805 1423
-547.1503108 524.6312929 1426
-540.9112029 525.7350053 1429
-534.6410656 526.8387177 1432
-529.8126231 529.4140467 1439
-522.3707118 529.4140467 1439
-516.0023143 530.5177591 1442
-509.9555537 531.9893756 1446
-503.5199256 533.093088 1449
-496.0262984 533.093088 1449
-488.5326712 533.093088 1449
-481.0390441 533.093088 1449
-474.8526506 534.5647045 1453
-467.3383371 534.5647045 1453
-459.8240236 534.5647045 1453
-453.2435911 535.6684169 1456
-446.6321291 536.7721293 1459
-440.2905881 538.2437458 1463
-434.7950111 540.8190748 1470
-432.1331054 547.073445 1487
-427.5827512 551.1203905 1498
-421.7975655 553.6957194 1505
-420.3414588 562.1575145 1528
-415.4084073 566.2044599 1539
-409.5673327 569.147693 1547
-403.6435127 572.090926 1555
-398.4001661 576.1378715 1566
-391.298402 577.609488 1570
-383.179013 577.609488 1570
-376.01519 579.0811045 1574
-366.940235 577.609488 1570
-358.820846 577.609488 1570
-348.0209363 573.1946384 1558
-339.3089909 572.090926 1555
-330.4150415 570.6193095 1551
-320.7310169 567.6760764 1543
-308.9001434 560.6858979 1524
-300.2285721 559.2142814 1520
