# .PCD v0.7 - Point Cloud Data file format
VERSION 0.7
FIELDS x y z rgb
SIZE 4 4 4 4
TYPE F F F F
COUNT 1 1 1 1
WIDTH 1061
HEIGHT 1
VIEWPOINT 0 0 0 1 0 0 0
POINTS 1061
DATA ascii
539.810547 887.6129581 1517 1.407848974e-38
546.2117923 885.2725152 1513 1.407848974e-38
552.5716649 882.9320724 1509 1.407848974e-38
558.8901648 880.5916295 1505 1.407848974e-38
565.5438192 878.8362973 1502 1.407848974e-38
571.7847454 876.4958545 1498 1.407848974e-38
576.8236878 872.4000794 1491 1.407848974e-38
584.5345216 872.4000794 1491 1.407848974e-38
590.6565013 870.0596366 1487 1.407848974e-38
598.3466487 870.0596366 1487 1.407848974e-38
606.0367961 870.0596366 1487 1.407848974e-38
613.7269435 870.0596366 1487 1.407848974e-38
621.4170909 870.0596366 1487 1.407848974e-38
629.1072383 870.0596366 1487 1.407848974e-38
636.7973858 870.0596366 1487 1.407848974e-38
646.2211916 872.4000794 1491 1.407848974e-38
653.9320254 872.4000794 1491 1.407848974e-38
666.5241948 878.8362973 1502 1.407848974e-38
675.6387041 880.5916295 1505 1.407848974e-38
683.4219401 880.5916295 1505 1.407848974e-38
691.205176 880.5916295 1505 1.407848974e-38
698.988412 880.5916295 1505 1.407848974e-38
705.3628008 878.8362973 1502 1.407848974e-38
711.2313728 876.4958545 1498 1.407848974e-38
712.2589833 868.3043044 1484 1.407848974e-38
719.933616 868.3043044 1484 1.407848974e-38
725.6470404 865.9638616 1480 1.407848974e-38
731.8145658 864.2085294 1477 1.407848974e-38
737.4504165 861.8680865 1473 1.407848974e-38
743.5507113 860.1127544 1470 1.407848974e-38
745.5320694 853.6765365 1459 1.407848974e-38
749.9804525 850.1658722 1453 1.407848974e-38
755.4094398 847.8254293 1449 1.407848974e-38
761.3235575 846.0700972 1446 1.407848974e-38
761.3582236 837.8785471 1432 1.407848974e-38
763.9323169 832.6125507 1423 1.407848974e-38
767.4973575 828.5167757 1416 1.407848974e-38
771.5371854 825.0061113 1410 1.407848974e-38
774.9625932 820.9103363 1403 1.407848974e-38
780.5457295 819.1550042 1400 1.407848974e-38
787.785949 819.1550042 1400 1.407848974e-38
796.7297959 820.9103363 1403 1.407848974e-38
803.9855302 820.9103363 1403 1.407848974e-38
817.0234545 826.7614435 1413 1.407848974e-38
827.8312481 830.2721078 1419 1.407848974e-38
837.5239765 832.6125507 1423 1.407848974e-38
848.445545 836.123215 1429 1.407848974e-38
861.8247939 841.9743222 1439 1.407848974e-38
871.078936 843.7296543 1442 1.407848974e-38
880.9733562 846.0700972 1446 1.407848974e-38
885.9937882 843.7296543 1442 1.407848974e-38
893.4512143 843.7296543 1442 1.407848974e-38
900.9086403 843.7296543 1442 1.407848974e-38
906.4762619 841.9743222 1439 1.407848974e-38
909.4724281 837.8785471 1432 1.407848974e-38
914.9573042 836.123215 1429 1.407848974e-38
922.3474997 836.123215 1429 1.407848974e-38
927.7858315 834.3678828 1426 1.407848974e-38
935.1605122 834.3678828 1426 1.407848974e-38
940.5522998 832.6125507 1423 1.407848974e-38
949.9098737 834.3678828 1426 1.407848974e-38
957.2845544 834.3678828 1426 1.407848974e-38
962.6297977 832.6125507 1423 1.407848974e-38
969.9889637 832.6125507 1423 1.407848974e-38
977.3481296 832.6125507 1423 1.407848974e-38
981.93932 830.2721078 1419 1.407848974e-38
989.2777997 830.2721078 1419 1.407848974e-38
996.6162793 830.2721078 1419 1.407848974e-38
1001.832233 828.5167757 1416 1.407848974e-38
1011.293239 830.2721078 1419 1.407848974e-38
1016.478163 828.5167757 1416 1.407848974e-38
1023.801128 828.5167757 1416 1.407848974e-38
1033.308677 830.2721078 1419 1.407848974e-38
1043.580623 832.6125507 1423 1.407848974e-38
1053.155404 834.3678828 1426 1.407848974e-38
1062.761214 836.123215 1429 1.407848974e-38
1070.151409 836.123215 1429 1.407848974e-38
1079.803763 837.8785471 1432 1.407848974e-38
1090.246371 840.21899 1436 1.407848974e-38
1097.672768 840.21899 1436 1.407848974e-38
1102.020894 837.8785471 1432 1.407848974e-38
1109.426604 837.8785471 1432 1.407848974e-38
1119.951958 840.21899 1436 1.407848974e-38
1129.733601 841.9743222 1439 1.407848974e-38
1137.175513 841.9743222 1439 1.407848974e-38
1144.617424 841.9743222 1439 1.407848974e-38
1152.059335 841.9743222 1439 1.407848974e-38
1161.918553 843.7296543 1442 1.407848974e-38
1169.375979 843.7296543 1442 1.407848974e-38
1176.833405 843.7296543 1442 1.407848974e-38
1187.575965 846.0700972 1446 1.407848974e-38
383.4401396 685.9080356 1162 1.407848974e-38
533.0172597 897.2291 1520 1.407848974e-38
540.8780695 897.2291 1520 1.407848974e-38
547.6558419 895.4582531 1517 1.407848974e-38
552.5716649 890.7359947 1509 1.407848974e-38
558.8901648 888.3748654 1505 1.407848974e-38
566.6734008 888.3748654 1505 1.407848974e-38
573.3115404 886.6040185 1502 1.407848974e-38
578.3711692 882.4720424 1495 1.407848974e-38
586.1026893 882.4720424 1495 1.407848974e-38
593.8342094 882.4720424 1495 1.407848974e-38
599.9561891 880.1109132 1491 1.407848974e-38
607.6670228 880.1109132 1491 1.407848974e-38
615.3778566 880.1109132 1491 1.407848974e-38
623.0886904 880.1109132 1491 1.407848974e-38
632.4918099 882.4720424 1495 1.407848974e-38
640.22333 882.4720424 1495 1.407848974e-38
649.255094 884.2428893 1498 1.407848974e-38
658.7564736 886.6040185 1502 1.407848974e-38
669.6304993 890.7359947 1509 1.407848974e-38
681.0258566 895.4582531 1517 1.407848974e-38
690.2334544 897.2291 1520 1.407848974e-38
698.0942642 897.2291 1520 1.407848974e-38
705.9550739 897.2291 1520 1.407848974e-38
713.8158836 897.2291 1520 1.407848974e-38
718.3531823 893.0971239 1513 1.407848974e-38
720.8982432 886.6040185 1502 1.407848974e-38
726.7254425 884.2428893 1498 1.407848974e-38
731.040363 880.1109132 1491 1.407848974e-38
735.2828813 875.9789371 1484 1.407848974e-38
739.4529974 871.846961 1477 1.407848974e-38
745.0681617 869.4858318 1473 1.407848974e-38
743.9991042 859.4510326 1456 1.407848974e-38
749.9804525 857.6801857 1453 1.407848974e-38
753.8454451 853.5482096 1446 1.407848974e-38
759.2175449 851.1870804 1442 1.407848974e-38
761.3582236 845.2842574 1432 1.407848974e-38
763.9323169 839.9717166 1423 1.407848974e-38
765.8713038 834.0688936 1413 1.407848974e-38
769.3484274 829.9369175 1406 1.407848974e-38
774.9625932 828.1660706 1403 1.407848974e-38
778.8731315 824.6243768 1397 1.407848974e-38
786.0978362 824.6243768 1397 1.407848974e-38
793.3225409 824.6243768 1397 1.407848974e-38
798.8281034 822.8535299 1394 1.407848974e-38
811.2412644 828.1660706 1403 1.407848974e-38
822.5807328 832.2980467 1410 1.407848974e-38
833.4040412 835.8397405 1416 1.407848974e-38
842.5082074 837.6105874 1419 1.407848974e-38
855.8357405 843.5134104 1429 1.407848974e-38
863.2259359 843.5134104 1429 1.407848974e-38
872.4438769 845.2842574 1432 1.407848974e-38
882.3072676 847.6453866 1436 1.407848974e-38
889.7336641 847.6453866 1436 1.407848974e-38
894.6610076 845.2842574 1432 1.407848974e-38
902.0667178 845.2842574 1432 1.407848974e-38
907.5671087 843.5134104 1429 1.407848974e-38
911.115636 839.9717166 1423 1.407848974e-38
918.474802 839.9717166 1423 1.407848974e-38
923.2314831 837.6105874 1419 1.407848974e-38
928.6025844 835.8397405 1416 1.407848974e-38
935.9255492 835.8397405 1416 1.407848974e-38
943.2485141 835.8397405 1416 1.407848974e-38
950.571479 835.8397405 1416 1.407848974e-38
955.8650064 834.0688936 1413 1.407848974e-38
965.2174087 835.8397405 1416 1.407848974e-38
972.5403735 835.8397405 1416 1.407848974e-38
979.8633384 835.8397405 1416 1.407848974e-38
987.1863033 835.8397405 1416 1.407848974e-38
994.5092681 835.8397405 1416 1.407848974e-38
1001.832233 835.8397405 1416 1.407848974e-38
1011.293239 837.6105874 1419 1.407848974e-38
1018.631718 837.6105874 1419 1.407848974e-38
1025.970198 837.6105874 1419 1.407848974e-38
1036.221457 839.9717166 1423 1.407848974e-38
1045.780723 841.7425635 1426 1.407848974e-38
1055.371018 843.5134104 1429 1.407848974e-38
1062.761214 843.5134104 1429 1.407848974e-38
1072.398053 845.2842574 1432 1.407848974e-38
1079.803763 845.2842574 1432 1.407848974e-38
1087.209473 845.2842574 1432 1.407848974e-38
1097.672768 847.6453866 1436 1.407848974e-38
1105.099165 847.6453866 1436 1.407848974e-38
1114.849779 849.4162335 1439 1.407848974e-38
1122.29169 849.4162335 1439 1.407848974e-38
1132.088849 851.1870804 1442 1.407848974e-38
1139.546275 851.1870804 1442 1.407848974e-38
1150.185403 853.5482096 1446 1.407848974e-38
1157.663516 853.5482096 1446 1.407848974e-38
1165.141628 853.5482096 1446 1.407848974e-38
1172.619741 853.5482096 1446 1.407848974e-38
1176.833405 851.1870804 1442 1.407848974e-38
1184.290831 851.1870804 1442 1.407848974e-38
384.1001054 693.1083256 1164 1.407848974e-38
399.8393111 710.3764884 1193 1.407848974e-38
517.5555014 891.9899242 1498 1.407848974e-38
535.8226137 909.8535408 1528 1.407848974e-38
542.3014328 907.4717253 1524 1.407848974e-38
550.1829289 907.4717253 1524 1.407848974e-38
554.0364009 900.9217325 1513 1.407848974e-38
560.3755872 898.539917 1509 1.407848974e-38
566.6734008 896.1581014 1505 1.407848974e-38
574.4566367 896.1581014 1505 1.407848974e-38
579.5317802 891.9899242 1498 1.407848974e-38
587.2788151 891.9899242 1498 1.407848974e-38
595.02585 891.9899242 1498 1.407848974e-38
602.7728848 891.9899242 1498 1.407848974e-38
609.2972496 890.2035625 1495 1.407848974e-38
617.0287697 890.2035625 1495 1.407848974e-38
626.0139894 891.9899242 1498 1.407848974e-38
633.7610242 891.9899242 1498 1.407848974e-38
643.2210312 894.3717397 1502 1.407848974e-38
652.2889963 896.1581014 1505 1.407848974e-38
663.5809218 900.9217325 1513 1.407848974e-38
674.511835 905.0899097 1520 1.407848974e-38
684.1683622 907.4717253 1524 1.407848974e-38
695.6826659 912.2353564 1532 1.407848974e-38
703.6055347 912.2353564 1532 1.407848974e-38
711.5284034 912.2353564 1532 1.407848974e-38
719.4512722 912.2353564 1532 1.407848974e-38
725.4749918 909.8535408 1528 1.407848974e-38
728.0976265 903.3035481 1517 1.407848974e-38
734.0023996 900.9217325 1513 1.407848974e-38
734.4724774 891.9899242 1498 1.407848974e-38
740.7330913 890.2035625 1495 1.407848974e-38
742.9575139 883.6535698 1484 1.407848974e-38
748.6088794 881.2717542 1480 1.407848974e-38
745.5320694 868.7672226 1459 1.407848974e-38
747.9158126 862.8126837 1449 1.407848974e-38
753.8454451 861.026322 1446 1.407848974e-38
759.2175449 858.6445065 1442 1.407848974e-38
759.7631994 850.9036059 1429 1.407848974e-38
761.7849316 844.949067 1419 1.407848974e-38
764.2452501 839.589982 1410 1.407848974e-38
769.3484274 837.2081665 1406 1.407848974e-38
773.30551 833.6354432 1400 1.407848974e-38
775.5279355 828.2763582 1391 1.407848974e-38
781.033498 826.4899965 1388 1.407848974e-38
788.2116584 826.4899965 1388 1.407848974e-38
797.1089612 828.2763582 1391 1.407848974e-38
806.0372934 830.0627198 1394 1.407848974e-38
816.7468269 833.6354432 1400 1.407848974e-38
827.5184195 837.2081665 1406 1.407848974e-38
834.7896685 837.2081665 1406 1.407848974e-38
849.846687 844.949067 1419 1.407848974e-38
859.6014743 847.3308826 1423 1.407848974e-38
868.7883858 849.1172442 1426 1.407848974e-38
878.0063269 850.9036059 1429 1.407848974e-38
887.2552974 852.6899676 1432 1.407848974e-38
892.7867178 850.9036059 1429 1.407848974e-38
900.1769133 850.9036059 1429 1.407848974e-38
903.7564701 847.3308826 1423 1.407848974e-38
908.5545239 844.949067 1419 1.407848974e-38
913.9566547 843.1627054 1416 1.407848974e-38
921.2796195 843.1627054 1416 1.407848974e-38
924.6678277 839.589982 1410 1.407848974e-38
931.959763 839.589982 1410 1.407848974e-38
936.5871545 837.2081665 1406 1.407848974e-38
943.8584035 837.2081665 1406 1.407848974e-38
951.1296526 837.2081665 1406 1.407848974e-38
961.1275044 839.589982 1410 1.407848974e-38
968.4194398 839.589982 1410 1.407848974e-38
975.7113751 839.589982 1410 1.407848974e-38
980.2146486 837.2081665 1406 1.407848974e-38
992.402257 841.3763437 1413 1.407848974e-38
1003.954759 844.949067 1419 1.407848974e-38
1014.143959 847.3308826 1423 1.407848974e-38
1021.503125 847.3308826 1423 1.407848974e-38
1028.862291 847.3308826 1423 1.407848974e-38
1038.406042 849.1172442 1426 1.407848974e-38
1047.980823 850.9036059 1429 1.407848974e-38
1057.586633 852.6899676 1432 1.407848974e-38
1064.992343 852.6899676 1432 1.407848974e-38
1075.393578 855.0717831 1436 1.407848974e-38
1082.819975 855.0717831 1436 1.407848974e-38
1090.246371 855.0717831 1436 1.407848974e-38
1099.965956 856.8581448 1439 1.407848974e-38
1107.407868 856.8581448 1439 1.407848974e-38
1117.173997 858.6445065 1442 1.407848974e-38
1124.631423 858.6445065 1442 1.407848974e-38
1135.229178 861.026322 1446 1.407848974e-38
1142.707291 861.026322 1446 1.407848974e-38
1152.57168 862.8126837 1449 1.407848974e-38
1157.663516 861.026322 1446 1.407848974e-38
1165.141628 861.026322 1446 1.407848974e-38
1172.619741 861.026322 1446 1.407848974e-38
1176.833405 858.6445065 1442 1.407848974e-38
1184.290831 858.6445065 1442 1.407848974e-38
386.0800029 702.7318038 1170 1.407848974e-38
524.119957 911.148843 1517 1.407848974e-38
537.2252907 920.1582251 1532 1.407848974e-38
543.7247962 917.7557232 1528 1.407848974e-38
550.1829289 915.3532213 1524 1.407848974e-38
555.5011369 911.148843 1517 1.407848974e-38
561.8610095 908.7463411 1513 1.407848974e-38
568.1795095 906.3438392 1509 1.407848974e-38
574.4566367 903.9413374 1505 1.407848974e-38
581.0792616 902.1394609 1502 1.407848974e-38
588.8469828 902.1394609 1502 1.407848974e-38
596.614704 902.1394609 1502 1.407848974e-38
604.3824252 902.1394609 1502 1.407848974e-38
610.5199197 899.736959 1498 1.407848974e-38
619.9178676 902.1394609 1502 1.407848974e-38
627.6855888 902.1394609 1502 1.407848974e-38
636.7225244 903.9413374 1505 1.407848974e-38
644.5057603 903.9413374 1505 1.407848974e-38
655.7563132 908.7463411 1513 1.407848974e-38
665.3352666 911.148843 1517 1.407848974e-38
678.0618973 917.7557232 1528 1.407848974e-38
690.9023028 924.3626034 1539 1.407848974e-38
697.0449688 921.9601016 1535 1.407848974e-38
706.8204425 924.3626034 1539 1.407848974e-38
716.6372888 926.7651053 1543 1.407848974e-38
722.7385822 924.3626034 1539 1.407848974e-38
728.7985028 921.9601016 1535 1.407848974e-38
733.3771742 917.7557232 1528 1.407848974e-38
737.3983128 912.9507195 1520 1.407848974e-38
739.8658 906.3438392 1509 1.407848974e-38
744.2014068 902.1394609 1502 1.407848974e-38
746.4620305 895.5325807 1491 1.407848974e-38
750.6321466 891.3282024 1484 1.407848974e-38
745.5320694 876.3125656 1459 1.407848974e-38
746.3673327 868.5044344 1446 1.407848974e-38
751.7601188 866.1019325 1442 1.407848974e-38
757.6380354 864.3000561 1439 1.407848974e-38
759.7631994 858.2938014 1429 1.407848974e-38
760.1743927 850.4856702 1416 1.407848974e-38
764.2452501 846.8819174 1410 1.407848974e-38
767.706859 842.6775391 1403 1.407848974e-38
771.6484267 839.0737862 1397 1.407848974e-38
773.8553375 833.668157 1388 1.407848974e-38
779.3453852 831.8662806 1385 1.407848974e-38
786.5080309 831.8662806 1385 1.407848974e-38
793.6706766 831.8662806 1385 1.407848974e-38
800.8333224 831.8662806 1385 1.407848974e-38
809.7461398 833.668157 1388 1.407848974e-38
820.4556734 837.2719098 1394 1.407848974e-38
829.4460646 839.0737862 1397 1.407848974e-38
844.4565389 846.8819174 1410 1.407848974e-38
855.3729358 850.4856702 1416 1.407848974e-38
864.5236462 852.2875466 1419 1.407848974e-38
874.3198062 854.6900485 1423 1.407848974e-38
885.3965223 858.2938014 1429 1.407848974e-38
892.7867178 858.2938014 1429 1.407848974e-38
898.2871087 856.491925 1426 1.407848974e-38
901.2160443 852.2875466 1419 1.407848974e-38
904.7128557 848.6837938 1413 1.407848974e-38
912.0203058 848.6837938 1413 1.407848974e-38
914.7734075 844.4794155 1406 1.407848974e-38
918.1098998 840.8756627 1400 1.407848974e-38
925.3501193 840.8756627 1400 1.407848974e-38
930.5919309 839.0737862 1397 1.407848974e-38
939.8305583 840.8756627 1400 1.407848974e-38
945.0413404 839.0737862 1397 1.407848974e-38
952.2660451 839.0737862 1397 1.407848974e-38
961.5512168 840.8756627 1400 1.407848974e-38
970.8674179 842.6775391 1403 1.407848974e-38
978.1231522 842.6775391 1403 1.407848974e-38
992.402257 848.6837938 1413 1.407848974e-38
1003.954759 852.2875466 1419 1.407848974e-38
1016.282 856.491925 1426 1.407848974e-38
1025.810236 858.2938014 1429 1.407848974e-38
1033.200432 858.2938014 1429 1.407848974e-38
1040.590627 858.2938014 1429 1.407848974e-38
1047.980823 858.2938014 1429 1.407848974e-38
1055.371018 858.2938014 1429 1.407848974e-38
1064.992343 860.0956778 1432 1.407848974e-38
1075.393578 862.4981797 1436 1.407848974e-38
1082.819975 862.4981797 1436 1.407848974e-38
1092.524045 864.3000561 1439 1.407848974e-38
1102.259144 866.1019325 1442 1.407848974e-38
1109.716571 866.1019325 1442 1.407848974e-38
1120.272954 868.5044344 1446 1.407848974e-38
1130.090799 870.3063108 1449 1.407848974e-38
1143.080003 874.5106892 1456 1.407848974e-38
1150.609831 874.5106892 1456 1.407848974e-38
1158.139659 874.5106892 1456 1.407848974e-38
1163.267696 872.7088127 1453 1.407848974e-38
1170.782009 872.7088127 1453 1.407848974e-38
1175.052562 870.3063108 1449 1.407848974e-38
1180.097853 868.5044344 1446 1.407848974e-38
1181.826981 864.3000561 1439 1.407848974e-38
388.3898832 713.0231381 1177 1.407848974e-38
392.1307577 708.7825587 1170 1.407848974e-38
533.1028963 934.7448615 1543 1.407848974e-38
539.6799755 932.3216733 1539 1.407848974e-38
546.215682 929.8984851 1535 1.407848974e-38
553.0710283 928.0810939 1532 1.407848974e-38
556.5996889 920.8115292 1520 1.407848974e-38
563.3464319 918.994138 1517 1.407848974e-38
569.6856182 916.5709498 1513 1.407848974e-38
575.9834318 914.1477615 1509 1.407848974e-38
583.7873541 914.1477615 1509 1.407848974e-38
590.0231086 911.7245733 1505 1.407848974e-38
597.8063446 911.7245733 1505 1.407848974e-38
604.3824252 909.9071821 1502 1.407848974e-38
612.1501464 909.9071821 1502 1.407848974e-38
619.9178676 909.9071821 1502 1.407848974e-38
627.6855888 909.9071821 1502 1.407848974e-38
636.7225244 911.7245733 1505 1.407848974e-38
646.2187324 914.1477615 1509 1.407848974e-38
658.7902155 920.8115292 1520 1.407848974e-38
668.40537 923.2347174 1524 1.407848974e-38
681.1682018 929.8984851 1535 1.407848974e-38
692.6980202 934.7448615 1543 1.407848974e-38
702.4941803 937.1680498 1547 1.407848974e-38
710.4946228 937.1680498 1547 1.407848974e-38
720.3528419 939.591238 1551 1.407848974e-38
728.3739707 939.591238 1551 1.407848974e-38
736.3950996 939.591238 1551 1.407848974e-38
740.5765574 934.7448615 1543 1.407848974e-38
743.2198785 928.0810939 1532 1.407848974e-38
745.2591226 920.8115292 1520 1.407848974e-38
749.6516168 916.5709498 1513 1.407848974e-38
751.969128 909.9071821 1502 1.407848974e-38
752.149597 900.8202263 1487 1.407848974e-38
745.5320694 883.8579086 1459 1.407848974e-38
747.9158126 877.799938 1449 1.407848974e-38
751.7601188 873.5593586 1442 1.407848974e-38
757.6380354 871.7419674 1439 1.407848974e-38
759.7631994 865.6839968 1429 1.407848974e-38
761.7849316 859.6260263 1419 1.407848974e-38
765.8713038 855.9912439 1413 1.407848974e-38
767.706859 849.9332733 1403 1.407848974e-38
771.6484267 846.298491 1397 1.407848974e-38
773.8553375 840.8463174 1388 1.407848974e-38
781.033498 840.8463174 1388 1.407848974e-38
786.5080309 839.0289263 1385 1.407848974e-38
793.6706766 839.0289263 1385 1.407848974e-38
800.8333224 839.0289263 1385 1.407848974e-38
809.7461398 840.8463174 1388 1.407848974e-38
818.6899868 842.6637086 1391 1.407848974e-38
829.4460646 846.298491 1397 1.407848974e-38
844.4565389 854.1738527 1410 1.407848974e-38
853.560705 855.9912439 1413 1.407848974e-38
862.6959007 857.8086351 1416 1.407848974e-38
871.8621258 859.6260263 1419 1.407848974e-38
883.5377473 863.8666057 1426 1.407848974e-38
890.912428 863.8666057 1426 1.407848974e-38
898.2871087 863.8666057 1426 1.407848974e-38
901.2160443 859.6260263 1419 1.407848974e-38
906.6336898 857.8086351 1416 1.407848974e-38
910.083957 854.1738527 1410 1.407848974e-38
917.3758923 854.1738527 1410 1.407848974e-38
918.1098998 848.1158821 1400 1.407848974e-38
925.3501193 848.1158821 1400 1.407848974e-38
930.5919309 846.298491 1397 1.407848974e-38
937.8166357 846.298491 1397 1.407848974e-38
945.0413404 846.298491 1397 1.407848974e-38
954.3109973 848.1158821 1400 1.407848974e-38
963.6116837 849.9332733 1403 1.407848974e-38
970.8674179 849.9332733 1403 1.407848974e-38
980.2146486 851.7506645 1406 1.407848974e-38
996.6162793 859.6260263 1419 1.407848974e-38
1003.954759 859.6260263 1419 1.407848974e-38
1018.420041 865.6839968 1429 1.407848974e-38
1025.810236 865.6839968 1429 1.407848974e-38
1033.200432 865.6839968 1429 1.407848974e-38
1040.590627 865.6839968 1429 1.407848974e-38
1050.180922 867.501388 1432 1.407848974e-38
1055.371018 865.6839968 1429 1.407848974e-38
1064.992343 867.501388 1432 1.407848974e-38
1072.398053 867.501388 1432 1.407848974e-38
1079.803763 867.501388 1432 1.407848974e-38
1090.246371 869.9245763 1436 1.407848974e-38
1102.259144 873.5593586 1442 1.407848974e-38
1112.794841 875.9825468 1446 1.407848974e-38
1122.597171 877.799938 1449 1.407848974e-38
1133.210442 880.2231263 1453 1.407848974e-38
1143.080003 882.0405174 1456 1.407848974e-38
1150.609831 882.0405174 1456 1.407848974e-38
1160.525936 883.8579086 1459 1.407848974e-38
1168.071279 883.8579086 1459 1.407848974e-38
1173.199316 882.0405174 1456 1.407848974e-38
1178.296323 880.2231263 1453 1.407848974e-38
1182.546189 877.799938 1449 1.407848974e-38
1184.290831 873.5593586 1442 1.407848974e-38
394.3295756 730.1075296 1195 1.407848974e-38
392.1307577 714.8333135 1170 1.407848974e-38
534.4848869 945.1684923 1547 1.407848974e-38
541.0826525 942.7246177 1543 1.407848974e-38
547.6390453 940.2807432 1539 1.407848974e-38
554.1540655 937.8368686 1535 1.407848974e-38
556.5996889 928.6723389 1520 1.407848974e-38
563.3464319 926.839433 1517 1.407848974e-38
571.1917269 926.839433 1517 1.407848974e-38
577.5102268 924.3955584 1513 1.407848974e-38
583.7873541 921.9516838 1509 1.407848974e-38
590.0231086 919.5078093 1505 1.407848974e-38
597.8063446 919.5078093 1505 1.407848974e-38
604.3824252 917.6749033 1502 1.407848974e-38
612.1501464 917.6749033 1502 1.407848974e-38
619.9178676 917.6749033 1502 1.407848974e-38
627.6855888 917.6749033 1502 1.407848974e-38
636.7225244 919.5078093 1505 1.407848974e-38
646.2187324 921.9516838 1509 1.407848974e-38
658.7902155 928.6723389 1520 1.407848974e-38
670.1597148 933.5600881 1528 1.407848974e-38
681.1682018 937.8368686 1535 1.407848974e-38
692.6980202 942.7246177 1543 1.407848974e-38
702.4941803 945.1684923 1547 1.407848974e-38
712.331713 947.6123669 1551 1.407848974e-38
720.3528419 947.6123669 1551 1.407848974e-38
730.2524336 950.0562415 1555 1.407848974e-38
736.3950996 947.6123669 1551 1.407848974e-38
742.496393 945.1684923 1547 1.407848974e-38
743.2198785 936.0039627 1532 1.407848974e-38
747.2203308 931.1162135 1524 1.407848974e-38
751.6335114 926.839433 1517 1.407848974e-38
753.4710637 919.5078093 1505 1.407848974e-38
756.1961315 913.3981228 1495 1.407848974e-38
747.576023 893.8471262 1463 1.407848974e-38
749.9804525 887.7374398 1453 1.407848974e-38
753.8454451 883.4606593 1446 1.407848974e-38
757.6380354 879.1838788 1439 1.407848974e-38
759.7631994 873.0741923 1429 1.407848974e-38
761.7849316 866.9645059 1419 1.407848974e-38
765.8713038 863.298694 1413 1.407848974e-38
767.706859 857.1890076 1403 1.407848974e-38
771.6484267 853.5231957 1397 1.407848974e-38
775.5279355 849.8573838 1391 1.407848974e-38
781.033498 848.0244779 1388 1.407848974e-38
786.5080309 846.191572 1385 1.407848974e-38
791.378487 843.7476974 1381 1.407848974e-38
798.5204463 843.7476974 1381 1.407848974e-38
807.9959681 846.191572 1385 1.407848974e-38
818.6899868 849.8573838 1391 1.407848974e-38
827.6648633 851.6902898 1394 1.407848974e-38
838.4674854 855.3561016 1400 1.407848974e-38
853.560705 863.298694 1413 1.407848974e-38
862.6959007 865.1315999 1416 1.407848974e-38
874.3198062 869.4083805 1423 1.407848974e-38
883.5377473 871.2412864 1426 1.407848974e-38
890.912428 871.2412864 1426 1.407848974e-38
898.2871087 871.2412864 1426 1.407848974e-38
901.2160443 866.9645059 1419 1.407848974e-38
908.5545239 866.9645059 1419 1.407848974e-38
912.0203058 863.298694 1413 1.407848974e-38
919.3277559 863.298694 1413 1.407848974e-38
920.0772782 857.1890076 1403 1.407848974e-38
925.3501193 855.3561016 1400 1.407848974e-38
930.5919309 853.5231957 1397 1.407848974e-38
937.8166357 853.5231957 1397 1.407848974e-38
943.011903 851.6902898 1394 1.407848974e-38
950.221093 851.6902898 1394 1.407848974e-38
961.5512168 855.3561016 1400 1.407848974e-38
970.8674179 857.1890076 1403 1.407848974e-38
980.2146486 859.0219135 1406 1.407848974e-38
996.6162793 866.9645059 1419 1.407848974e-38
1003.954759 866.9645059 1419 1.407848974e-38
1014.143959 869.4083805 1423 1.407848974e-38
1025.810236 873.0741923 1429 1.407848974e-38
1033.200432 873.0741923 1429 1.407848974e-38
1040.590627 873.0741923 1429 1.407848974e-38
1045.780723 871.2412864 1426 1.407848974e-38
1053.155404 871.2412864 1426 1.407848974e-38
1062.761214 873.0741923 1429 1.407848974e-38
1070.151409 873.0741923 1429 1.407848974e-38
1079.803763 874.9070982 1432 1.407848974e-38
1087.209473 874.9070982 1432 1.407848974e-38
1102.259144 881.0167847 1442 1.407848974e-38
1112.794841 883.4606593 1446 1.407848974e-38
1122.597171 885.2935652 1449 1.407848974e-38
1133.210442 887.7374398 1453 1.407848974e-38
1145.43525 891.4032516 1459 1.407848974e-38
1152.980593 891.4032516 1459 1.407848974e-38
1163.707638 893.8471262 1463 1.407848974e-38
1168.071279 891.4032516 1459 1.407848974e-38
1173.199316 889.5703457 1456 1.407848974e-38
1180.729144 889.5703457 1456 1.407848974e-38
1182.546189 885.2935652 1449 1.407848974e-38
1187.575965 883.4606593 1446 1.407848974e-38
399.6093021 746.1458178 1211 1.407848974e-38
393.1362212 722.7324891 1173 1.407848974e-38
531.7209056 948.239813 1539 1.407848974e-38
541.0826525 950.7043739 1543 1.407848974e-38
547.6390453 948.239813 1539 1.407848974e-38
555.5981152 948.239813 1539 1.407848974e-38
558.064425 938.9977096 1524 1.407848974e-38
564.4604987 936.5331487 1520 1.407848974e-38
571.1917269 934.684728 1517 1.407848974e-38
577.5102268 932.2201671 1513 1.407848974e-38
583.7873541 929.7556061 1509 1.407848974e-38
590.0231086 927.2910452 1505 1.407848974e-38
596.614704 925.4426245 1502 1.407848974e-38
602.7728848 922.9780636 1498 1.407848974e-38
612.1501464 925.4426245 1502 1.407848974e-38
618.2669545 922.9780636 1498 1.407848974e-38
627.6855888 925.4426245 1502 1.407848974e-38
635.45331 925.4426245 1502 1.407848974e-38
644.5057603 927.2910452 1505 1.407848974e-38
658.7902155 936.5331487 1520 1.407848974e-38
670.1597148 941.4622705 1528 1.407848974e-38
679.8369284 943.9268314 1532 1.407848974e-38
689.1065853 945.7752521 1535 1.407848974e-38
702.4941803 953.1689349 1547 1.407848974e-38
712.331713 955.6334958 1551 1.407848974e-38
720.3528419 955.6334958 1551 1.407848974e-38
730.2524336 958.0980567 1555 1.407848974e-38
736.3950996 955.6334958 1551 1.407848974e-38
742.496393 953.1689349 1547 1.407848974e-38
744.6752699 945.7752521 1535 1.407848974e-38
747.2203308 938.9977096 1524 1.407848974e-38
749.6516168 932.2201671 1513 1.407848974e-38
753.4710637 927.2910452 1505 1.407848974e-38
754.1728643 918.665082 1491 1.407848974e-38
749.1089881 903.2615763 1466 1.407848974e-38
751.5289325 897.100174 1456 1.407848974e-38
755.4094398 892.7871924 1449 1.407848974e-38
759.2175449 888.4742108 1442 1.407848974e-38
761.3582236 882.3128085 1432 1.407848974e-38
763.9323169 876.7675464 1423 1.407848974e-38
767.4973575 872.4545648 1416 1.407848974e-38
769.3484274 866.2931625 1406 1.407848974e-38
774.9625932 864.4447418 1403 1.407848974e-38
777.2005335 858.8994798 1394 1.407848974e-38
781.033498 855.2026384 1388 1.407848974e-38
786.5080309 853.3542177 1385 1.407848974e-38
791.378487 850.8896568 1381 1.407848974e-38
798.5204463 850.8896568 1381 1.407848974e-38
807.9959681 853.3542177 1385 1.407848974e-38
818.6899868 857.0510591 1391 1.407848974e-38
827.6648633 858.8994798 1394 1.407848974e-38
838.4674854 862.5963211 1400 1.407848974e-38
851.7484742 868.7577234 1410 1.407848974e-38
862.6959007 872.4545648 1416 1.407848974e-38
871.8621258 874.3029855 1419 1.407848974e-38
883.5377473 878.6159671 1426 1.407848974e-38
892.7867178 880.4643878 1429 1.407848974e-38
900.1769133 880.4643878 1429 1.407848974e-38
903.7564701 876.7675464 1423 1.407848974e-38
911.115636 876.7675464 1423 1.407848974e-38
915.8930035 874.3029855 1419 1.407848974e-38
919.3277559 870.6061441 1413 1.407848974e-38
922.0446565 866.2931625 1406 1.407848974e-38
927.3330124 864.4447418 1403 1.407848974e-38
930.5919309 860.7479004 1397 1.407848974e-38
937.8166357 860.7479004 1397 1.407848974e-38
945.0413404 860.7479004 1397 1.407848974e-38
954.3109973 862.5963211 1400 1.407848974e-38
963.6116837 864.4447418 1403 1.407848974e-38
972.9433996 866.2931625 1406 1.407848974e-38
980.2146486 866.2931625 1406 1.407848974e-38
996.6162793 874.3029855 1419 1.407848974e-38
1006.784793 876.7675464 1423 1.407848974e-38
1018.420041 880.4643878 1429 1.407848974e-38
1025.810236 880.4643878 1429 1.407848974e-38
1033.200432 880.4643878 1429 1.407848974e-38
1040.590627 880.4643878 1429 1.407848974e-38
1045.780723 878.6159671 1426 1.407848974e-38
1053.155404 878.6159671 1426 1.407848974e-38
1060.530084 878.6159671 1426 1.407848974e-38
1070.151409 880.4643878 1429 1.407848974e-38
1077.541604 880.4643878 1429 1.407848974e-38
1087.209473 882.3128085 1432 1.407848974e-38
1102.259144 888.4742108 1442 1.407848974e-38
1115.103544 892.7871924 1449 1.407848974e-38
1125.696128 895.2517533 1453 1.407848974e-38
1135.550174 897.100174 1456 1.407848974e-38
1145.43525 898.9485947 1459 1.407848974e-38
1156.141609 901.4131556 1463 1.407848974e-38
1163.707638 901.4131556 1463 1.407848974e-38
1168.071279 898.9485947 1459 1.407848974e-38
1170.782009 895.2517533 1453 1.407848974e-38
1172.619741 890.9387717 1446 1.407848974e-38
1176.833405 888.4742108 1442 1.407848974e-38
1179.36313 884.7773694 1436 1.407848974e-38
386.0800029 726.9348232 1170 1.407848974e-38
391.4604487 725.6921996 1168 1.407848974e-38
525.15645 944.3939584 1520 1.407848974e-38
542.4853295 961.1693774 1547 1.407848974e-38
549.0624087 958.6841301 1543 1.407848974e-38
555.5981152 956.1988829 1539 1.407848974e-38
559.529161 949.3644529 1528 1.407848974e-38
564.4604987 944.3939584 1520 1.407848974e-38
572.3213084 944.3939584 1520 1.407848974e-38
577.5102268 940.0447757 1513 1.407848974e-38
582.2398727 935.0742812 1505 1.407848974e-38
588.8469828 933.2103457 1502 1.407848974e-38
593.8342094 928.861163 1495 1.407848974e-38
599.9561891 926.3759158 1491 1.407848974e-38
606.0367961 923.8906685 1487 1.407848974e-38
612.4887587 922.0267331 1484 1.407848974e-38
621.4170909 923.8906685 1487 1.407848974e-38
629.1072383 923.8906685 1487 1.407848974e-38
638.5103579 926.3759158 1491 1.407848974e-38
652.2889963 935.0742812 1505 1.407848974e-38
661.826577 937.5595284 1509 1.407848974e-38
671.4055305 940.0447757 1513 1.407848974e-38
684.1683622 946.8792057 1524 1.407848974e-38
697.0449688 953.7136356 1535 1.407848974e-38
706.8204425 956.1988829 1539 1.407848974e-38
716.6372888 958.6841301 1543 1.407848974e-38
726.4955079 961.1693774 1547 1.407848974e-38
734.4959504 961.1693774 1547 1.407848974e-38
740.5765574 958.6841301 1543 1.407848974e-38
743.2198785 951.8497002 1532 1.407848974e-38
745.2591226 944.3939584 1520 1.407848974e-38
749.6516168 940.0447757 1513 1.407848974e-38
751.969128 933.2103457 1502 1.407848974e-38
754.1728643 926.3759158 1491 1.407848974e-38
749.1089881 910.8431204 1466 1.407848974e-38
751.5289325 904.6300022 1456 1.407848974e-38
755.4094398 900.2808195 1449 1.407848974e-38
759.2175449 895.9316368 1442 1.407848974e-38
763.4849225 892.203766 1436 1.407848974e-38
765.5428559 885.9906478 1426 1.407848974e-38
769.1234112 881.6414651 1419 1.407848974e-38
773.1787539 877.9135942 1413 1.407848974e-38
774.9625932 871.7004761 1403 1.407848974e-38
778.8731315 867.9726052 1397 1.407848974e-38
782.7216107 864.2447343 1391 1.407848974e-38
788.2116584 862.3807988 1388 1.407848974e-38
791.378487 858.0316161 1381 1.407848974e-38
800.8333224 860.5168634 1385 1.407848974e-38
807.9959681 860.5168634 1385 1.407848974e-38
818.6899868 864.2447343 1391 1.407848974e-38
827.6648633 866.1086697 1394 1.407848974e-38
838.4674854 869.8365406 1400 1.407848974e-38
851.7484742 876.0496588 1410 1.407848974e-38
862.6959007 879.7775297 1416 1.407848974e-38
871.8621258 881.6414651 1419 1.407848974e-38
885.3965223 887.8545833 1429 1.407848974e-38
892.7867178 887.8545833 1429 1.407848974e-38
900.1769133 887.8545833 1429 1.407848974e-38
907.5671087 887.8545833 1429 1.407848974e-38
914.9573042 887.8545833 1429 1.407848974e-38
922.3474997 887.8545833 1429 1.407848974e-38
925.8339679 884.1267124 1423 1.407848974e-38
928.6025844 879.7775297 1416 1.407848974e-38
931.959763 876.0496588 1410 1.407848974e-38
934.5887467 871.7004761 1403 1.407848974e-38
941.8444809 871.7004761 1403 1.407848974e-38
949.1002152 871.7004761 1403 1.407848974e-38
958.4009016 873.5644115 1406 1.407848974e-38
965.6721506 873.5644115 1406 1.407848974e-38
977.7873567 877.9135942 1413 1.407848974e-38
985.0948068 877.9135942 1413 1.407848974e-38
999.4256275 884.1267124 1423 1.407848974e-38
1011.029845 887.8545833 1429 1.407848974e-38
1018.420041 887.8545833 1429 1.407848974e-38
1025.810236 887.8545833 1429 1.407848974e-38
1033.200432 887.8545833 1429 1.407848974e-38
1038.406042 885.9906478 1426 1.407848974e-38
1045.780723 885.9906478 1426 1.407848974e-38
1053.155404 885.9906478 1426 1.407848974e-38
1060.530084 885.9906478 1426 1.407848974e-38
1067.904765 885.9906478 1426 1.407848974e-38
1077.541604 887.8545833 1429 1.407848974e-38
1087.209473 889.7185187 1432 1.407848974e-38
1099.965956 894.0677014 1439 1.407848974e-38
1109.716571 895.9316368 1442 1.407848974e-38
1122.597171 900.2808195 1449 1.407848974e-38
1133.210442 902.7660668 1453 1.407848974e-38
1145.43525 906.4939377 1459 1.407848974e-38
1152.980593 906.4939377 1459 1.407848974e-38
1158.139659 904.6300022 1456 1.407848974e-38
1157.663516 898.4168841 1446 1.407848974e-38
1161.918553 895.9316368 1442 1.407848974e-38
1161.266576 889.7185187 1432 1.407848974e-38
1163.775614 885.9906478 1426 1.407848974e-38
1162.93746 879.7775297 1416 1.407848974e-38
-1108.247977 380.7938633 1562 1.178260234e-38
-1100.169961 380.7938633 1562 1.178260234e-38
-1087.197807 379.0873607 1555 1.178260234e-38
-1076.380027 378.1122164 1551 1.178260234e-38
-1068.358899 378.1122164 1551 1.178260234e-38
-1057.603178 377.137072 1547 1.178260234e-38
-1049.602736 377.137072 1547 1.178260234e-38
-1041.602293 377.137072 1547 1.178260234e-38
-1033.601851 377.137072 1547 1.178260234e-38
-1022.949562 376.1619277 1543 1.178260234e-38
-1014.969806 376.1619277 1543 1.178260234e-38
-1004.379577 375.1867834 1539 1.178260234e-38
-993.8307199 374.211639 1535 1.178260234e-38
-983.965511 373.4802808 1532 1.178260234e-38
-973.494228 372.5051364 1528 1.178260234e-38
-958.640794 369.8234895 1517 1.178260234e-38
-948.2884575 368.8483452 1513 1.178260234e-38
-937.9774936 367.8732008 1509 1.178260234e-38
-925.8586509 366.1666982 1502 1.178260234e-38
-908.9222453 362.509907 1487 1.178260234e-38
-895.1713575 360.0720461 1477 1.178260234e-38
-1111.323252 387.1291759 1555 1.178260234e-38
-1100.443414 386.1333452 1551 1.178260234e-38
-1089.604949 385.1375146 1547 1.178260234e-38
-1081.604506 385.1375146 1547 1.178260234e-38
-1068.052136 383.1458532 1539 1.178260234e-38
-1060.093066 383.1458532 1539 1.178260234e-38
-1049.399405 382.1500225 1535 1.178260234e-38
-1041.461021 382.1500225 1535 1.178260234e-38
-1031.502724 381.4031495 1532 1.178260234e-38
-1023.579855 381.4031495 1532 1.178260234e-38
-1015.656986 381.4031495 1532 1.178260234e-38
-1007.734117 381.4031495 1532 1.178260234e-38
-994.590302 379.4114882 1524 1.178260234e-38
-984.1190191 378.4156575 1520 1.178260234e-38
-974.3313839 377.6687845 1517 1.178260234e-38
-963.9376747 376.6729538 1513 1.178260234e-38
-949.1618145 373.9344194 1502 1.178260234e-38
-938.8870517 372.9385888 1498 1.178260234e-38
-926.7888953 371.1958851 1491 1.178260234e-38
-916.6123927 370.2000544 1487 1.178260234e-38
-900.3648065 366.714647 1473 1.178260234e-38
-888.504543 364.9719433 1466 1.178260234e-38
-879.1202915 364.2250703 1463 1.178260234e-38
-1138.28219 398.98293 1570 1.178260234e-38
-1121.524614 395.9333789 1558 1.178260234e-38
-1108.464543 394.1544741 1551 1.178260234e-38
-1091.929345 391.1049231 1539 1.178260234e-38
-1081.152939 390.088406 1535 1.178260234e-38
-1071.117067 389.3260183 1532 1.178260234e-38
-1060.418235 388.3095013 1528 1.178260234e-38
-1049.760775 387.2929842 1524 1.178260234e-38
-1041.879278 387.2929842 1524 1.178260234e-38
-1033.997782 387.2929842 1524 1.178260234e-38
-1023.423068 386.2764672 1520 1.178260234e-38
-1015.562258 386.2764672 1520 1.178260234e-38
-1007.701448 386.2764672 1520 1.178260234e-38
-997.8672689 385.5140795 1517 1.178260234e-38
-987.4115006 384.4975624 1513 1.178260234e-38
-976.9971051 383.4810454 1509 1.178260234e-38
-966.6240823 382.4645284 1505 1.178260234e-38
-954.3811214 380.6856236 1498 1.178260234e-38
-939.6828349 377.8902018 1487 1.178260234e-38
-930.1124064 377.1278141 1484 1.178260234e-38
-919.9514185 376.111297 1480 1.178260234e-38
-907.9825517 374.3323923 1473 1.178260234e-38
-894.2523503 371.7910997 1463 1.178260234e-38
-882.4438026 370.0121949 1456 1.178260234e-38
-873.111267 369.2498072 1453 1.178260234e-38
-1121.606719 401.1383996 1547 1.178260234e-38
-1104.968089 398.0267896 1535 1.178260234e-38
-1089.168255 395.1744803 1524 1.178260234e-38
-1076.320219 393.3593744 1517 1.178260234e-38
-1065.657587 392.3221711 1513 1.178260234e-38
-1055.036328 391.2849677 1509 1.178260234e-38
-1044.456442 390.2477644 1505 1.178260234e-38
-1036.673206 390.2477644 1505 1.178260234e-38
-1026.839026 389.4698618 1502 1.178260234e-38
-1019.071305 389.4698618 1502 1.178260234e-38
-1011.303584 389.4698618 1502 1.178260234e-38
-1003.535863 389.4698618 1502 1.178260234e-38
-995.7681416 389.4698618 1502 1.178260234e-38
-985.3692609 388.4326585 1498 1.178260234e-38
-975.6643711 387.654756 1495 1.178260234e-38
-967.932851 387.654756 1495 1.178260234e-38
-957.6322303 386.6175526 1491 1.178260234e-38
-947.3729824 385.5803492 1487 1.178260234e-38
-933.3635153 382.9873408 1477 1.178260234e-38
-921.337761 381.172235 1470 1.178260234e-38
-911.2491754 380.1350316 1466 1.178260234e-38
-901.8183796 379.3571291 1463 1.178260234e-38
-888.139894 376.7641207 1453 1.178260234e-38
-878.2012843 375.7269173 1449 1.178260234e-38
-868.9049498 374.9490148 1446 1.178260234e-38
-1132.52793 410.1967319 1551 1.178260234e-38
-1112.906473 405.9651731 1535 1.178260234e-38
-1094.170355 401.9980867 1520 1.178260234e-38
-1084.165514 401.2046694 1517 1.178260234e-38
-1067.80615 398.0310003 1505 1.178260234e-38
-1057.909911 397.237583 1502 1.178260234e-38
-1047.34554 396.1796933 1498 1.178260234e-38
-1039.598505 396.1796933 1498 1.178260234e-38
-1031.85147 396.1796933 1498 1.178260234e-38
-1024.104435 396.1796933 1498 1.178260234e-38
-1016.3574 396.1796933 1498 1.178260234e-38
-1008.610365 396.1796933 1498 1.178260234e-38
-1000.863331 396.1796933 1498 1.178260234e-38
-993.1162957 396.1796933 1498 1.178260234e-38
-985.3692609 396.1796933 1498 1.178260234e-38
-973.0538979 394.3283864 1491 1.178260234e-38
-965.3430641 394.3283864 1491 1.178260234e-38
-955.0631298 393.2704967 1487 1.178260234e-38
-945.4616717 392.4770794 1484 1.178260234e-38
-930.8357874 389.5678827 1473 1.178260234e-38
-921.337761 388.7744654 1470 1.178260234e-38
-909.384409 386.9231584 1463 1.178260234e-38
-899.3527108 385.8652687 1459 1.178260234e-38
-885.6949115 383.2205445 1449 1.178260234e-38
-876.3830622 382.4271272 1446 1.178260234e-38
-866.50134 381.3692375 1442 1.178260234e-38
-1123.765625 414.9821326 1539 1.178260234e-38
-1104.931247 410.9374725 1524 1.178260234e-38
-1089.131413 407.9713884 1513 1.178260234e-38
-1075.589386 405.8142363 1505 1.178260234e-38
-1062.839609 403.9267282 1498 1.178260234e-38
-1052.979572 403.1177962 1495 1.178260234e-38
-1045.248052 403.1177962 1495 1.178260234e-38
-1037.516532 403.1177962 1495 1.178260234e-38
-1029.785012 403.1177962 1495 1.178260234e-38
-1022.053492 403.1177962 1495 1.178260234e-38
-1014.321972 403.1177962 1495 1.178260234e-38
-1006.590451 403.1177962 1495 1.178260234e-38
-998.8589314 403.1177962 1495 1.178260234e-38
-991.1274113 403.1177962 1495 1.178260234e-38
-983.3958912 403.1177962 1495 1.178260234e-38
-973.0538979 402.0392201 1491 1.178260234e-38
-962.7532772 400.9606441 1487 1.178260234e-38
-955.0631298 400.9606441 1487 1.178260234e-38
-942.9132575 399.073136 1480 1.178260234e-38
-930.8357874 397.1856279 1473 1.178260234e-38
-921.337761 396.3766959 1470 1.178260234e-38
-909.384409 394.4891878 1463 1.178260234e-38
-899.3527108 393.4106118 1459 1.178260234e-38
-885.6949115 390.7141717 1449 1.178260234e-38
-876.3830622 389.9052396 1446 1.178260234e-38
-866.50134 388.8266636 1442 1.178260234e-38
-857.2567213 388.0177316 1439 1.178260234e-38
-1145.696604 428.1626988 1558 1.178260234e-38
-1115.733512 419.9182309 1528 1.178260234e-38
-1099.856104 416.8952594 1517 1.178260234e-38
-1083.372622 413.5974722 1505 1.178260234e-38
-1070.586644 411.6737631 1498 1.178260234e-38
-1057.873069 409.7500539 1491 1.178260234e-38
-1050.162235 409.7500539 1491 1.178260234e-38
-1042.451402 409.7500539 1491 1.178260234e-38
-1034.740568 409.7500539 1491 1.178260234e-38
-1027.029734 409.7500539 1491 1.178260234e-38
-1019.3189 409.7500539 1491 1.178260234e-38
-1011.608067 409.7500539 1491 1.178260234e-38
-1003.897233 409.7500539 1491 1.178260234e-38
-996.1863991 409.7500539 1491 1.178260234e-38
-988.4755654 409.7500539 1491 1.178260234e-38
-980.7647316 409.7500539 1491 1.178260234e-38
-970.4434246 408.6507915 1487 1.178260234e-38
-962.7532772 408.6507915 1487 1.178260234e-38
-953.1363044 407.8263447 1484 1.178260234e-38
-942.9132575 406.7270823 1480 1.178260234e-38
-928.9399915 403.9789264 1470 1.178260234e-38
-918.8307195 402.879664 1466 1.178260234e-38
-906.8980538 400.9559548 1459 1.178260234e-38
-897.5034592 400.131508 1456 1.178260234e-38
-883.8611746 397.383352 1446 1.178260234e-38
-873.958766 396.2840897 1442 1.178260234e-38
-864.6986326 395.4596429 1439 1.178260234e-38
-855.4695287 394.6351961 1436 1.178260234e-38
-1128.78324 429.7803236 1535 1.178260234e-38
-1101.859862 422.5006569 1509 1.178260234e-38
-1086.080714 419.4207979 1498 1.178260234e-38
-1073.294737 417.4608876 1491 1.178260234e-38
-1062.725194 416.3409389 1487 1.178260234e-38
-1052.906529 415.5009774 1484 1.178260234e-38
-1042.41456 414.3810286 1480 1.178260234e-38
-1037.557264 415.5009774 1484 1.178260234e-38
-1027.106667 414.3810286 1480 1.178260234e-38
-1022.207998 415.5009774 1484 1.178260234e-38
-1014.533366 415.5009774 1484 1.178260234e-38
-1006.858733 415.5009774 1484 1.178260234e-38
-1001.204014 416.3409389 1487 1.178260234e-38
-993.5138669 416.3409389 1487 1.178260234e-38
-985.8237195 416.3409389 1487 1.178260234e-38
-978.133572 416.3409389 1487 1.178260234e-38
-970.4434246 416.3409389 1487 1.178260234e-38
-960.810937 415.5009774 1484 1.178260234e-38
-950.5672038 414.3810286 1480 1.178260234e-38
-941.0019468 413.5410671 1477 1.178260234e-38
-928.9399915 411.5811568 1470 1.178260234e-38
-918.8307195 410.4612081 1466 1.178260234e-38
-906.8980538 408.5012978 1459 1.178260234e-38
-897.5034592 407.6613363 1456 1.178260234e-38
-883.8611746 404.8614645 1446 1.178260234e-38
-873.958766 403.7415157 1442 1.178260234e-38
-864.6986326 402.9015542 1439 1.178260234e-38
-855.4695287 402.0615927 1436 1.178260234e-38
-1123.635694 435.7225958 1528 1.178260234e-38
-1096.748517 428.3084678 1502 1.178260234e-38
-1083.905652 426.3123565 1495 1.178260234e-38
-1070.415341 424.0310863 1487 1.178260234e-38
-1057.722452 422.034975 1480 1.178260234e-38
-1047.939989 421.1794987 1477 1.178260234e-38
-1040.301557 421.1794987 1477 1.178260234e-38
-1034.760613 422.034975 1480 1.178260234e-38
-1025.024694 421.1794987 1477 1.178260234e-38
-1019.452721 422.034975 1480 1.178260234e-38
-1011.798774 422.034975 1480 1.178260234e-38
-1004.144828 422.034975 1480 1.178260234e-38
-999.1841003 423.17561 1484 1.178260234e-38
-991.5094677 423.17561 1484 1.178260234e-38
-985.8237195 424.0310863 1487 1.178260234e-38
-978.133572 424.0310863 1487 1.178260234e-38
-970.4434246 424.0310863 1487 1.178260234e-38
-960.810937 423.17561 1484 1.178260234e-38
-950.5672038 422.034975 1480 1.178260234e-38
-941.0019468 421.1794987 1477 1.178260234e-38
-926.4122636 418.0427522 1466 1.178260234e-38
-916.9504384 417.1872759 1463 1.178260234e-38
-906.8980538 416.0466409 1459 1.178260234e-38
-897.5034592 415.1911646 1456 1.178260234e-38
-883.8611746 412.3395769 1446 1.178260234e-38
-873.958766 411.1989418 1442 1.178260234e-38
-864.6986326 410.3434655 1439 1.178260234e-38
-853.0866052 408.3473542 1432 1.178260234e-38
-1117.752785 441.3021354 1520 1.178260234e-38
-1093.827749 434.9148676 1498 1.178260234e-38
-1081.00557 432.8825552 1491 1.178260234e-38
-1065.376399 429.6889213 1480 1.178260234e-38
-1055.57842 428.8179302 1477 1.178260234e-38
-1045.101966 427.6566088 1473 1.178260234e-38
-1040.301557 428.8179302 1477 1.178260234e-38
-1029.866475 427.6566088 1473 1.178260234e-38
-1025.024694 428.8179302 1477 1.178260234e-38
-1017.386262 428.8179302 1477 1.178260234e-38
-1009.747831 428.8179302 1477 1.178260234e-38
-1004.144828 429.6889213 1480 1.178260234e-38
-996.4908817 429.6889213 1480 1.178260234e-38
-991.5094677 430.8502427 1484 1.178260234e-38
-983.834835 430.8502427 1484 1.178260234e-38
-976.1602024 430.8502427 1484 1.178260234e-38
-968.4855697 430.8502427 1484 1.178260234e-38
-958.2211501 429.6889213 1480 1.178260234e-38
-948.6403784 428.8179302 1477 1.178260234e-38
-938.4535326 427.6566088 1473 1.178260234e-38
-926.4122636 425.6242964 1466 1.178260234e-38
-916.9504384 424.7533053 1463 1.178260234e-38
-906.8980538 423.5919839 1459 1.178260234e-38
-897.5034592 422.7209928 1456 1.178260234e-38
-885.6949115 420.6886804 1449 1.178260234e-38
-873.958766 418.6563679 1442 1.178260234e-38
-864.6986326 417.7853768 1439 1.178260234e-38
-853.0866052 415.7530644 1432 1.178260234e-38
-1128.575735 450.3449529 1524 1.178260234e-38
-1112.605239 447.0944315 1513 1.178260234e-38
-1096.748517 443.8439102 1502 1.178260234e-38
-1075.930427 438.5248754 1484 1.178260234e-38
-1060.337456 435.274354 1473 1.178260234e-38
-1050.575679 434.3878482 1470 1.178260234e-38
-1042.973449 434.3878482 1470 1.178260234e-38
-1035.371218 434.3878482 1470 1.178260234e-38
-1027.768988 434.3878482 1470 1.178260234e-38
-1020.166757 434.3878482 1470 1.178260234e-38
-1012.564527 434.3878482 1470 1.178260234e-38
-1007.01324 435.274354 1473 1.178260234e-38
-1002.109399 436.4563618 1477 1.178260234e-38
-994.4709678 436.4563618 1477 1.178260234e-38
-988.8369354 437.3428676 1480 1.178260234e-38
-981.1829891 437.3428676 1480 1.178260234e-38
-976.1602024 438.5248754 1484 1.178260234e-38
-965.8750965 437.3428676 1480 1.178260234e-38
-958.2211501 437.3428676 1480 1.178260234e-38
-948.6403784 436.4563618 1477 1.178260234e-38
-938.4535326 435.274354 1473 1.178260234e-38
-926.4122636 433.2058405 1466 1.178260234e-38
-916.9504384 432.3193347 1463 1.178260234e-38
-906.8980538 431.1373269 1459 1.178260234e-38
-897.5034592 430.2508211 1456 1.178260234e-38
-885.6949115 428.1823075 1449 1.178260234e-38
-873.958766 426.113794 1442 1.178260234e-38
-864.6986326 425.2272882 1439 1.178260234e-38
-853.0866052 423.1587746 1432 1.178260234e-38
-1133.474404 457.0237548 1520 1.178260234e-38
-1117.467706 453.7163461 1509 1.178260234e-38
-1104.516238 451.6116314 1502 1.178260234e-38
-1088.716404 448.3042227 1491 1.178260234e-38
-1070.855283 444.0947934 1477 1.178260234e-38
-1058.177909 441.9900787 1470 1.178260234e-38
-1047.71697 440.7873846 1466 1.178260234e-38
-1040.135426 440.7873846 1466 1.178260234e-38
-1032.553881 440.7873846 1466 1.178260234e-38
-1024.972337 440.7873846 1466 1.178260234e-38
-1017.390793 440.7873846 1466 1.178260234e-38
-1012.564527 441.9900787 1470 1.178260234e-38
-1004.962296 441.9900787 1470 1.178260234e-38
-999.3954944 442.8920993 1473 1.178260234e-38
-994.4709678 444.0947934 1477 1.178260234e-38
-986.8325362 444.0947934 1477 1.178260234e-38
-981.1829891 444.9968139 1480 1.178260234e-38
-976.1602024 446.199508 1484 1.178260234e-38
-965.8750965 444.9968139 1480 1.178260234e-38
-958.2211501 444.9968139 1480 1.178260234e-38
