2272,2264,2256,2272,2280,2297,2314,2386,2413,2432,2461,2471,2461,2452,2452,2442,2442,2442,2442,2452,2452,2461,2461,2471,2471,2471,2471,2471,2471,2471,2471,2481,2501,2511,2521,2532,2542,2553,2553,2563,2563,2553,2553,2542,2532,2521,2491,2481,2471,2452,2423,2404,2367,2341,2289,2264,2247,2223,2215,2215,2223,2223,2239,2272,2289,2297,2306,2306,2306,2289,2289,2280,2272,2256,2256,2247,2239,2231,2223,2223,2215,2207,2207,2200,2200,2192,2192,2192,2184,2184,2184,2184,2184,2176,2176,2176,2176,2184,2184,2184,2184,2184,2184,2184,2176,2176,2176,2176,2176,2176,2176,2176,2176,2176,2176,2176,2176,2184,2184,2192,2200,2207,2207,2215,2215,2223,2223,2223,2223,2231,2231,2223,2223,2215,2215,2215,2215,2215,2215,2207,2215,2215,2207,2192,2176,2146,2117,2040,2001,1963,1926,1897,1846,1830,1824,1814,1803,1798,1798,1803,1803,1808,1814,1814,1819,1819,1814,1808,1803,1798,1793,1788,1788,1803,1841,1891,0,2081,2223,2272,2280,2289,2306,2323,2332,2358,2376,2395,2404,2432,2442,2452,2452,2452,2442,2432,2404,2395,2376,2358,2341,2332,2323,2314,2306,2314,2314,2323,2323,2341,2341,2358,2358,2376,2376,2376,2376,2376,2376,2367,2376,2367,2376,2376,2386,2386,2395,2404,2413,2413,2413,2423,2423,2413,2413,2404,2404,2413,2413,2413,2413,2413,2413,2413,2423,2423,2423,2432,2452,2461,2461,2461,2481,2481,2491,2501,2501,2501,2511,2511,2521,2521,2521,2521,2521,2521,2521,2521,2511,2511,2511,2532,2542,2553,2553,2584,2595,2606,2617,2628,2628,2628,2639,2639,2639,2639,2639,2639,2639,2651,2662,2651,2651,2639,2617,2606,2595,2584,2563,2563,2563,2563,2542,2553,2542,2532,2532,2532,2532,2532,2532,2532,2542,2542,2542,2542,2542,2542,2532,2521
2272,2264,2256,2272,2280,2297,2314,2376,2413,2432,2452,2471,2461,2452,2452,2442,2442,2442,2442,2452,2452,2461,2461,2461,2471,2461,2461,2471,2471,2471,2481,2481,2511,2521,2532,2542,2553,2563,2574,2563,2563,2563,2542,2532,2521,2521,2491,2481,2461,2452,2413,2404,2367,2341,2280,2264,2247,2223,2215,2215,2223,2231,2247,2272,2280,2289,2297,2297,2297,2289,2272,2272,2264,2247,2247,2239,2231,2223,2223,2215,2215,2207,2200,2192,2192,2184,2184,2176,2176,2176,2176,2176,2176,2176,2176,2176,2176,2176,2176,2176,2176,2176,2176,2176,2169,2169,2169,2169,2169,2169,2169,2169,2176,2176,2176,2176,2176,2184,2184,2184,2192,2200,2200,2207,2215,2215,2215,2223,2223,2223,2231,2231,2223,2223,2215,2207,2207,2207,2207,2207,2207,2207,2192,2184,2161,2131,2103,2027,1988,1951,1914,1880,1835,1824,1814,1808,1798,1798,1798,1798,1798,1808,1814,1814,1819,1819,1814,1808,1803,1798,1798,1793,1788,1798,1835,1880,0,2047,2192,2239,2264,2272,2297,2314,2323,2341,2358,2376,2395,2423,2432,2442,2452,2442,2442,2432,2395,2376,2367,2349,2332,2306,2306,2306,2297,2297,2306,2306,2323,2323,2332,2341,2349,2367,2367,2367,2367,2367,2367,2367,2367,2367,2376,2376,2386,2395,2395,2404,2404,2404,2413,2413,2413,2404,2404,2395,2404,2404,2404,2404,2404,2404,2423,2423,2423,2423,2423,2423,2442,2442,2452,2461,2471,2481,2481,2491,2501,2501,2501,2501,2501,2501,2501,2491,2491,2491,2491,2491,2501,2501,2501,2532,2542,2553,2563,2584,2595,2606,2617,2628,2628,2628,2628,2639,2639,2639,2639,2639,2639,2651,2651,2662,2651,2639,2606,2606,2584,2574,2553,2553,2553,2542,2542,2542,2532,2521,2521,2521,2521,2521,2521,2532,2542,2542,2542,2542,2542,2542,2532,2532
2280,2272,2256,2272,2289,2297,2314,2376,2413,2442,2452,2461,2461,2452,2452,2442,2442,2442,2442,2452,2452,2452,2461,2461,2461,2461,2461,2461,2471,2471,2481,2491,2511,2532,2542,2553,2553,2563,2563,2563,2563,2553,2542,2521,2511,2491,2461,2452,2442,2423,2395,2376,2341,2323,2272,2256,2239,2223,2215,2207,2215,2223,2239,2272,2272,2280,2289,2280,2289,2280,2264,2256,2247,2239,2231,2231,2223,2215,2215,2207,2207,2200,2192,2192,2192,2176,2176,2176,2176,2176,2176,2176,2176,2176,2176,2176,2176,2176,2176,2176,2176,2176,2176,2176,2169,2169,2169,2169,2169,2169,2169,2169,2176,2176,2176,2176,2176,2176,2184,2184,2192,2192,2200,2200,2207,2207,2215,2215,2215,2223,2223,2231,2223,2215,2215,2207,2207,2200,2200,2200,2207,2200,2184,2176,2154,2117,2081,2007,1969,1932,1897,1868,1830,1819,1808,1803,1793,1793,1793,1798,1798,1803,1808,1814,1814,1819,1814,1814,1808,1803,1798,1793,1788,1793,1824,1863,1963,2020,2088,2215,2239,2256,2289,2297,2306,2332,2341,2358,2376,2404,2423,2432,2432,2442,2432,2413,2386,2358,2349,2323,2306,2289,2289,2289,2264,2272,2272,2289,2289,2306,2306,2314,2323,2332,2341,2341,2341,2349,2358,2358,2367,2367,2367,2376,2376,2386,2386,2386,2386,2386,2376,2376,2367,2376,2376,2376,2386,2386,2386,2395,2404,2404,2404,2404,2413,2423,2423,2423,2442,2442,2442,2452,2471,2471,2481,2481,2491,2481,2481,2452,2452,2461,2461,2452,2452,2452,2452,2471,2481,2491,2501,2521,2532,2553,2563,2574,2584,2595,2595,2606,2617,2628,2628,2628,2639,2639,2639,2651,2639,2651,2651,2662,2651,2639,2606,2606,2595,2584,2563,2553,2553,2553,2532,2521,2521,2511,2511,2511,2511,2521,2521,2532,2542,2542,2553,2542,2542,2542,2521,2521
2289,2280,2264,2272,2289,2306,2323,2386,2413,2442,2452,2461,2461,2452,2452,2442,2442,2442,2442,2442,2442,2452,2452,2452,2452,2452,2452,2452,2461,2471,2481,2491,2521,2532,2542,2542,2563,2574,2574,2574,2563,2553,2532,2521,2491,2471,2442,2432,2413,2404,2376,2349,2323,2306,2280,2247,2239,2215,2207,2207,2215,2223,2239,2256,2272,2280,2280,2280,2280,2272,2256,2247,2239,2231,2223,2223,2215,2207,2207,2207,2200,2192,2192,2192,2184,2176,2176,2176,2176,2176,2176,2176,2176,2176,2176,2176,2176,2176,2176,2176,2169,2169,2169,2169,2169,2169,2169,2169,2169,2169,2169,2169,2176,2176,2176,2176,2176,2176,2176,2184,2192,2192,2192,2200,2207,2207,2207,2207,2215,2215,2223,2231,2223,2215,2215,2207,2207,2200,2200,2192,2200,2200,2184,2169,2146,2110,2068,1994,1957,1920,1891,1863,1824,1814,1803,1798,1793,1793,1793,1793,1798,1803,1808,1814,1819,1819,1814,1814,1808,1808,1798,1793,1788,1793,1814,1841,0,1994,2027,2146,2184,2207,2239,2264,2264,2280,2306,2323,2341,2367,2376,2395,2395,2404,2395,2376,2349,2332,2314,2297,2280,2256,2256,2256,2256,2264,2272,2280,2289,2297,2297,2306,2314,2323,2332,2332,2332,2349,2349,2349,2358,2367,2367,2367,2367,2367,2367,2367,2367,2367,2358,2349,2349,2349,2349,2358,2367,2367,2376,2395,2404,2413,2413,2413,2423,2423,2432,2432,2442,2442,2452,2452,2461,2461,2471,2461,2461,2452,2442,2423,2413,2413,2413,2404,2404,2413,2423,2432,2461,2461,2481,2521,2532,2542,2553,2574,2584,2584,2595,2606,2617,2617,2628,2628,2628,2639,2639,2639,2639,2639,2639,2639,2628,2617,2595,2595,2584,2574,2553,2553,2542,2542,2532,2521,2511,2511,2511,2501,2511,2511,2511,2532,2542,2532,2542,2521,2532,2532,2511,2501
2314,2314,2306,2297,2314,2332,2349,2404,2423,2442,2452,2461,2461,2452,2452,2442,2442,2442,2442,2442,2442,2452,2452,2452,2452,2442,2452,2452,2452,2471,2471,2491,2511,2532,2542,2553,2563,2574,2574,2563,2563,2553,2521,2501,2481,2461,2423,2404,2395,2376,2349,2341,2306,2297,2272,2239,2231,2215,2207,2200,2215,2223,2231,2256,2264,2272,2280,2272,2272,2272,2247,2239,2231,2231,2215,2215,2207,2200,2200,2200,2200,2192,2184,2184,2176,2169,2169,2169,2169,2169,2169,2169,2169,2169,2176,2169,2169,2169,2169,2169,2169,2169,2169,2169,2169,2169,2169,2169,2169,2169,2169,2169,2176,2176,2176,2176,2176,2176,2176,2176,2184,2192,2192,2192,2192,2192,2192,2200,2200,2207,2215,2223,2215,2215,2207,2207,2207,2200,2200,2192,2200,2192,2176,2161,2131,2095,2054,1975,1938,1903,1874,1846,1814,1808,1798,1793,1782,1782,1788,1788,1793,1798,1803,1808,1819,1824,1824,1824,1819,1819,1808,1798,1793,1798,1808,1830,1903,1944,2001,2117,2154,2184,2231,2247,2247,2256,2280,2306,2314,2349,2358,2367,2376,2376,2367,2358,2332,2314,2306,2289,2264,2247,2247,2247,2239,2256,2256,2272,2272,2289,2289,2297,2297,2314,2314,2323,2323,2341,2349,2349,2349,2349,2358,2349,2358,2358,2349,2341,2341,2341,2341,2341,2332,2323,2332,2341,2358,2367,2367,2386,2404,2404,2404,2413,2423,2423,2423,2432,2432,2442,2442,2442,2452,2452,2461,2452,2442,2432,2413,2404,2395,2395,2386,2386,2386,2395,2404,2413,2432,2471,2491,2521,2532,2542,2553,2574,2574,2574,2584,2606,2606,2606,2617,2617,2617,2628,2606,2595,2595,2584,2584,2584,2574,2574,2553,2553,2542,2542,2532,2532,2521,2521,2511,2501,2491,2491,2491,2491,2501,2501,2501,2521,2521,2521,2511,2511,2511,2501,2491,2481
2341,2341,2332,2332,2341,2358,2376,2423,2442,2452,2461,2461,2461,2452,2452,2452,2452,2442,2442,2442,2442,2452,2442,2442,2442,2442,2442,2442,2442,2461,2471,2481,2511,2521,2532,2542,2563,2574,2574,2574,2563,2542,2511,2481,2461,2432,2413,2386,2367,2349,2341,2323,2297,2280,2256,2231,2223,2207,2200,2192,2207,2223,2231,2256,2264,2272,2280,2272,2272,2272,2256,2239,2231,2223,2207,2207,2200,2192,2192,2184,2184,2176,2176,2169,2169,2161,2161,2161,2161,2161,2161,2161,2161,2169,2169,2169,2169,2169,2169,2169,2169,2169,2169,2169,2169,2169,2176,2176,2176,2176,2176,2176,2176,2176,2176,2176,2176,2176,2176,2176,2176,2184,2184,2184,2192,2192,2192,2192,2192,2200,2207,2215,2215,2207,2207,2207,2207,2207,2200,2192,2200,2192,2192,2154,2124,2088,2047,1969,1932,1897,1868,1841,1814,1803,1798,1793,1782,1777,1782,1788,1788,1798,1803,1808,1814,1819,1819,1819,1824,1819,1814,1803,1798,1798,1803,1824,1885,0,1975,2088,2131,2169,2215,2223,2231,2239,2264,2280,2297,2332,2332,2349,2349,2349,2341,2341,2314,2297,2289,2272,2256,2239,2239,2231,2231,2247,2247,2247,2256,2280,2280,2280,2289,2297,2314,2314,2323,2341,2341,2341,2341,2349,2349,2349,2349,2358,2349,2341,2332,2323,2332,2323,2323,2323,2323,2341,2349,2367,2367,2376,2404,2404,2413,2413,2423,2423,2423,2423,2432,2432,2432,2432,2432,2432,2432,2423,2404,2395,2386,2367,2358,2358,2358,2367,2376,2386,2404,2413,2452,2471,2481,2521,2532,2532,2553,2563,2563,2563,2574,2584,2595,2595,2595,2595,2595,2584,2584,2584,2574,2553,2553,2553,2542,2553,2532,2521,2521,2521,2511,2511,2511,2511,2501,2501,2491,2481,2481,2481,2501,2501,2501,2511,2511,2511,2511,2501,2501,2491,2481,2481
2358,2358,2349,2349,2358,2386,2423,2432,2442,2452,2461,2461,2461,2452,2452,2452,2452,2452,2452,2452,2452,2452,2442,2442,2442,2432,2432,2442,2452,2461,2471,2471,2491,2501,2511,2521,2542,2553,2563,2553,2553,2532,2491,2461,2432,2413,2395,2358,2349,2341,2323,2306,2289,2272,2256,2223,2207,2200,2192,2184,2200,2215,2231,2256,2264,2272,2289,2289,2280,2280,2256,2247,2239,2223,2207,2200,2192,2192,2184,2176,2176,2169,2169,2169,2161,2154,2154,2154,2154,2154,2161,2161,2161,2161,2169,2169,2169,2169,2169,2169,2169,2169,2169,2176,2176,2176,2176,2176,2184,2184,2184,2184,2184,2176,2176,2176,2176,2176,2176,2176,2176,2176,2176,2176,2184,2184,2184,2184,2192,2192,2200,2207,2215,2207,2207,2207,2207,2207,2207,2200,2200,2192,2184,2154,2124,2081,2040,1963,1926,1891,1863,1841,1814,1803,1798,1788,1782,1777,1777,1782,1782,1788,1793,1803,1808,1819,1819,1819,1830,1824,1814,1808,1798,1798,1803,1824,1874,1914,1963,2068,2110,2146,2200,2215,2215,2223,2239,2256,2272,2289,2314,2314,2323,2323,2323,2314,2289,2280,2264,2256,2239,2215,2215,2207,2215,2223,2223,2239,2247,2272,2280,2280,2280,2297,2306,2314,2314,2332,2341,2332,2341,2341,2349,2349,2349,2358,2358,2341,2332,2332,2323,2314,2314,2314,2314,2341,2349,2367,2367,2376,2395,2404,2413,2413,2423,2432,2423,2432,2432,2432,2432,2432,2432,2432,2432,2413,2395,2386,2386,2349,2349,2349,2358,2358,2386,2395,2413,2432,2471,2481,2511,2532,2532,2532,2542,2553,2553,2563,2563,2574,2574,2584,2584,2584,2584,2574,2574,2563,2553,2542,2542,2532,2521,2521,2511,2501,2501,2501,2501,2501,2501,2501,2491,2491,2481,2481,2481,2481,2501,2501,2501,2521,2511,2521,2501,2501,2491,2481,2481,2471
2376,2367,2358,2367,2376,2395,2423,2442,2452,2461,2461,2471,2461,2452,2452,2452,2452,2452,2452,2452,2452,2452,2442,2442,2442,2432,2432,2442,2442,2461,2461,2471,2481,2491,2501,2511,2532,2532,2553,2542,2532,2521,2501,2461,2442,2413,2395,2367,2349,2341,2332,2306,2280,2272,2247,2215,2207,2192,2184,2184,2200,2215,2223,2256,2264,2280,2289,2297,2297,2306,2272,2264,2247,2239,2207,2200,2192,2184,2176,2176,2176,2169,2169,2161,2161,2154,2154,2154,2154,2154,2154,2154,2161,2161,2161,2161,2169,2169,2169,2169,2169,2169,2169,2176,2176,2176,2184,2184,2184,2184,2184,2184,2184,2184,2176,2176,2169,2169,2169,2169,2169,2176,2176,2176,2176,2176,2176,2176,2176,2184,2184,2200,2200,2207,2207,2207,2215,2207,2207,2200,2200,2192,2184,2146,2117,2074,2027,1988,1920,1891,1863,1841,1814,1803,1798,1788,1777,1772,1772,1772,1767,1772,1772,1777,1782,1793,1793,1793,1808,1814,1808,1803,1798,1798,1803,1814,1863,1903,1938,2034,2074,2117,2161,2176,2176,2184,2200,2207,2215,2231,2256,2264,2264,2272,2272,2264,2264,2247,2239,2231,2223,2215,2207,2207,2207,2207,2223,2231,2247,2264,2272,2272,2280,2306,2306,2314,2323,2332,2341,2341,2341,2349,2358,2358,2358,2367,2367,2367,2358,2349,2349,2349,2341,2341,2341,2341,2367,2367,2376,2386,2404,2413,2413,2423,2423,2432,2423,2423,2432,2432,2432,2432,2423,2423,2423,2404,2395,2376,2367,2349,2341,2341,2349,2349,2386,2395,2413,2432,2471,2491,2511,2532,2532,2532,2542,2542,2553,2553,2553,2574,2574,2574,2574,2574,2563,2553,2553,2553,2542,2532,2521,2521,2511,2511,2491,2491,2481,2481,2491,2481,2491,2491,2491,2491,2491,2491,2501,2491,2501,2511,2521,2521,2511,2501,2491,2491,2481,2481,2471,2471
2395,2386,2386,2386,2404,2413,2442,2452,2461,2461,2461,2461,2461,2461,2461,2461,2461,2461,2461,2461,2461,2452,2452,2442,2432,2432,2423,2432,2442,2442,2452,2461,2471,2481,2491,2501,2511,2521,2542,2542,2532,2532,2521,2471,2452,2432,2404,2367,2349,2341,2332,2314,2289,2272,2256,2215,2207,2192,2184,2184,2200,2207,2223,2247,2256,2272,2289,2297,2297,2297,2272,2264,2247,2231,2207,2200,2184,2184,2176,2169,2169,2169,2161,2154,2154,2154,2154,2154,2154,2154,2154,2154,2154,2154,2161,2161,2161,2161,2169,2169,2169,2169,2169,2176,2176,2184,2184,2192,2192,2192,2192,2192,2184,2184,2176,2176,2169,2169,2161,2161,2161,2161,2161,2161,2161,2161,2161,2161,2161,2169,2169,2184,2192,2192,2200,2200,2207,2215,2207,2200,2200,2184,2176,2131,2095,2061,2020,1982,1914,1885,1857,1835,1814,1803,1793,1788,1772,1767,1762,1767,1762,1762,1767,1767,1772,1777,1788,1793,1803,1808,1803,1803,1798,1798,1798,1808,1857,1891,1932,0,2061,2103,2124,2154,2161,2161,2176,2184,2192,2200,2223,2231,2231,2239,2239,2239,2231,2231,2223,2215,2215,2200,2200,2200,2200,2207,2215,2231,2231,2256,2264,2272,2272,2297,2306,2314,2314,2332,2341,2341,2341,2358,2358,2358,2367,2367,2376,2367,2367,2367,2358,2358,2358,2358,2358,2358,2376,2386,2395,2404,2423,2423,2432,2423,2432,2432,2432,2432,2432,2432,2432,2432,2432,2423,2423,2404,2386,2376,2367,2341,2341,2341,2349,2358,2395,2404,2432,2442,2471,2491,2511,2532,2532,2532,2542,2542,2542,2553,2553,2563,2563,2563,2563,2553,2542,2532,2532,2511,2511,2511,2501,2501,2491,2481,2471,2461,2461,2461,2461,2471,2481,2491,2501,2491,2501,2501,2501,2501,2501,2511,2511,2481,2471,2452,2442,2432,2423,2423,2432,2432
2395,2395,2386,2395,2413,2423,2452,2461,2471,2461,2461,2471,2461,2461,2461,2461,2471,2471,2471,2471,2461,2461,2452,2452,2432,2432,2432,2432,2442,2452,2461,2461,2471,2481,2491,2501,2521,2532,2532,2542,2542,2532,2521,2491,2471,2442,2423,2386,2376,2349,2341,2314,2297,2272,2256,2215,2207,2192,2184,2184,2192,2207,2223,2256,2264,2280,2280,2297,2289,2289,2264,2256,2239,2223,2192,2192,2184,2176,2169,2169,2161,2161,2154,2154,2154,2146,2146,2146,2146,2146,2154,2154,2154,2154,2154,2154,2154,2161,2161,2161,2161,2161,2169,2176,2176,2184,2192,2192,2192,2200,2200,2200,2192,2192,2184,2176,2169,2161,2161,2161,2154,2154,2154,2154,2154,2154,2154,2154,2154,2161,2161,2176,2192,2192,2200,2200,2215,2215,2207,2200,2192,2184,2169,2124,2088,2047,2007,1975,1914,1885,1857,1835,1814,1803,1798,1788,1772,1767,1762,1762,1752,1752,1757,1757,1762,1767,1777,1777,1793,1803,1798,1798,1793,1793,1798,1808,1852,1891,1926,2014,2054,2088,2110,2139,2139,2146,2146,2154,2169,2176,2184,2200,2200,2207,2215,2215,2215,2207,2200,2207,2207,2192,2192,2192,2192,2200,2215,2223,2231,2256,2264,2272,2272,2297,2306,2314,2314,2332,2341,2341,2341,2349,2358,2367,2367,2367,2376,2376,2376,2376,2376,2376,2376,2376,2367,2367,2386,2395,2404,2413,2432,2442,2442,2442,2442,2442,2452,2452,2442,2442,2442,2442,2432,2432,2423,2404,2386,2367,2367,2341,2341,2349,2358,2367,2395,2423,2432,2452,2481,2491,2511,2532,2542,2532,2542,2542,2542,2542,2542,2553,2553,2563,2553,2542,2532,2532,2521,2501,2501,2501,2491,2491,2481,2481,2461,2452,2452,2452,2452,2452,2471,2481,2491,2501,2511,2521,2521,2511,2511,2501,2501,2461,2452,2432,2423,2404,2404,2404,2395,2413
2404,2395,2395,2404,2413,2432,2452,2461,2471,2471,2461,2461,2461,2461,2461,2471,2471,2471,2471,2471,2461,2461,2461,2442,2442,2432,2432,2432,2442,2452,2452,2461,2481,2481,2491,2491,2511,2521,2532,2532,2532,2532,2532,2501,2481,2471,2442,2404,2386,2367,2349,2323,2297,2280,2264,2223,2207,2192,2184,2184,2192,2207,2215,2247,2256,2272,2280,2297,2289,2280,2256,2247,2239,2215,2192,2184,2184,2176,2169,2169,2161,2154,2154,2154,2146,2146,2139,2146,2146,2146,2146,2146,2154,2154,2154,2154,2154,2154,2154,2161,2161,2161,2169,2176,2176,2192,2192,2200,2200,2200,2200,2200,2192,2192,2184,2176,2169,2161,2154,2154,2154,2154,2154,2154,2154,2154,2154,2154,2154,2154,2161,2169,2184,2192,2200,2200,2215,2215,2215,2192,2192,2176,2161,2117,2081,2040,2001,1975,1909,1880,1857,1835,1814,1803,1798,1788,1782,1762,1762,1757,1752,1747,1747,1747,1747,1757,1767,1767,1782,1793,1793,1788,1793,1793,1793,1803,1852,1891,1926,1969,2047,2081,2103,2124,2117,2124,2131,2131,2139,2146,2161,2169,2176,2176,2192,2169,2169,2169,2169,2169,2176,2176,2184,2184,2192,2200,2215,2215,2231,2247,2256,2264,2272,2289,2306,2306,2314,2323,2332,2332,2332,2341,2349,2349,2358,2367,2376,2386,2395,2395,2395,2404,2404,2404,2395,2395,2404,2413,2423,2432,2442,2442,2452,2442,2452,2452,2452,2452,2452,2452,2452,2432,2432,2432,2423,2404,2404,2395,2386,2376,2386,2404,2413,2423,2471,2491,2501,2511,2532,2542,2553,2553,2553,2553,2553,2553,2542,2542,2553,2553,2553,2553,2542,2542,2532,2521,2511,2501,2501,2491,2481,2481,2471,2461,2452,2442,2442,2442,2442,2442,2461,2471,2481,2491,2501,2511,2511,2511,2501,2491,2481,2442,2432,2423,2413,2395,2386,2386,2386,2395
2404,2404,2404,2413,2413,2432,2461,2461,2471,2461,2461,2461,2461,2461,2461,2471,2471,2471,2471,2471,2471,2461,2452,2452,2452,2442,2442,2452,2461,2461,2461,2471,2481,2481,2491,2491,2511,2521,2532,2532,2542,2532,2532,2521,2511,2501,2471,2452,2442,2413,2395,2358,2332,2314,2289,2239,2215,2200,2184,2184,2192,2200,2215,2239,2256,2264,2272,2289,2280,2272,2247,2239,2231,2215,2192,2184,2184,2176,2169,2161,2161,2154,2154,2146,2146,2139,2139,2139,2139,2146,2146,2146,2146,2146,2154,2154,2154,2154,2154,2154,2161,2161,2169,2176,2176,2192,2192,2200,2200,2207,2207,2200,2200,2192,2184,2176,2169,2161,2154,2154,2154,2154,2146,2146,2146,2146,2146,2154,2154,2154,2161,2169,2184,2192,2200,2200,2215,2215,2215,2192,2184,2169,2161,2110,2074,2034,2001,1963,1903,1874,1852,1830,1814,1808,1798,1788,1782,1762,1752,1747,1742,1737,1737,1737,1737,1747,1752,1752,1767,1777,1777,1777,1782,1782,1788,1798,1830,1885,1926,1963,2034,2068,2095,2103,2103,2095,2095,2095,2103,2110,2124,2131,2139,2139,2154,2154,2154,2154,2154,2154,2161,2169,2176,2184,2184,2200,2207,2207,2223,2247,2256,2264,2272,2289,2297,2306,2306,2323,2323,2323,2332,2332,2341,2349,2349,2367,2367,2386,2395,2404,2413,2413,2423,2423,2413,2413,2423,2423,2423,2432,2442,2452,2452,2442,2442,2442,2442,2442,2442,2442,2432,2432,2423,2423,2413,2395,2395,2395,2386,2386,2404,2423,2432,2452,2491,2501,2521,2542,2542,2553,2553,2553,2553,2553,2553,2542,2542,2542,2542,2553,2553,2553,2542,2521,2521,2511,2511,2491,2491,2491,2481,2471,2461,2461,2452,2442,2432,2432,2423,2432,2442,2452,2461,2471,2491,2481,2491,2491,2481,2471,2461,2432,2413,2395,2395,2376,2367,2367,2367,2376
2452,2442,2423,2423,2432,2452,2461,2461,2471,2461,2461,2461,2461,2452,2461,2461,2471,2471,2471,2471,2452,2452,2452,2452,2452,2452,2452,2452,2452,2461,2471,2471,2471,2481,2491,2501,2511,2511,2521,2532,2532,2542,2532,2532,2521,2521,2491,2471,2461,2432,2413,2376,2349,2332,2306,2247,2231,2207,2192,2184,2192,2200,2215,2223,2247,2256,2264,2280,2272,2264,2239,2231,2223,2215,2192,2184,2184,2176,2169,2161,2161,2154,2154,2146,2146,2139,2139,2139,2139,2139,2146,2146,2146,2146,2146,2146,2146,2154,2154,2154,2161,2161,2169,2176,2176,2184,2184,2184,2192,2192,2192,2192,2192,2184,2176,2169,2161,2154,2154,2146,2146,2139,2139,2139,2139,2139,2146,2146,2154,2154,2161,2176,2192,2200,2200,2207,2215,2215,2215,2192,2184,2169,2146,2095,2061,2027,1994,1957,1897,1874,1852,1830,1814,1803,1798,1788,1777,1762,1752,1747,1742,1737,1728,1733,1733,1733,1747,1752,1762,1767,1772,1772,1777,1782,1782,1798,1824,1885,1920,1963,2027,2061,2074,2088,2088,2081,2081,2081,2088,2095,2103,2117,2124,2124,2131,2139,2139,2139,2131,2139,2146,2154,2161,2169,2184,2192,2200,2207,2223,2247,2256,2256,2264,2280,2289,2289,2297,2306,2314,2314,2314,2323,2323,2332,2332,2349,2367,2376,2404,2404,2413,2413,2423,2423,2423,2413,2413,2413,2423,2423,2432,2432,2442,2432,2442,2442,2442,2442,2442,2432,2432,2423,2413,2413,2404,2395,2386,2386,2386,2386,2423,2432,2452,2461,2511,2521,2542,2553,2553,2553,2553,2553,2553,2553,2553,2553,2542,2542,2542,2542,2553,2542,2532,2511,2501,2501,2491,2481,2481,2471,2471,2452,2452,2442,2432,2423,2413,2404,2404,2404,2413,2413,2423,2432,2442,2442,2442,2432,2423,2413,2404,2376,2358,2349,2349,2332,2323,2323,2332,2332
2461,2452,2442,2442,2452,2452,2461,2471,2461,2461,2461,2461,2452,2452,2452,2461,2461,2452,2452,2452,2442,2442,2442,2442,2442,2452,2452,2452,2452,2461,2471,2471,2471,2481,2491,2501,2511,2521,2532,2532,2532,2542,2542,2542,2542,2532,2501,2491,2471,2452,2432,2395,2376,2341,2323,2264,2239,2223,2207,2184,2192,2192,2200,2207,2223,2231,2231,2239,2231,2223,2215,2207,2207,2200,2176,2176,2184,2176,2169,2161,2161,2154,2154,2146,2139,2139,2139,2139,2139,2139,2139,2146,2146,2146,2146,2146,2146,2154,2154,2154,2161,2161,2169,2176,2176,2176,2176,2184,2184,2184,2184,2184,2184,2176,2169,2169,2154,2154,2146,2146,2139,2139,2139,2139,2139,2139,2146,2146,2154,2161,2169,2176,2200,2207,2207,2215,2223,2223,2215,2192,2184,2169,2146,2095,2061,2027,1988,1957,1897,1874,1846,1830,1814,1803,1793,1788,1777,1762,1752,1747,1742,1733,1733,1733,1733,1733,1747,1747,1757,1762,1767,1767,1772,1777,1782,1793,1819,1880,1914,1957,2014,2047,2068,2074,2074,2068,2068,2074,2081,2088,2088,2103,2110,2110,2117,2117,2117,2124,2124,2131,2131,2139,2154,2169,2176,2176,2192,2200,2207,2215,2231,2239,2239,2264,2264,2272,2272,2280,2289,2289,2289,2306,2306,2323,2323,2341,2358,2367,2395,2404,2404,2413,2423,2423,2413,2404,2395,2395,2395,2386,2386,2395,2395,2386,2404,2404,2404,2413,2404,2404,2395,2386,2386,2376,2386,2376,2386,2386,2386,2395,2413,2432,2452,2461,2501,2521,2532,2542,2542,2542,2542,2542,2542,2532,2532,2532,2542,2542,2532,2532,2532,2521,2521,2501,2491,2481,2471,2461,2461,2461,2461,2442,2442,2432,2423,2413,2404,2395,2395,2395,2395,2395,2395,2404,2413,2404,2404,2404,2395,2395,2386,2358,2349,2341,2332,2323,2314,2314,2314,2314
2471,2461,2452,2452,2452,2461,2461,2461,2461,2452,2461,2452,2452,2452,2452,2452,2452,2432,2432,2432,2432,2432,2423,2423,2423,2432,2452,2452,2452,2461,2461,2471,2481,2481,2491,2501,2511,2511,2521,2521,2521,2521,2521,2532,2532,2532,2511,2501,2481,2461,2423,2413,2386,2367,2341,2280,2256,2231,2215,2192,2192,2192,2200,2200,2215,2223,2223,2231,2223,2215,2207,2200,2200,2192,2176,2176,2184,2176,2169,2161,2161,2154,2146,2146,2139,2139,2139,2139,2139,2139,2139,2146,2146,2146,2146,2146,2154,2154,2161,2161,2161,2161,2169,2176,2176,2176,2176,2176,2176,2176,2176,2176,2169,2169,2169,2161,2154,2146,2146,2146,2139,2139,2139,2139,2139,2139,2139,2146,2154,2169,2169,2184,2200,2207,2207,2215,2223,2215,2215,2200,2184,2169,2146,2103,2068,2027,1988,1957,1897,1868,1846,1830,1808,1798,1793,1782,1772,1762,1752,1747,1737,1733,1733,1733,1737,1737,1752,1752,1752,1762,1762,1762,1767,1772,1777,1788,1814,1874,1909,1944,2001,2034,2054,2061,2061,2061,2061,2061,2068,2074,2081,2081,2088,2088,2088,2088,2088,2081,2088,2095,2095,2103,2117,2131,2139,2146,2154,2154,2161,2169,2176,2184,2184,2192,2207,2207,2207,2215,2223,2223,2231,2239,2247,2264,2280,2297,2323,2341,2358,2376,2386,2395,2404,2404,2404,2395,2395,2395,2386,2376,2367,2367,2367,2358,2358,2358,2358,2358,2358,2367,2358,2358,2358,2358,2367,2367,2376,2376,2376,2386,2413,2432,2452,2461,2501,2511,2521,2532,2532,2532,2532,2532,2521,2521,2521,2521,2521,2521,2521,2511,2511,2501,2491,2481,2471,2461,2461,2452,2452,2452,2442,2432,2432,2423,2413,2395,2395,2386,2376,2376,2376,2376,2376,2376,2376,2376,2376,2358,2358,2358,2349,2332,2323,2323,2306,2297,2289,2289,2289,2297
2481,2471,2461,2461,2461,2461,2461,2452,2452,2452,2452,2452,2452,2452,2442,2442,2442,2432,2423,2413,2413,2413,2413,2413,2413,2432,2432,2442,2452,2461,2471,2481,2481,2491,2501,2511,2521,2521,2532,2532,2521,2521,2521,2532,2532,2532,2521,2521,2511,2501,2461,2442,2423,2395,2376,2306,2280,2256,2231,2200,2192,2192,2200,2200,2207,2215,2223,2223,2215,2207,2207,2200,2200,2192,2184,2176,2176,2176,2169,2161,2161,2154,2154,2146,2139,2139,2139,2139,2139,2139,2139,2146,2146,2146,2146,2154,2154,2161,2161,2161,2169,2169,2169,2176,2176,2176,2176,2176,2169,2169,2169,2169,2161,2161,2161,2154,2146,2146,2139,2139,2139,2131,2131,2131,2139,2139,2139,2146,2154,2169,2169,2184,2200,2207,2207,2215,2223,2215,2215,2200,2184,2169,2154,2103,2068,2027,1994,1963,1897,1868,1846,1824,1814,1793,1788,1777,1772,1757,1747,1747,1737,1737,1733,1733,1737,1737,1752,1752,1752,1762,1757,1757,1757,1762,1772,1782,1808,1863,1891,1920,1975,2001,2020,2034,2040,2040,2047,2054,2054,2061,2068,2074,2081,2081,2081,2074,2074,2074,2074,2074,2081,2088,2103,2110,2117,2124,2131,2131,2139,2146,2154,2154,2154,2161,2176,2176,2176,2176,2184,2192,2192,2207,2215,2231,2247,2280,2297,2323,2341,2367,2367,2376,2386,2386,2386,2386,2376,2376,2367,2358,2349,2349,2341,2332,2332,2332,2323,2323,2332,2323,2323,2314,2332,2341,2349,2349,2358,2367,2367,2376,2404,2423,2442,2452,2481,2501,2511,2511,2521,2521,2521,2511,2511,2511,2511,2501,2501,2501,2501,2491,2491,2481,2471,2461,2452,2452,2442,2442,2442,2432,2432,2423,2423,2413,2404,2386,2386,2376,2367,2358,2358,2358,2358,2349,2349,2349,2341,2332,2332,2323,2314,2306,2306,2306,2297,2289,2280,2280,2272,2272
2491,2481,2461,2461,2461,2461,2452,2452,2452,2452,2452,2452,2452,2442,2442,2442,2432,2423,2413,2413,2404,2404,2404,2404,2404,2423,2432,2432,2452,2461,2481,2491,2491,2501,2511,2521,2532,2532,2532,2532,2532,2521,2521,2521,2521,2532,2521,2521,2521,2511,2481,2461,2442,2413,2386,2323,2297,2264,2239,2207,2200,2192,2192,2200,2207,2207,2207,2215,2207,2207,2200,2200,2200,2192,2184,2184,2176,2176,2169,2169,2161,2154,2154,2146,2139,2139,2139,2139,2139,2139,2139,2146,2146,2146,2154,2154,2154,2161,2161,2169,2169,2169,2176,2176,2176,2161,2161,2154,2146,2146,2146,2146,2139,2139,2139,2139,2131,2131,2131,2131,2131,2131,2124,2124,2124,2131,2131,2139,2146,2154,2169,2169,2192,2200,2200,2207,2215,2215,2207,2200,2184,2169,2154,2110,2088,2047,2007,1975,1909,1874,1846,1824,1814,1793,1782,1777,1767,1757,1747,1742,1742,1742,1737,1737,1742,1747,1752,1752,1752,1757,1757,1757,1757,1762,1772,1782,1808,1852,1874,1903,1951,1982,2001,2020,2027,2034,2040,2047,2054,2054,2061,2068,2068,2068,2068,2061,2061,2061,2061,2061,2068,2074,2081,2088,2095,2095,2103,2103,2110,2110,2124,2117,2124,2124,2139,2131,2139,2139,2146,2154,2154,2161,2192,2207,2231,2264,2289,2306,2323,2341,2349,2349,2358,2367,2367,2367,2367,2358,2367,2349,2341,2332,2314,2314,2306,2314,2306,2306,2306,2306,2306,2306,2306,2323,2332,2332,2349,2349,2349,2358,2395,2404,2423,2432,2461,2481,2491,2491,2491,2491,2491,2491,2481,2481,2481,2471,2471,2471,2471,2432,2423,2413,2413,2404,2404,2404,2404,2395,2404,2404,2404,2395,2395,2395,2386,2367,2358,2349,2341,2341,2332,2323,2314,2297,2280,2272,2256,2247,2247,2247,2247,2247,2239,2239,2239,2223,2207,2207,2200,2200
2481,2471,2461,2452,2442,2442,2442,2452,2452,2452,2452,2452,2452,2442,2442,2432,2432,2423,2413,2404,2404,2395,2404,2404,2404,2423,2432,2452,2461,2481,2491,2491,2501,2511,2532,2532,2553,2553,2553,2542,2542,2532,2532,2532,2532,2532,2521,2532,2521,2521,2491,2481,2461,2432,2376,2341,2306,2280,2256,2215,2200,2192,2192,2184,2184,2192,2192,2200,2200,2200,2200,2200,2200,2192,2184,2184,2184,2176,2169,2169,2161,2154,2154,2146,2146,2139,2139,2139,2139,2139,2139,2146,2146,2146,2154,2154,2161,2161,2169,2169,2169,2169,2169,2169,2161,2154,2154,2146,2146,2139,2139,2131,2131,2131,2131,2131,2131,2131,2124,2124,2124,2124,2124,2124,2124,2124,2124,2131,2139,2154,2154,2161,2184,2184,2192,2200,2207,2215,2207,2200,2192,2176,2161,2124,2095,2054,2020,1982,1909,1880,1852,1824,1808,1793,1782,1772,1767,1752,1747,1742,1742,1742,1742,1742,1747,1747,1762,1762,1762,1762,1762,1757,1757,1762,1767,1782,1803,1841,1863,1885,1932,1957,1982,2007,2014,2027,2034,2047,2047,2047,2047,2054,2054,2054,2047,2047,2040,2040,2040,2047,2047,2054,2061,2068,2074,2081,2074,2081,2081,2081,2088,2088,2088,2088,2095,2095,2095,2095,2103,2110,2117,2131,2169,2192,2215,2256,2272,2297,2314,2323,2332,2332,2323,2332,2332,2341,2341,2332,2332,2323,2297,2289,2272,2272,2247,2239,2223,2215,2207,2200,2192,2192,2200,2200,2207,2200,2192,2200,2200,2207,2207,2247,2264,2280,2332,2349,2358,2341,2341,2341,2341,2332,2332,2332,2332,2323,2297,2297,2314,2314,2341,2332,2332,2349,2376,2367,2376,2367,2386,2386,2386,2386,2386,2376,2376,2358,2341,2341,2332,2314,2306,2289,2272,2256,2231,2215,2200,2200,2200,2200,2200,2200,2200,2200,2184,2184,2169,2161,2161,2161
2481,2461,2452,2452,2452,2452,2442,2452,2452,2452,2452,2452,2442,2442,2432,2432,2423,2413,2404,2395,2395,2395,2395,2404,2404,2432,2442,2452,2461,2481,2491,2501,2511,2532,2532,2553,2553,2553,2553,2542,2532,2521,2511,2511,2511,2511,2511,2521,2521,2521,2511,2501,2481,2461,2413,2376,2341,2306,2280,2223,2207,2192,2184,2184,2184,2184,2192,2192,2192,2200,2200,2200,2200,2192,2192,2184,2184,2184,2169,2169,2161,2161,2154,2146,2146,2139,2139,2139,2139,2139,2139,2146,2146,2146,2154,2154,2161,2161,2169,2169,2169,2169,2169,2161,2161,2146,2146,2139,2131,2124,2124,2124,2124,2124,2124,2124,2124,2124,2124,2124,2117,2117,2117,2117,2117,2117,2124,2124,2131,2139,2146,2154,2169,2176,2184,2192,2200,2200,2207,2192,2192,2176,2169,2131,2103,2068,2027,1988,1914,1885,1857,1830,1808,1788,1782,1772,1767,1752,1747,1742,1742,1742,1742,1742,1752,1752,1767,1767,1767,1767,1767,1767,1762,1762,1772,1777,1798,1830,1846,1868,1909,1932,1957,1969,1994,2001,1988,2001,2001,2007,2001,2007,2001,2001,2001,1994,1988,1988,1988,1988,1988,1994,1994,2007,2014,2014,2014,2020,2020,2020,2014,2014,2014,2007,2007,2007,2007,2007,2014,2027,2040,2054,2103,2124,2161,2184,2239,2264,2280,2297,2306,2306,2297,2306,2314,2314,2306,2297,2289,2280,2256,2239,2223,2207,2192,2184,2176,2161,2146,2146,2139,2124,2131,2131,2131,2131,2124,2131,2131,2131,2139,2161,2169,2184,2200,2223,2231,2239,2215,2215,2223,2223,2215,2215,2215,2207,2207,2200,2207,2207,2231,2247,2272,2272,2332,2341,2349,2341,2367,2376,2376,2376,2376,2367,2358,2349,2332,2314,2306,2289,2256,2231,2207,2192,2169,2154,2139,2139,2131,2139,2146,2139,2146,2146,2139,2139,2124,2124,2124,2124
2452,2442,2442,2452,2452,2452,2452,2452,2452,2452,2452,2452,2442,2442,2432,2432,2423,2413,2404,2404,2395,2395,2404,2413,2413,2442,2452,2461,2481,2501,2511,2521,2542,2553,2553,2563,2553,2553,2553,2542,2521,2521,2511,2511,2511,2511,2511,2511,2521,2521,2521,2511,2491,2481,2432,2395,2349,2314,2289,2231,2207,2192,2184,2176,2176,2176,2184,2184,2192,2192,2192,2200,2200,2192,2192,2184,2184,2184,2169,2169,2169,2161,2154,2146,2146,2139,2139,2139,2139,2139,2139,2146,2146,2146,2154,2154,2161,2161,2161,2161,2161,2161,2161,2154,2154,2139,2139,2131,2124,2124,2117,2117,2117,2117,2117,2117,2124,2124,2117,2117,2117,2117,2110,2110,2110,2110,2117,2117,2124,2131,2139,2139,2154,2169,2169,2184,2192,2200,2200,2192,2192,2184,2176,2139,2110,2074,2034,1994,1926,1885,1857,1830,1808,1788,1782,1772,1767,1752,1747,1742,1742,1742,1747,1747,1752,1757,1772,1772,1772,1772,1772,1767,1762,1767,1772,1777,1788,1808,1824,1835,1868,1885,1903,1920,1944,1957,1969,1982,1982,1982,1975,1975,1975,1969,1969,1963,1963,1957,1957,1957,1957,1963,1963,1969,1975,1975,1975,1975,1975,1982,1975,1975,1969,1969,1969,1969,1969,1975,1982,1994,2007,2020,2068,2095,2131,2161,2215,2239,2256,2272,2280,2272,2264,2264,2256,2256,2247,2239,2223,2215,2200,2176,2169,2154,2139,2117,2117,2103,2095,2081,2074,2074,2068,2068,2068,2068,2068,2061,2068,2068,2068,2088,0,0,2095,2117,2139,2124,2124,2131,2131,2131,2131,2131,2131,2124,2110,2117,2124,2131,2139,2161,2169,2184,2215,2247,2256,2272,2314,2341,2341,2349,2358,2358,2358,2341,2323,2289,2280,2256,2207,2184,2161,2139,2124,2110,2095,2095,2095,2095,2095,2103,2095,2103,2103,2103,2095,2088,2088,2088
2442,2442,2432,2452,2452,2452,2452,2461,2461,2452,2452,2452,2442,2442,2432,2432,2423,2413,2404,2404,2404,2404,2413,2413,2423,2442,2452,2471,2481,2511,2521,2532,2553,2553,2563,2563,2563,2553,2542,2542,2521,2521,2511,2511,2511,2511,2511,2521,2521,2532,2521,2511,2501,2491,2442,2404,2367,2323,2297,2239,2207,2192,2176,2169,2169,2169,2176,2176,2184,2192,2200,2200,2200,2192,2192,2184,2184,2184,2169,2169,2169,2161,2154,2146,2139,2139,2139,2139,2139,2139,2139,2139,2146,2146,2146,2146,2154,2154,2154,2154,2146,2146,2139,2139,2139,2124,2124,2124,2117,2117,2110,2110,2110,2110,2110,2110,2110,2110,2110,2110,2103,2103,2103,2103,2103,2103,2103,2103,2110,2110,2117,2124,2131,2146,2154,2169,2184,2192,2200,2200,2192,2192,2184,2161,2131,2095,2054,2014,1938,1897,1868,1841,1819,1793,1782,1777,1767,1757,1752,1752,1747,1742,1742,1747,1752,1752,1767,1772,1777,1777,1777,1777,1772,1767,1772,1777,1782,1798,1808,1824,1835,1868,1880,1897,1926,1932,1944,1951,1957,1957,1951,1944,1951,1944,1944,1938,1932,1926,1926,1926,1932,1932,1932,1944,1944,1944,1944,1944,1944,1938,1938,1938,1938,1932,1932,1938,1938,1938,1944,1963,1975,1988,2034,2068,2095,2124,2184,2215,2231,2247,2247,2231,2215,2207,2207,2200,2176,2169,2161,2154,2139,2117,2103,2095,2088,2068,2054,2047,2040,2027,2020,2014,2014,2014,2007,2007,2007,2007,2014,2007,2014,2007,2020,2020,0,0,0,0,0,2047,0,0,0,0,0,0,1994,1994,2001,2001,2014,2020,2088,2095,2110,2054,2146,2169,2088,2139,2169,2184,2200,2231,2231,2231,2200,2169,2154,2192,2161,2124,2103,2034,2027,2014,2020,2014,2020,2020,2027,2027,2034,2034,2034,2034,2027,2027,2027,2027
2442,2442,2442,2461,2461,2471,2461,2471,2471,2461,2452,2452,2442,2442,2432,2432,2423,2413,2404,2404,2404,2413,2413,2423,2432,2442,2461,2471,2481,2511,2521,2532,2542,2553,2563,2563,2553,2553,2542,2542,2532,2521,2521,2511,2511,2511,2511,2511,2521,2532,2521,2521,2511,2501,2452,2413,2376,2332,2306,2239,2207,2184,2169,2154,2154,2154,2161,2161,2169,2184,2184,2192,2192,2192,2184,2184,2184,2176,2176,2169,2169,2161,2146,2146,2139,2139,2139,2139,2139,2139,2139,2139,2146,2146,2146,2146,2146,2146,2154,2146,2139,2131,2131,2124,2124,2117,2110,2110,2110,2110,2110,2110,2110,2103,2103,2103,2103,2103,2103,2103,2095,2095,2095,2095,2095,2095,2095,2095,2103,2110,2110,2117,2124,2139,2154,2161,2184,2192,2200,2200,2200,2192,2192,2161,2139,2110,2061,2027,1938,1903,1874,1841,1819,1798,1788,1777,1772,1762,1757,1752,1747,1742,1742,1747,1752,1757,1767,1772,1777,1782,1777,1777,1772,1772,1772,1777,1777,1793,1798,1808,1819,1846,1863,1874,1903,1914,1920,1926,1932,1932,1932,1926,1920,1920,1914,1909,1909,1909,1903,1903,1909,1909,1909,1914,1914,1914,1914,1914,1914,1909,1909,1909,1909,1909,1909,1914,1914,1914,1920,1938,1951,1957,1982,2034,2061,2081,2131,2154,2110,2110,2110,2095,2088,2068,2061,2054,2047,2027,2020,2014,2007,1994,1988,1982,1975,1969,1963,1951,1951,1944,1932,1932,1926,1926,1932,1926,1926,1926,1926,1920,1920,1920,1920,1920,1926,1932,1938,1944,1944,1944,1944,1944,1951,1951,1957,1957,1957,1957,1957,1963,1969,1969,0,0,0,1994,0,0,0,2040,2068,2088,2103,2131,2131,2131,2117,2095,0,0,2034,2007,1994,1982,1982,1975,1975,1975,1982,1982,1994,2001,2001,2001,2007,2001,2001,1994,1994,1994
2442,2442,2452,2471,2481,2481,2481,2481,2471,2461,2452,2452,2442,2442,2442,2432,2432,2423,2413,2413,2413,2413,2432,2432,2442,2452,2461,2481,2491,2521,2532,2542,2542,2553,2553,2553,2553,2542,2532,2532,2521,2521,2511,2511,2511,2511,2511,2511,2521,2532,2532,2521,2521,2521,2481,2442,2395,2358,2323,2247,2207,2176,2161,2146,2146,2146,2146,2154,2161,2169,2184,2184,2184,2184,2184,2184,2184,2184,2169,2169,2161,2154,2139,2139,2131,2131,2124,2131,2131,2131,2131,2139,2139,2146,2146,2146,2146,2146,2139,2131,2124,2117,2110,2110,2103,2103,2103,2095,2095,2095,2095,2095,2095,2095,2095,2095,2095,2095,2095,2095,2095,2088,2088,2088,2088,2095,2095,2095,2095,2110,2110,2110,2124,2139,2154,2161,2184,2192,2200,2200,2200,2200,2192,2169,2146,2110,2068,2027,1944,1909,1874,1846,1824,1803,1793,1782,1777,1767,1762,1757,1752,1747,1747,1752,1752,1757,1767,1772,1777,1782,1777,1777,1772,1772,1772,1772,1772,1782,1788,1793,1798,1808,1824,1835,1852,1857,1868,1874,1874,1874,1874,1874,1874,1868,1868,1868,1868,1868,1863,1863,1863,1863,1863,1863,1863,1863,1863,1857,1857,1857,1857,1857,1863,1863,1863,1863,1857,1863,1868,1885,1891,1903,1926,1957,1975,1988,2020,2040,2047,2047,2040,2040,2027,2001,1994,1988,1975,1969,1957,1951,1951,1944,1938,1938,1932,1926,1920,1914,1909,1903,1903,1897,1903,1903,1897,1903,1903,1903,1897,1891,1891,1891,1885,1885,1891,1891,1897,1903,1903,1909,1909,1914,1914,1914,1914,1914,1914,1920,1920,1926,1926,1932,1932,1938,1944,1944,0,1963,0,1982,0,0,0,0,0,0,0,0,0,1982,1975,1951,1944,1944,1938,1938,1944,1944,1944,1951,1963,1963,1969,1975,1982,1975,1975,1969,1969,1969
2501,2511,2521,2542,2553,2542,2521,2511,2501,2481,2461,2452,2452,2452,2452,2452,2442,2442,2432,2432,2442,2442,2452,2452,2471,2481,2491,2501,2511,2532,2532,2542,2542,2553,2553,2542,2532,2532,2532,2521,2511,2511,2511,2511,2511,2511,2511,2521,2521,2532,2532,2532,2532,2521,2491,2452,2413,2367,2323,2239,2200,2169,2146,2131,2124,2124,2131,2131,2146,2161,2169,2169,2176,2176,2176,2176,2176,2169,2161,2161,2154,2139,2131,2124,2124,2117,2124,2124,2124,2124,2131,2131,2139,2139,2139,2139,2139,2139,2124,2117,2110,2103,2103,2095,2095,2088,2088,2088,2088,2088,2088,2088,2088,2081,2081,2081,2081,2081,2081,2081,2081,2081,2081,2088,2088,2095,2095,2095,2103,2110,2110,2117,2124,2146,2154,2169,2184,2200,2200,2207,2207,2207,2200,2176,2154,2117,2074,2034,1951,1914,1880,1852,1830,1803,1798,1788,1782,1772,1767,1762,1757,1752,1752,1752,1757,1762,1767,1772,1772,1782,1777,1772,1772,1772,1772,1767,1767,1772,1777,1777,1782,1798,1803,1814,1819,1830,1835,1841,1846,1846,1846,1846,1846,1846,1846,1846,1846,1846,1846,1846,1846,1846,1846,1846,1846,1846,1841,1841,1841,1841,1841,1841,1841,1846,1846,1846,1841,1846,1852,1852,1868,1880,1897,1920,1932,1951,1963,1988,1994,1988,1988,1982,1969,1963,1938,1932,1926,1926,1920,1914,1909,1914,1903,1903,1897,1897,1891,1885,1880,1874,1874,1874,1874,1874,1874,1874,1874,1874,1874,1874,1874,1868,1868,1868,1868,1868,1874,1874,1874,1880,1880,1880,1880,1885,1880,1885,1880,1885,1885,1897,1897,1903,1903,1903,1903,1903,1914,1926,1932,1938,1957,1969,1975,1988,0,0,1982,1963,1951,1951,1938,1914,1914,1914,1914,1914,1914,1920,1926,1932,1944,1951,1951,1957,1963,1963,1957,1957,1951,1951
2542,2553,2563,2584,2584,2553,2532,2532,2511,2481,2461,2452,2452,2452,2452,2452,2452,2452,2452,2452,2452,2461,2471,2471,2481,2501,2501,2521,2511,2532,2542,2542,2542,2553,2542,2532,2532,2521,2521,2511,2511,2511,2511,2511,2511,2521,2521,2521,2532,2542,2542,2542,2532,2532,2491,2452,2413,2376,2323,2231,2184,2146,2124,2103,2103,2103,2103,2110,2124,2139,2154,2161,2161,2161,2161,2169,2169,2161,2161,2146,2146,2131,2117,2117,2110,2110,2110,2110,2117,2117,2117,2124,2131,2131,2131,2124,2117,2103,2095,2088,2081,2068,2068,2068,2068,2061,2068,2074,2074,2074,2074,2074,2074,2061,2054,2054,2054,2054,2054,2054,2054,2061,2068,2074,2081,2088,2095,2103,2110,2117,2117,2139,2146,2169,2176,2184,2207,2207,2215,2223,2215,2215,2207,2184,2161,2131,2081,2040,1957,1920,1891,1863,1835,1819,1808,1803,1793,1782,1777,1777,1772,1767,1767,1767,1767,1767,1772,1772,1772,1772,1777,1772,1767,1767,1767,1767,1767,1772,1772,1772,1777,1782,1788,1793,1798,1803,1808,1808,1814,1819,1819,1824,1824,1824,1830,1830,1830,1830,1830,1830,1835,1835,1835,1835,1830,1830,1824,1824,1819,1824,1824,1824,1824,1824,1824,1824,1824,1830,1835,1835,1846,1857,1868,1891,1897,1909,1920,1932,1938,1938,1932,1932,1920,1914,1903,1897,1897,1891,1885,1885,1880,1880,1880,1880,1874,1874,1868,1868,1868,1863,1863,1857,1863,1857,1857,1857,1863,1863,1857,1863,1863,1863,1863,1863,1863,1868,1868,1868,1868,1868,1868,1874,1874,1868,1868,1868,1868,1868,1868,1868,1868,1874,1868,1868,1863,1868,1868,1874,1880,1880,1885,1897,1903,1903,1903,1903,1903,1897,1897,1897,1891,1885,1885,1885,1885,1885,1891,1897,1903,1909,1914,1920,1926,1932,1938,1938,1938,1932,1932,1932
2563,2584,2584,2606,2606,2574,2553,2542,2521,2491,2471,2461,2452,2461,2461,2461,2461,2461,2461,2461,2471,2471,2491,2501,2501,2521,2532,2532,2532,2542,2553,2553,2553,2553,2542,2542,2532,2532,2521,2521,2521,2521,2511,2521,2521,2532,2532,2532,2542,2553,2553,2553,2542,2532,2491,2461,2404,2358,2280,2176,2161,2088,2074,2061,2054,2047,2054,2061,2081,2095,2110,2117,2139,2139,2139,2139,2146,2146,2139,2139,2131,2124,2110,2110,2103,2103,2103,2103,2110,2110,2110,2124,2124,2124,2124,2124,2117,2103,2088,2081,2074,2061,2054,2054,2054,2061,2061,2068,2068,2074,2068,2068,2061,2047,2047,2047,2040,2040,2034,2040,2040,2047,2068,2068,2074,2088,2103,2110,2117,2131,2139,2146,2154,2176,2184,2192,2207,2223,2223,2223,2223,2223,2215,2192,2169,2131,2088,2047,1963,1926,1891,1868,1846,1824,1814,1808,1803,1788,1788,1788,1782,1772,1777,1772,1772,1772,1772,1772,1772,1772,1772,1772,1767,1767,1767,1767,1767,1767,1767,1767,1772,1777,1777,1782,1782,1788,1793,1793,1793,1798,1803,1808,1808,1814,1819,1819,1824,1824,1824,1824,1824,1824,1824,1824,1819,1819,1819,1814,1808,1814,1814,1808,1808,1808,1808,1814,1814,1814,1819,1819,1830,1835,1846,1852,1841,1846,1846,1857,1857,1863,1857,1852,1852,1852,1852,1852,1852,1852,1846,1852,1846,1846,1852,1846,1846,1846,1846,1841,1841,1841,1841,1841,1841,1846,1846,1846,1846,1846,1846,1846,1846,1846,1846,1846,1846,1852,1852,1852,1857,1857,1857,1857,1857,1863,1857,1863,1857,1863,1863,1863,1863,1863,1863,1863,1863,1857,1863,1863,1868,1863,1868,1868,1868,1868,1874,1874,1874,1874,1874,1880,1874,1874,1874,1874,1874,1874,1880,1885,1885,1897,1897,1914,1920,1920,1926,1932,1932,1932,1926,1926
2595,2606,2617,2617,2617,2584,2563,2542,2532,2491,2471,2461,2461,2461,2471,2471,2471,2471,2471,2481,2481,2491,2511,2511,2511,2532,2542,2542,2542,2553,2563,2574,2574,2574,2574,2563,2563,2563,2553,2553,2542,2542,2542,2532,2542,2542,2553,2553,2563,2574,2574,2563,2553,2542,2491,2442,2386,2323,2256,2192,2095,2061,2047,2034,2034,2034,2034,2040,2054,2074,2081,2095,2117,2124,2131,2131,2131,2131,2131,2124,2117,2117,2103,2103,2095,2088,2088,2095,2103,2103,2110,2117,2117,2124,2124,2117,2110,2103,2081,2074,2068,2061,2054,2054,2054,2054,2061,2068,2068,2068,2061,2061,2054,2040,2040,2034,2027,2027,2027,2027,2034,2040,2061,2061,2068,2095,2095,2110,2117,2131,2146,2154,2169,2184,2200,2207,2223,2231,2231,2231,2231,2223,2223,2192,2169,2131,2088,2047,1963,1926,1891,1868,1846,1824,1819,1814,1808,1798,1798,1793,1788,1788,1782,1782,1782,1782,1777,1777,1772,1772,1772,1772,1767,1762,1762,1762,1762,1762,1757,1762,1757,1757,1762,1762,1762,1767,1767,1767,1772,1777,1782,1782,1793,1803,1808,1808,1819,1819,1819,1819,1824,1824,1824,1824,1819,1819,1819,1808,1808,1808,1803,1803,1798,1798,1798,1798,1798,1798,1798,1803,1808,1808,1814,1814,1824,1824,1830,1830,1830,1830,1830,1830,1835,1835,1835,1835,1835,1835,1835,1835,1835,1835,1841,1841,1841,1841,1841,1835,1835,1835,1835,1841,1841,1841,1841,1841,1846,1846,1841,1846,1846,1846,1846,1846,1846,1846,1852,1852,1852,1852,1852,1857,1857,1852,1852,1852,1852,1852,1852,1852,1852,1852,1852,1852,1852,1852,1852,1857,1857,1863,1863,1868,1868,1868,1868,1868,1868,1868,1868,1868,1868,1863,1857,1857,1857,1857,1857,1868,1874,1885,1891,1909,1909,1914,1914,1920,1920,1920,1920,1920
2617,2628,2639,2628,2617,2584,2563,2542,2521,2491,2471,2461,2461,2471,2471,2481,2481,2481,2491,2501,2511,2511,2532,2542,2542,2563,2574,2574,2574,2584,2584,2584,2584,2584,2584,2574,2574,2574,2574,2563,2553,2553,2542,2542,2542,2542,2542,2553,2563,2574,2574,2563,2553,2532,2481,2432,2367,2289,2223,0,0,2040,2027,2020,2014,2014,2020,2020,2027,2047,2054,2074,2095,2103,2103,2110,2117,2117,2117,2110,2110,2110,2095,2088,2088,2088,2088,2095,2095,2095,2103,2117,2117,2117,2124,2117,2110,2103,2081,2074,2068,2061,2047,2054,2054,2061,2068,2068,2068,2068,2061,2054,2047,2034,2027,2020,2020,2014,2014,2020,2034,2040,2054,2061,2061,2088,2095,2110,2117,2131,2146,2161,2169,2192,2200,2207,2231,2231,2239,2239,2239,2231,2231,2200,2169,2139,2088,2047,1963,1926,1897,1868,1846,1830,1824,1819,1814,1803,1803,1803,1798,1793,1793,1788,1788,1782,1782,1782,1772,1772,1767,1767,1762,1762,1762,1762,1757,1757,1757,1757,1752,1752,1752,1752,1752,1752,1752,1757,1757,1762,1767,1777,1782,1793,1803,1808,1814,1819,1819,1819,1824,1824,1824,1824,1824,1819,1819,1808,1808,1803,1798,1793,1793,1793,1793,1793,1793,1793,1793,1793,1798,1798,1798,1803,1808,1808,1814,1814,1814,1814,1814,1814,1819,1819,1819,1819,1824,1824,1824,1824,1830,1830,1830,1835,1835,1835,1835,1835,1835,1835,1841,1841,1841,1841,1841,1846,1846,1846,1846,1846,1846,1846,1846,1846,1846,1852,1852,1852,1852,1852,1852,1852,1852,1857,1852,1852,1852,1852,1852,1852,1852,1846,1846,1846,1852,1852,1846,1852,1852,1852,1857,1863,1863,1863,1863,1863,1863,1863,1863,1863,1857,1852,1846,1846,1846,1846,1852,1863,1863,1874,1880,1897,1903,1903,1909,1914,1914,1914,1914,1909
2628,2628,2628,2628,2617,2584,2563,2542,2521,2501,2471,2461,2461,2471,2481,2481,2481,2491,2501,2511,2511,2521,2542,2542,2553,2574,2574,2595,2574,2595,2595,2595,2595,2595,2595,2595,2584,2584,2584,2574,2563,2553,2553,2542,2553,2553,2553,2553,2574,2574,2584,2563,2553,2542,2471,2413,2341,2264,2184,0,2047,2027,2014,2007,2007,2001,2007,2014,2014,2027,2040,2054,2074,2074,2081,2081,2081,2095,2095,2095,2088,2081,2081,2081,2074,2074,2074,2081,2081,2088,2095,2103,2103,2110,2110,2117,2110,2103,2088,2081,2068,2061,2054,2054,2061,2061,2074,2074,2074,2074,2068,2061,2047,2020,2020,2014,2007,2007,2007,2007,2014,2027,2047,2047,2061,2081,2088,2103,2110,2131,2146,2161,2176,2200,2215,2223,2239,2247,2247,2256,2247,2247,2239,2207,2176,2139,2088,2047,1963,1926,1897,1868,1852,1835,1830,1824,1824,1814,1814,1814,1814,1808,1808,1803,1798,1793,1788,1788,1782,1772,1767,1767,1762,1757,1757,1757,1757,1752,1752,1752,1747,1747,1747,1747,1742,1742,1742,1747,1747,1752,1757,1762,1772,1788,1793,1798,1803,1814,1819,1819,1819,1824,1824,1824,1819,1819,1819,1808,1803,1803,1798,1793,1788,1788,1788,1788,1788,1788,1788,1788,1793,1793,1793,1798,1798,1798,1798,1803,1803,1803,1803,1808,1808,1814,1814,1814,1814,1819,1819,1819,1824,1824,1824,1830,1830,1830,1830,1835,1835,1835,1835,1841,1841,1841,1841,1846,1846,1846,1846,1846,1846,1846,1846,1852,1852,1852,1852,1852,1857,1857,1852,1852,1852,1852,1852,1846,1846,1852,1852,1852,1852,1852,1852,1852,1846,1846,1852,1852,1852,1852,1857,1857,1857,1857,1857,1857,1857,1852,1852,1846,1841,1841,1830,1830,1830,1830,1830,1841,1852,1857,1863,1880,1885,1891,1891,1903,1903,1903,1903,1903
2628,2639,2628,2617,2606,2595,2553,2532,2521,2501,2471,2461,2461,2471,2471,2481,2481,2491,2501,2511,2521,2521,2542,2553,2553,2563,2574,2584,2584,2584,2584,2595,2595,2606,2595,2606,2606,2606,2606,2584,2584,2574,2563,2553,2553,2553,2553,2563,2574,2574,2584,2563,2532,2491,2452,2367,2289,2215,2124,2068,2020,2007,2001,2001,2001,2001,2001,2007,2014,2027,2040,2047,2068,2074,2074,2088,2081,2081,2081,2081,2081,2081,2081,2081,2074,2074,2081,2081,2088,2088,2095,2103,2103,2117,2117,2124,2117,2110,2095,2088,2088,2088,2074,2074,2074,2081,2095,2095,2088,2081,2074,2068,2054,2034,2027,2020,2014,2007,2014,2014,2020,2027,2047,2047,2054,2081,2088,2103,2110,2131,2146,2161,2176,2200,2215,2231,2247,2247,2256,2264,2256,2256,2247,2207,2176,2139,2095,2047,1963,1926,1897,1868,1852,1835,1830,1830,1824,1819,1819,1814,1814,1814,1814,1814,1803,1793,1793,1788,1782,1772,1767,1762,1762,1757,1752,1752,1752,1752,1752,1747,1747,1742,1742,1742,1737,1737,1737,1737,1742,1747,1752,1757,1762,1777,1782,1793,1793,1803,1808,1814,1814,1819,1819,1819,1819,1819,1819,1808,1803,1798,1793,1788,1782,1782,1782,1782,1782,1788,1788,1788,1788,1788,1793,1793,1793,1798,1798,1798,1798,1793,1798,1798,1798,1803,1803,1803,1803,1803,1803,1808,1808,1808,1814,1814,1814,1819,1819,1824,1824,1830,1830,1835,1841,1841,1841,1841,1846,1846,1846,1846,1852,1852,1852,1852,1852,1857,1857,1857,1857,1857,1857,1857,1857,1857,1852,1852,1852,1857,1857,1863,1863,1863,1863,1863,1863,1863,1863,1863,1863,1863,1868,1868,1868,1863,1857,1857,1852,1852,1846,1841,1835,1830,1824,1824,1824,1824,1824,1830,1841,1846,1852,1868,1874,1880,1885,0,0,0,0,0
2617,2606,2595,2584,2574,2563,2532,2511,2501,2491,2461,2461,2452,2461,2471,2471,2481,2491,2501,2511,2511,2521,2542,2553,2553,2553,2563,2574,2563,2574,2584,2584,2595,2606,2606,2617,2628,2617,2617,2606,2595,2574,2563,2553,2542,2542,2553,2563,2574,2574,2563,2542,2511,2471,2423,2280,0,0,2095,2047,2014,2014,2007,2007,2007,2014,2014,2020,2027,2040,2047,2061,2074,2081,2081,2088,2095,2088,2088,2088,2088,2088,2088,2088,2088,2088,2088,2088,2088,2103,2103,2103,2103,2117,2117,2124,2124,2117,2103,2095,2095,2088,2081,2088,2088,2095,2103,2103,2095,2088,2088,2074,2061,2040,2027,2027,2020,2020,2020,2020,2027,2034,2047,2047,2054,2061,2081,2095,2103,2131,2146,2154,2176,2207,2215,2223,2247,2256,2264,2264,2264,2264,2256,2215,2184,2139,2095,2047,1963,1926,1891,1868,1846,1835,1830,1830,1824,1819,1819,1819,1819,1814,1814,1814,1808,1798,1793,1793,1788,1772,1767,1762,1757,1752,1752,1752,1752,1747,1747,1742,1742,1742,1737,1737,1733,1733,1737,1737,1737,1737,1742,1747,1752,1762,1767,1772,1782,1798,1803,1803,1814,1814,1819,1819,1819,1819,1814,1808,1803,1798,1793,1788,1782,1782,1782,1782,1782,1782,1788,1788,1788,1788,1793,1793,1793,1793,1793,1793,1793,1793,1793,1793,1793,1798,1798,1798,1798,1803,1803,1803,1803,1808,1808,1808,1814,1814,1819,1819,1824,1830,1830,1835,1835,1835,1835,1841,1841,1846,1846,1852,1852,1852,1857,1857,1857,1863,1863,1863,1863,1863,1863,1857,1857,1857,1857,1852,1857,1857,1863,1863,1868,1868,1868,1868,1868,1868,1868,1868,1868,1868,1868,1863,1863,1863,1857,1857,1852,1846,1841,1835,1830,1824,1819,1814,1814,1814,1814,1824,1830,1835,1846,1863,0,0,0,0,0,0,0,0
2606,2606,2584,2574,2563,2553,2521,2501,2491,2481,2461,2452,2452,2461,2471,2471,2471,2481,2491,2501,2501,2511,2532,2542,2542,2542,2553,2553,2542,2553,2563,2574,2574,2595,2595,2606,2617,2617,2617,2595,2584,2574,2553,2542,2542,2542,2542,2553,2563,2563,2553,2521,2491,2442,2395,2314,0,0,2081,2047,2020,2020,2020,2020,2020,2020,2027,2034,2034,2047,2061,2061,2081,2088,2088,2088,2095,2095,2088,2088,2088,2088,2088,2095,2095,2095,2095,2095,2110,2110,2110,2110,2117,2124,2124,2139,2131,2131,2124,2117,2117,2103,2103,2103,2103,2110,2117,2117,2110,2103,2095,2081,2068,2047,2040,2040,2040,2040,2034,2034,2040,2040,2047,2047,2054,2061,2074,2088,2095,2124,2131,2154,2169,2200,2215,2231,2256,2256,2264,2272,2272,2272,2256,2215,2184,2139,2088,2040,1951,1914,1885,1863,1846,1830,1824,1819,1819,1814,1808,1814,1808,1808,1808,1808,1803,1798,1793,1788,1782,1772,1767,1762,1757,1752,1752,1752,1752,1747,1747,1742,1742,1742,1737,1737,1737,1733,1733,1733,1733,1737,1742,1742,1747,1757,1762,1772,1777,1793,1798,1803,1803,1814,1814,1819,1819,1814,1814,1803,1798,1798,1793,1788,1788,1793,1793,1788,1793,1793,1793,1788,1793,1793,1793,1793,1793,1793,1793,1788,1788,1788,1788,1788,1788,1793,1793,1798,1803,1803,1803,1803,1808,1808,1808,1814,1814,1814,1819,1819,1824,1824,1824,1835,1835,1835,1835,1841,1841,1841,1846,1852,1852,1857,1857,1863,1863,1863,1863,1868,1868,1868,1868,1863,1863,1857,1857,1857,1857,1863,1868,1874,1874,1874,1880,1880,1874,1874,1874,1874,1880,1874,1874,1868,1868,1863,1857,1852,1852,1841,1835,1824,1819,1814,1808,1803,1803,1803,1803,1814,1819,1830,1841,0,0,0,0,0,0,0,0,0
2606,2595,2574,2563,2553,2542,2511,2501,2481,2471,2461,2452,2452,2452,2461,2471,2471,2471,2491,2491,2501,2511,2521,2521,2521,2521,2532,2532,2521,2532,2542,2553,2563,2574,2584,2595,2606,2606,2606,2595,2574,2563,2553,2532,2532,2532,2532,2542,2553,2553,2553,2511,2471,2423,2367,2289,2161,2110,2074,2047,2027,2027,2027,2027,2027,2034,2040,2047,2047,2054,2068,2068,2081,2088,2095,2095,2095,2095,2095,2095,2095,2095,2095,2103,2103,2103,2110,2117,2110,2117,2110,2110,2117,2117,2117,2124,2124,2124,2124,2124,2124,2124,2117,2124,2124,2131,2146,2139,2131,2117,2110,2103,2088,2061,2068,2068,2095,2088,2081,2081,2074,2068,2061,2068,2061,2068,2081,2088,2095,2124,2139,2154,2169,2207,2223,2231,2264,2272,2280,2289,2289,2289,2280,2223,2184,2139,2088,2034,1944,1909,1880,1857,1841,1824,1819,1819,1814,1808,1808,1803,1803,1803,1803,1803,1803,1803,1798,1788,1782,1772,1767,1767,1757,1752,1752,1752,1752,1747,1747,1742,1742,1742,1737,1733,1733,1733,1733,1733,1733,1737,1737,1742,1742,1752,1762,1767,1772,1782,1793,1798,1803,1808,1814,1814,1814,1814,1808,1803,1803,1798,1798,1793,1793,1793,1798,1798,1798,1798,1798,1793,1793,1788,1788,1788,1788,1788,1788,1788,1782,1782,1782,1782,1782,1788,1793,1798,1803,1803,1803,1808,1808,1808,1808,1814,1814,1814,1814,1819,1819,1824,1824,1830,1830,1830,1835,1835,1841,1841,1846,1852,1852,1857,1857,1863,1863,1863,1868,1868,1868,1868,1868,1863,1863,1863,1857,1857,1863,1868,1874,1880,1880,1880,1885,1885,1885,1880,1880,1880,1880,1880,1874,1868,1868,1868,1857,1852,1846,1841,1830,1824,1814,1808,1798,1798,1798,1793,1798,1803,1814,1819,0,0,0,0,0,0,0,0,0,0
2595,2584,2574,2553,2542,2521,2501,2491,2471,2471,2452,2452,2442,2452,2452,2461,2461,2461,2471,2481,2481,2491,2491,2491,2491,2481,2481,2481,2481,2481,2501,2511,2521,2532,2553,2563,2574,2574,2574,2563,2553,2553,2532,2521,2521,2521,2532,2532,2532,2532,2521,2481,2432,2376,2314,2247,2139,2103,2081,2047,2034,2040,2040,2040,2054,2054,2061,2061,2061,2068,2074,2081,2088,2095,2103,2110,2110,2110,2117,2110,2124,2124,2131,2131,2131,2139,2139,2131,2131,2124,2117,2117,2110,2110,2110,2117,2117,2124,2124,2131,2131,2139,2146,2146,2146,2154,2161,2161,2154,2146,2146,2146,2131,2124,2124,2131,2124,2117,2110,2103,2095,2081,2074,2074,2074,2081,2088,2095,2110,2131,2146,2161,2176,2207,2223,2239,2272,2280,2297,2297,2306,2297,2280,2231,2192,2139,2081,2034,1944,1903,1874,1852,1835,1824,1819,1814,1808,1803,1798,1798,1798,1798,1803,1803,1803,1803,1793,1793,1788,1777,1772,1767,1762,1752,1752,1752,1752,1747,1747,1742,1742,1742,1737,1733,1733,1733,1733,1733,1733,1733,1737,1742,1742,1752,1757,1762,1767,1777,1782,1793,1793,1803,1803,1803,1808,1808,1803,1803,1798,1798,1798,1793,1793,1798,1798,1803,1803,1803,1803,1793,1793,1793,1793,1788,1788,1793,1788,1782,1777,1777,1777,1777,1782,1788,1793,1798,1803,1808,1808,1808,1808,1814,1814,1814,1814,1814,1814,1814,1819,1819,1819,1824,1830,1830,1830,1835,1841,1841,1846,1846,1852,1852,1857,1857,1863,1863,1868,1868,1874,1874,1868,1868,1868,1868,1868,1868,1874,1880,1891,1903,1903,1909,1909,1909,1903,1897,1891,1891,1891,1885,1885,1874,1874,1868,1857,1852,1846,1841,1830,1824,1814,1808,1798,1793,1793,1788,1793,1798,1808,0,0,0,0,0,0,0,0,0,0,0
2584,2574,2542,2532,2521,2501,2481,2471,2461,2452,2452,2452,2442,2452,2452,2461,2461,2461,2471,2471,2471,2481,2481,2471,2471,2461,2461,2471,2461,2471,2471,2491,2491,2521,2532,2542,2553,2563,2563,2553,2542,2532,2532,2521,2532,2532,2532,2532,2532,2521,2511,2461,2423,2358,2297,2239,2146,2117,2095,2074,2047,2054,2054,2054,2061,2061,2061,2061,2068,2074,2081,2088,2095,2103,2110,2110,2124,2131,2131,2131,2139,2139,2146,2146,2154,2154,2154,2154,2146,2139,2131,2124,2124,2110,2110,2117,2117,2117,2131,2131,2139,2146,2146,2154,2154,2161,2161,2161,2154,2146,2146,2146,2139,2139,2146,2146,2146,2139,2131,2124,2117,2103,2095,2088,2095,2103,2103,2110,2117,2139,2154,2169,2184,2215,2239,2256,2280,2297,2306,2314,2314,2314,2297,2239,2192,2139,2081,2027,1932,1897,1868,1846,1830,1819,1814,1808,1808,1798,1798,1793,1793,1793,1798,1798,1803,1803,1798,1798,1793,1782,1777,1772,1767,1757,1757,1752,1752,1747,1747,1742,1742,1737,1737,1733,1733,1733,1733,1733,1728,1733,1733,1737,1737,1742,1752,1752,1757,1767,1777,1777,1782,1782,1788,1793,1793,1793,1798,1798,1803,1798,1798,1793,1798,1798,1808,1814,1814,1814,1814,1803,1798,1798,1798,1793,1793,1798,1793,1793,1788,1788,1788,1788,1798,1798,1803,1803,1808,1808,1808,1808,1814,1814,1814,1814,1819,1814,1814,1819,1819,1824,1824,1824,1830,1830,1830,1835,1841,1841,1846,1846,1852,1852,1852,1857,1857,1863,1863,1868,1868,1868,1868,1868,1868,1868,1868,1874,1880,1885,1897,1909,1909,1909,1914,1914,1909,1903,1897,1897,1891,1891,1885,1880,1880,1874,1857,1852,1846,1846,1830,1819,1808,1803,1793,1793,1788,1788,1782,1788,0,0,0,0,0,0,0,0,0,0,0,0
2574,2563,2532,2521,2511,2491,2471,2461,2461,2452,2452,2452,2442,2452,2452,2461,2461,2461,2461,2471,2471,2461,2461,2452,2452,2442,2442,2442,2442,2452,2461,2461,2481,2491,2501,2521,2532,2532,2532,2532,2532,2532,2532,2521,2532,2532,2542,2532,2532,2521,2501,2452,2404,2349,2297,2231,2146,2124,2110,2081,2054,2054,2054,2061,2061,2061,2061,2061,2061,2068,2074,2088,2103,2110,2110,2117,2131,2139,2139,2139,2146,2154,2161,2161,2161,2169,2176,2169,2161,2154,2139,2139,2131,2124,2117,2117,2117,2124,2124,2139,2146,2146,2154,2154,2154,2154,2154,2146,2146,2131,2139,2139,2146,2146,2154,2161,2169,2161,2154,2146,2131,2124,2117,2110,2110,2117,2124,2124,2139,2154,2169,2176,2200,2223,2239,2264,2289,2297,2314,2323,2323,2314,2306,2239,2192,2131,2074,2020,1926,1885,1857,1835,1824,1808,1803,1798,1798,1788,1788,1782,1788,1788,1798,1798,1803,1808,1808,1803,1798,1788,1782,1777,1772,1762,1762,1762,1757,1752,1747,1742,1742,1737,1733,1733,1733,1733,1728,1728,1728,1728,1733,1733,1733,1737,1747,1752,1752,1762,1767,1772,1772,1772,1777,1777,1777,1782,1788,1788,1798,1798,1803,1803,1808,1814,1819,1819,1824,1824,1819,1808,1803,1798,1798,1793,1798,1798,1798,1798,1793,1793,1793,1798,1798,1803,1803,1808,1814,1814,1814,1814,1814,1814,1814,1814,1814,1814,1814,1819,1819,1824,1824,1830,1830,1830,1835,1835,1835,1841,1841,1846,1846,1852,1852,1852,1857,1857,1857,1863,1863,1868,1868,1868,1868,1874,1874,1880,1885,1891,1903,1909,1914,1914,1914,1914,1909,1903,1897,1897,1897,1891,1885,1880,1880,1874,1857,1852,1846,1841,1824,1814,1808,1798,1788,1788,1782,1777,1777,1777,0,0,0,0,0,0,0,0,0,0,0,0
2553,2542,2521,2501,2491,2481,2452,2452,2452,2452,2442,2452,2452,2452,2452,2461,2461,2461,2461,2461,2461,2452,2452,2452,2442,2432,2432,2442,2442,2442,2452,2461,2471,2491,2501,2501,2511,2521,2521,2521,2521,2521,2521,2521,2532,2542,2542,2542,2532,2521,2501,2452,2404,2358,2314,2247,2169,2139,2117,2088,2054,2061,2061,2061,2054,2054,2054,2061,2061,2068,2074,2081,2103,2110,2110,2124,2139,2146,2146,2154,2161,2169,2169,2176,2176,2184,2184,2184,2176,2169,2146,2139,2131,2124,2110,2117,2117,2117,2117,2124,2131,2139,2139,2139,2139,2139,2139,2139,2139,2131,2131,2139,2139,2146,2169,2176,2176,2176,2176,2176,2161,2161,2154,2154,2154,2154,2161,2161,2169,2184,2192,2207,2223,2247,2264,2280,2306,2323,2332,2341,2341,2341,2323,2247,2192,2131,2074,2014,1920,1880,1852,1830,1819,1803,1798,1798,1793,1788,1782,1782,1788,1788,1798,1803,1808,1808,1808,1808,1803,1793,1788,1782,1772,1767,1762,1762,1762,1752,1747,1742,1742,1737,1733,1733,1733,1728,1728,1728,1728,1728,1733,1733,1733,1737,1742,1747,1752,1757,1762,1767,1767,1767,1767,1767,1772,1772,1777,1777,1782,1793,1798,1803,1808,1814,1824,1824,1830,1830,1824,1808,1803,1798,1798,1793,1798,1798,1798,1798,1798,1798,1798,1798,1803,1808,1808,1814,1819,1819,1814,1814,1814,1814,1814,1814,1814,1814,1814,1814,1819,1824,1830,1830,1835,1835,1835,1835,1841,1841,1841,1846,1846,1846,1846,1846,1846,1846,1852,1857,1857,1857,1863,1863,1868,1874,1874,1885,1891,1897,1909,1914,1914,1914,1909,1903,1903,1897,1891,1885,1885,1880,1874,1868,1868,1863,1852,1852,1841,1835,1819,1814,1803,1793,1793,1782,1777,1772,1772,0,0,0,0,0,0,0,0,0,0,0,0,0
2511,2511,2491,2471,2461,2452,2442,2442,2432,2442,2442,2452,2452,2452,2461,2461,2461,2461,2461,2461,2452,2442,2432,2432,2423,2423,2423,2432,2432,2432,2442,2452,2461,2481,2481,2491,2491,2501,2511,2511,2511,2511,2521,2521,2542,2553,2553,2553,2542,2521,2501,2452,2413,2367,2323,2272,2200,0,2154,2110,2074,2068,2068,2061,2061,2061,2061,2061,2061,2068,2074,2081,2110,2117,2131,2139,2161,2169,2169,2169,2176,2184,2184,2192,2192,2192,2192,2192,2184,2176,2161,2154,2139,2131,2110,2110,2110,2117,2117,2124,2131,2131,2131,2139,2131,2131,2139,2131,2131,2124,2131,2139,2146,2154,2169,2176,2184,2192,2192,2184,2184,2176,2176,2169,2169,2176,2176,2184,2192,2207,2215,2223,2231,2264,2272,2289,2314,2323,2332,2349,2349,2341,2323,2256,2192,2139,2074,2014,1963,1880,1852,1824,1814,1803,1798,1793,1793,1782,1782,1782,1782,1788,1798,1803,1803,1808,1808,1808,1803,1793,1788,1782,1777,1767,1762,1762,1762,1752,1747,1742,1742,1737,1733,1733,1733,1728,1728,1728,1728,1728,1728,1728,1728,1737,1742,1747,1747,1752,1757,1762,1762,1762,1762,1762,1762,1762,1767,1767,1762,1772,1777,1782,1803,1808,1819,1824,1830,1830,1830,1814,1803,1803,1798,1798,1798,1803,1803,1803,1803,1803,1803,1808,1808,1808,1814,1819,1819,1819,1814,1808,1808,1808,1808,1803,1808,1808,1808,1808,1819,1824,1830,1835,1841,1841,1841,1841,1841,1841,1841,1841,1841,1841,1841,1841,1841,1841,1846,1846,1852,1852,1852,1863,1868,1874,1880,1897,1909,1914,1914,1914,1914,1914,1909,1903,1897,1897,1880,1880,1880,1868,1868,1868,1863,1863,1852,1846,1846,1841,1824,1819,1814,1803,1798,1788,1772,1772,0,0,0,0,0,0,0,0,0,0,0,0,0,0
2491,2491,2471,2461,2442,2442,2432,2432,2432,2442,2442,2452,2461,2461,2461,2471,2471,2471,2471,2461,2452,2432,2432,2423,2423,2423,2432,2432,2442,2452,2461,2461,2471,2481,2481,2491,2491,2501,2501,2501,2501,2511,2521,2532,2553,2563,2563,2563,2553,2532,2511,2461,2423,2386,2341,2289,2223,0,2169,2131,2081,2074,2074,2068,2061,2061,2061,2061,2061,2068,2074,2088,2117,2131,2146,2154,2176,2184,2192,2192,2200,2200,2200,2200,2200,2200,2200,2200,2184,2184,2169,2161,2146,2139,2124,2124,2117,2117,2124,2124,2131,2131,2139,2139,2131,2131,2124,2124,2124,2124,2131,2139,2146,2154,2169,2176,2184,2192,2200,2200,2192,2192,2192,2192,2192,2192,2192,2200,2200,2207,2215,2223,2239,2264,2272,2289,2314,2332,2341,2349,2358,2349,2332,2256,2200,2131,2074,2014,1963,1874,1846,1824,1814,1803,1798,1793,1788,1782,1782,1782,1788,1788,1798,1803,1808,1808,1814,1808,1803,1793,1788,1782,1777,1767,1762,1762,1762,1752,1752,1747,1742,1737,1733,1733,1733,1728,1728,1728,1723,1723,1728,1728,1728,1733,1737,1742,1747,1747,1752,1752,1752,1752,1752,1747,1747,1747,1747,1752,1752,1762,1767,1772,1777,1793,1808,1814,1824,1824,1824,1819,1814,1808,1808,1808,1814,1814,1819,1819,1819,1819,1819,1819,1814,1814,1819,1819,1819,1814,1808,1808,1808,1803,1803,1798,1798,1803,1808,1808,1819,1830,1841,1846,1852,1846,1852,1846,1846,1846,1841,1841,1841,1841,1835,1841,1841,1835,1841,1841,1841,1846,1846,1857,1868,1874,1880,1897,1903,1909,1909,1909,1909,1909,1897,1897,1891,1885,1880,1880,1868,1868,1868,1863,1863,1857,1852,1852,1846,1846,1835,1830,1824,1814,1808,1798,0,0,0,0,0,0,0,0,0,0,0,0,0,0,0,0
2471,2471,2461,2442,2432,2432,2432,2432,2432,2442,2452,2461,2461,2471,2471,2471,2471,2471,2471,2461,2452,2432,2432,2423,2423,2423,2432,2442,2452,2461,2461,2471,2481,2481,2491,2491,2491,2491,2491,2501,2501,2511,2511,2532,2553,2563,2563,2563,2553,2542,2521,2471,2432,2404,2367,2289,2256,2223,2192,2154,2095,2081,2074,2074,2068,2061,2068,2068,2068,2074,2081,2095,2124,2139,2154,2169,2192,2207,2207,2215,2215,2215,2215,2215,2215,2215,2207,2200,2192,2192,2176,2169,2161,2146,2139,2131,2131,2131,2131,2131,2139,2139,2139,2139,2139,2131,2131,2131,2131,2124,2131,2139,2146,2154,2169,2176,2184,2200,2200,2207,2207,2207,2207,2207,2200,2200,2207,2200,2207,2215,2215,2223,2231,2264,2272,2289,2314,2323,2341,2349,2358,2349,2323,2264,2200,2139,2068,2007,1957,1868,1841,1819,1808,1798,1793,1793,1793,1788,1788,1782,1788,1793,1798,1798,1803,1808,1808,1803,1803,1788,1782,1777,1772,1767,1762,1762,1762,1752,1752,1747,1742,1737,1737,1733,1733,1728,1728,1728,1723,1723,1728,1728,1728,1733,1733,1737,1742,1747,1747,1752,1747,1747,1747,1742,1747,1742,1742,1742,1742,1752,1757,1757,1767,1788,1798,1808,1819,1824,1824,1819,1814,1808,1814,1814,1819,1819,1824,1824,1830,1824,1830,1830,1824,1824,1819,1819,1814,1814,1808,1803,1798,1798,1793,1788,1793,1798,1803,1803,1819,1830,1841,1852,1852,1857,1852,1852,1846,1846,1841,1841,1841,1841,1835,1835,1835,1835,1835,1835,1835,1841,1846,1857,1863,1868,1880,1891,1897,1903,1903,1903,1897,1891,1880,1874,1874,0,0,0,0,0,0,1863,1863,1857,1852,1852,1846,1841,1835,1830,1824,1814,1808,1803,0,0,0,0,0,0,0,0,0,0,0,0,0,0,0,0
2461,2461,2452,2432,2432,2432,2432,2432,2432,2442,2452,2461,2471,2471,2471,2481,2481,2481,2471,2461,2452,2432,2432,2432,2432,2432,2442,2452,2461,2471,2481,2481,2491,2491,2491,2491,2491,2491,2491,2491,2491,2501,2511,2511,2542,2553,2563,2553,2542,2542,2521,2481,2452,2423,2395,2314,2289,2256,2215,2176,2110,2103,2088,2081,2074,2068,2074,2074,2081,2081,2095,2103,2139,2146,2169,2184,2207,2215,2223,2223,2223,2223,2223,2223,2215,2215,2215,2207,2207,2200,2192,2184,2176,2169,2154,2146,2139,2139,2139,2146,2154,2146,2146,2146,2146,2146,2146,2146,2146,2146,2146,2154,2154,2154,2169,2176,2184,2192,2207,2215,2215,2215,2215,2215,2207,2207,2207,2207,2207,2207,2215,2223,2231,2256,2272,2280,2306,2314,2332,2341,2341,2332,2323,2256,2200,2131,2068,2007,1951,1863,1835,1819,1808,1798,1793,1793,1788,1788,1788,1788,1788,1793,1798,1803,1803,1803,1803,1803,1798,1788,1782,1777,1772,1762,1762,1762,1757,1752,1752,1747,1747,1742,1737,1737,1737,1728,1728,1728,1723,1728,1728,1728,1728,1733,1737,1742,1742,1747,1752,1752,1752,1747,1747,1747,1747,1742,1747,1747,1747,1752,1757,1762,1767,1782,1798,1803,1814,1814,1819,1814,1808,1808,1808,1808,1814,1814,1814,1819,1824,1824,1830,1830,1830,1824,1824,1819,1819,1814,1808,1798,1798,1798,1793,1788,1788,1793,1798,1803,1819,1830,1841,1857,1857,1857,1857,1852,1846,1846,1841,1841,1835,1835,1830,1830,1830,1830,1830,1830,1835,1835,1835,1846,1852,1863,1868,1880,1880,1880,1874,1868,1863,1857,1846,1846,1846,1852,1852,1857,1863,1857,1857,1863,1857,1857,1852,1846,1846,1841,1830,1830,1824,1819,1814,0,0,0,0,0,0,0,0,0,0,0,0,0,0,0,0,0
2452,2452,2452,2442,2432,2432,2432,2442,2442,2442,2452,2461,2471,2471,2471,2481,2491,2481,2471,2471,2452,2442,2432,2432,2432,2442,2461,2471,2481,2481,2491,2501,2501,2501,2501,2501,2491,2481,2481,2471,2471,2491,2491,2511,2532,2542,2553,2563,2553,2553,2532,2501,2481,2452,2432,2367,2341,2306,2272,2231,2161,2146,2131,2124,2110,2117,2117,2117,2110,2124,2131,2139,2169,2184,2192,2207,2223,2223,2223,2231,2231,2231,2223,2223,2223,2215,2215,2207,2207,2200,2200,2200,2192,2184,2169,2161,2154,2154,2146,2146,2154,2154,2154,2154,2154,2146,2146,2146,2146,2146,2154,2154,2154,2169,2176,2176,2184,2192,2207,2215,2215,2215,2215,2215,2200,2200,2200,2200,2192,2200,2207,2215,2223,2239,2256,2272,2297,2306,2314,2323,2332,2323,2314,2256,2200,2131,2061,2001,1944,1863,1835,1814,1808,1798,1793,1793,1788,1788,1788,1788,1793,1793,1798,1798,1803,1803,1798,1798,1793,1782,1777,1772,1767,1762,1762,1762,1757,1752,1752,1752,1747,1742,1742,1737,1737,1733,1733,1728,1728,1728,1728,1728,1728,1733,1737,1742,1747,1747,1757,1757,1752,1752,1747,1747,1747,1742,1742,1742,1742,1752,1757,1762,1767,1777,1788,1793,1803,1803,1803,1798,1798,1798,1798,1803,1803,1803,1803,1808,1814,1814,1814,1819,1824,1824,1819,1819,1819,1819,1808,1803,1803,1803,1793,1788,1782,1793,1793,1798,1814,1830,1846,1857,1857,1857,1857,1852,1852,1846,1841,1841,1841,1835,1835,1830,1830,1830,1830,1830,1830,1835,1835,1846,1852,1857,1863,1868,1874,1874,1868,1863,1857,1852,1841,1846,1846,1852,1852,1863,1868,1863,1863,1868,1868,1857,1852,1846,1846,1841,1830,1830,1824,0,0,0,0,0,0,0,0,0,0,0,0,0,0,0,0,0,0,0
2452,2461,2461,2452,2452,2452,2452,2452,2452,2452,2452,2471,2471,2471,2481,2491,2491,2491,2481,2471,2461,2452,2452,2452,2461,2461,2481,2491,2501,2511,2521,2521,2521,2521,2511,2501,2491,2481,2471,2461,2461,2471,2481,2491,2521,2532,2553,2553,2553,2553,2542,2511,2491,2471,2442,2386,2367,2332,2297,2264,2200,2176,2169,2161,2146,2146,2139,2146,2146,2146,2161,2169,2192,2207,2215,2223,2231,2239,2239,2239,2231,2231,2223,2223,2223,2215,2215,2215,2207,2207,2200,2192,2192,2184,2169,2161,2161,2154,2146,2146,2146,2154,2154,2161,2161,2161,2161,2161,2161,2161,2169,2169,2169,2176,2184,2184,2192,2200,2207,2207,2207,2200,2200,2200,2192,2192,2192,2184,2184,2200,2200,2200,2207,2231,2247,2264,2289,2297,2306,2314,2323,2314,2306,2247,2200,2131,2061,2001,1938,1857,1830,1814,1803,1788,1788,1788,1788,1782,1782,1788,1788,1788,1793,1793,1793,1793,1793,1788,1782,1777,1772,1767,1767,1762,1762,1762,1757,1757,1752,1752,1752,1747,1747,1742,1742,1737,1737,1733,1733,1733,1733,1733,1733,1737,1742,1747,1747,1747,1752,1752,1752,1752,1747,1747,1742,1742,1742,1742,1742,1747,1747,1747,1757,1772,1782,1782,1798,1798,1798,1793,1793,1798,1798,1798,1803,1803,1803,1803,1808,1814,1814,1814,1819,1819,1824,1824,1824,1819,1819,1814,1814,1814,1798,1793,1793,1793,1798,1798,1814,1824,1841,1846,1857,1857,1852,1852,1846,1846,1846,1841,1841,1841,1835,1835,1830,1830,1824,1830,1830,1830,1835,1841,1846,1852,1852,1863,1863,1863,1857,1857,1857,1846,1841,1841,1846,1857,1857,1868,1880,1880,1885,1880,1880,1874,1863,1857,1852,1852,1841,1830,0,0,0,0,0,0,0,0,0,0,0,0,0,0,0,0,0,0,0,0
2461,2471,2471,2471,2471,2471,2461,2461,2452,2452,2461,2471,2471,2481,2481,2491,2491,2491,2491,2471,2471,2461,2461,2461,2461,2471,2491,2501,2511,2511,2532,2532,2532,2521,2511,2501,2481,2471,2452,2452,2442,2452,2461,2471,2491,2521,2532,2542,2542,2542,2542,2521,2501,2471,2452,2404,2386,2358,2323,2264,2239,2215,2215,2192,2192,2184,2184,2184,2184,2192,2192,2200,2223,2223,2239,2239,2247,2247,2247,2239,2239,2231,2231,2231,2231,2223,2223,2223,2223,2215,2207,2200,2200,2192,2176,2169,2161,2161,2154,2154,2161,2161,2169,2169,2169,2169,2176,2176,2176,2176,2184,2184,2192,2192,2192,2200,2200,2200,2207,2207,2200,2184,2184,2176,2169,2161,2161,2154,2161,2169,2169,2176,2176,2207,2223,2231,2264,2272,2289,2297,2306,2306,2297,2247,2215,2154,2074,2007,0,1857,1830,1808,1803,1788,1782,1782,1782,1777,1782,1782,1782,1782,1788,1788,1788,1788,1788,1782,1782,1777,1772,1767,1767,1762,1762,1762,1762,1762,1762,1762,1762,1762,1757,1757,1757,1757,1752,1752,1752,1752,1752,1752,1747,1747,1747,1747,1747,1747,1747,1742,1742,1742,1742,1737,1737,1737,1737,1742,1742,1742,1747,1747,1752,1762,1772,1782,1782,1788,1793,1793,1793,1793,1798,1798,1803,1803,1803,1803,1803,1803,1808,1814,1819,1819,1824,1824,1830,1830,1819,1819,1819,1819,1814,1803,1798,1803,1803,1803,1814,1824,1841,1852,1852,1852,1852,1852,1852,1846,1846,1846,1846,1846,1841,1841,1841,1835,1830,1830,1830,1835,1835,1841,1846,1846,1852,1852,1857,1857,1852,1852,1852,1846,1846,1846,1852,1857,1868,1874,1885,1885,1891,1891,1891,1880,1874,1863,1857,1857,1846,0,0,0,0,0,0,0,0,0,0,0,0,0,0,0,0,0,0,0,0,0
2471,2481,2491,2491,2481,2481,2471,2471,2461,2461,2461,2471,2471,2481,2491,2501,2501,2491,2491,2481,2471,2461,2471,2471,2471,2471,2491,2511,2511,2532,2532,2542,2542,2532,2521,2511,2481,2461,2452,2432,2432,2432,2442,2452,2461,2501,2511,2521,2532,2532,2532,2521,2501,2481,2461,2423,2404,2376,2349,2297,2272,2256,2239,2231,2223,2215,2215,2215,2215,2215,2223,2231,2247,2247,2256,2256,2256,2256,2247,2247,2239,2239,2239,2239,2239,2239,2231,2231,2223,2231,2223,2215,2215,2207,2184,2184,2176,2169,2161,2169,2169,2176,2184,2192,2192,2200,2200,2207,2207,2215,2215,2215,2215,2215,2215,2215,2215,2207,2207,2207,2192,2176,2169,2161,2146,2131,2131,2124,2124,2124,2124,2139,2146,2184,2200,2223,2239,2272,2289,2297,2323,2323,2323,2280,2256,2169,2095,2014,0,1852,1824,1808,1798,1782,1782,1777,1777,1777,1777,1777,1777,1777,1782,1782,1782,1782,1782,1777,1777,1772,1772,1767,1767,1762,1762,1762,1762,1762,1762,1762,1767,1767,1767,1767,1762,1757,1757,1757,1757,1757,1757,1757,1752,1752,1747,1747,1742,1737,1737,1737,1733,1733,1733,1728,1733,1733,1733,1737,1737,1737,1742,1747,1752,1762,1767,1772,1777,1788,1788,1788,1793,1793,1793,1793,1798,1798,1793,1793,1798,1798,1803,1808,1814,1819,1824,1824,1835,1835,1830,1824,1830,1824,1819,1808,1808,1808,1808,1803,1814,1824,1835,1846,1846,1846,1846,1852,1846,1846,1846,1846,1846,1846,1846,1846,1841,1841,1835,1835,1835,1835,1835,1835,1835,1841,1841,1841,1841,1841,1841,1841,1846,1846,1846,1852,1857,1863,1868,1880,1885,1885,1891,1891,1891,1880,1874,1868,1863,1857,1846,0,0,0,0,0,0,0,0,0,0,0,0,0,0,0,0,0,0,0,0,0
2491,2491,2501,2501,2491,2491,2481,2471,2471,2471,2471,2471,2471,2481,2491,2501,2501,2501,2491,2491,2481,2481,2471,2471,2481,2481,2501,2511,2521,2521,2542,2542,2542,2532,2532,2511,2481,2461,2442,2432,2432,2432,2442,2452,2461,2491,2501,2511,2521,2521,2532,2521,2501,2481,2471,2432,2413,2386,2349,2323,2306,2289,2280,2280,2272,2272,2272,2272,2272,2272,2272,2264,2272,2280,2280,2289,2272,2272,2264,2264,2256,2256,2256,2264,2264,2256,2247,2247,2247,2239,2223,2223,2215,2207,2192,2184,2176,2169,2161,2169,2176,2184,2192,2200,2207,2207,2215,2223,2223,2223,2231,2231,2231,2223,2223,2223,2215,2207,2207,2200,2184,2169,2161,2146,2131,2110,2103,2095,2103,2095,2110,2117,2124,2154,2184,2200,2223,2272,2289,2314,2332,2341,2332,2297,2280,2192,2110,2020,0,1852,1824,1803,1798,1777,1777,1772,1772,1772,1772,1772,1772,1772,1777,1777,1777,1777,1777,1777,1777,1772,1772,1772,1767,1767,1767,1767,1767,1767,1772,1767,1767,1772,1772,1772,1767,1767,1767,1767,1762,1762,1762,1757,1757,1752,1752,1742,1733,1723,1718,1713,1709,1709,1713,1713,1713,1723,1728,1728,1733,1733,1737,1742,1742,1757,1757,1762,1767,1767,1767,1772,1772,1772,1772,1772,1772,1777,1777,1782,1782,1788,1793,1798,1808,1819,1824,1830,1835,1835,1835,1830,1830,1835,1824,1814,1814,1814,1814,1808,1814,1819,1830,1835,1841,1841,1846,1846,1846,1846,1846,1852,1852,1852,1857,1857,1852,1852,1846,1846,1846,1841,1835,1830,1835,1835,1835,1835,1841,1841,1841,1846,1846,1852,1852,1863,1868,1874,1880,1885,1891,1885,1885,1885,1885,1880,1874,1868,1863,1863,1863,0,0,0,0,0,0,0,0,0,0,0,0,0,0,0,0,0,0,0,0,0
2511,2511,2521,2511,2511,2501,2491,2481,2471,2471,2461,2471,2471,2481,2491,2501,2501,2501,2501,2491,2491,2481,2481,2491,2491,2491,2501,2511,2521,2521,2542,2542,2542,2542,2532,2511,2481,2471,2452,2442,2432,2432,2432,2442,2452,2481,2491,2501,2511,2511,2521,2511,2491,2481,2461,2442,2413,2386,2358,2332,2323,2306,2297,2306,2314,2306,2306,2306,2297,2289,2289,2272,2280,2289,2289,2289,2280,2280,2272,2272,2272,2272,2272,2272,2272,2272,2264,2256,2256,2247,2231,2223,2223,2215,2200,2184,2176,2169,2169,2169,2176,2184,2200,2200,2215,2215,2223,2231,2231,2239,2239,2239,2239,2239,2239,2247,2231,2231,2223,2215,2192,2176,2161,2139,2124,2095,2088,2088,2095,2095,2103,2110,2124,2154,2176,2192,2215,2264,2297,2306,2341,2341,2341,2314,2306,2231,2139,2054,2001,1868,1830,1798,1793,1777,1767,1767,1767,1762,1762,1762,1762,1762,1767,1767,1767,1772,1772,1772,1772,1772,1772,1772,1772,1772,1772,1772,1772,1772,1772,1772,1777,1777,1777,1777,1777,1772,1772,1772,1767,1767,1767,1762,1757,1752,1747,1742,1733,1723,1713,1709,1709,1713,1713,1713,1713,1723,1728,1733,1733,1737,1742,1742,1747,1752,1757,1762,1762,1767,1767,1767,1767,1767,1767,1772,1767,1772,1772,1772,1782,1782,1793,1798,1808,1819,1830,1824,1835,1835,1841,1835,1835,1835,1835,1819,1814,1814,1814,1808,1803,1808,1819,1824,1830,1830,1830,1835,1841,1841,1841,1846,1852,1852,1852,1857,1852,1852,1841,1841,1835,1830,1830,1824,1824,1830,1830,1830,1835,1841,1841,1852,1857,1857,1863,1874,1874,1880,1885,1885,1891,1885,1885,1885,1880,1880,1874,1868,1863,1868,1863,0,0,0,0,0,0,0,0,0,0,0,0,0,0,0,0,0,0,0,0,0
2532,2532,2532,2521,2511,2511,2491,2481,2471,2471,2461,2471,2471,2481,2491,2501,2501,2501,2501,2491,2491,2491,2491,2491,2491,2491,2501,2511,2511,2521,2542,2542,2542,2542,2532,2521,2491,2471,2461,2452,2432,2432,2432,2442,2452,2471,2481,2501,2501,2501,2511,2501,2481,2471,2452,2423,2404,2376,2349,2332,2323,2314,2306,2314,2332,2323,2323,2314,2314,2306,2297,2280,2289,2289,2289,2289,2289,2289,2280,2280,2280,2280,2280,2289,2289,2280,2264,2264,2256,2247,2239,2231,2223,2223,2200,2192,2184,2176,2176,2176,2184,2192,2207,2207,2215,2223,2231,2239,2239,2247,2247,2256,2256,2256,2264,2256,2256,2247,2239,2231,2215,2192,2169,2161,2139,2117,2110,2110,2103,2110,2110,2117,2131,2169,2184,2207,2223,2297,2314,2341,2367,2376,2386,2367,2358,2297,2223,2117,0,1885,1835,1798,1788,1782,1767,1767,1762,1762,1757,1762,1757,1757,1762,1767,1767,1767,1767,1767,1772,1772,1772,1772,1772,1777,1777,1777,1777,1777,1782,1782,1782,1788,1788,1793,1798,1793,1793,1793,1788,1788,1788,1782,1767,1757,1752,1742,1728,1713,1709,1699,1704,1699,1704,1704,1709,1713,1718,1723,1728,1733,1737,1742,1747,1752,1757,1757,1762,1767,1767,1772,1767,1772,1772,1772,1772,1782,1782,1777,1788,1788,1793,1798,1808,1819,1824,1824,1835,1835,1835,1835,1835,1835,1835,1819,1819,1814,1814,1808,1808,1808,1814,1819,1824,1824,1824,1830,1830,1835,1835,1841,1846,1852,1852,1852,1852,1846,1841,1830,1830,1824,1819,1814,1814,1819,1819,1819,1830,1835,1846,1857,1863,1868,1880,1885,1885,1891,1891,1891,1885,1885,1880,1880,1874,1874,1868,1868,1868,1868,0,0,0,0,0,0,0,0,0,0,0,0,0,0,0,0,0,0,0,0,0,0
2532,2532,2521,2511,2511,2501,2481,2471,2471,2471,2461,2471,2471,2481,2491,2501,2501,2501,2501,2501,2491,2491,2491,2491,2491,2491,2501,2511,2511,2521,2532,2542,2542,2542,2532,2521,2501,2481,2471,2461,2442,2442,2442,2452,2452,2471,2481,2481,2481,2481,2491,2471,2452,2442,2423,2404,2386,2358,2349,2332,2323,2314,2323,2323,2341,2341,2332,2332,2323,2323,2306,2289,2297,2297,2297,2289,2289,2289,2289,2289,2297,2297,2314,2323,2314,2306,2297,2289,2289,2272,2264,2256,2256,2247,2231,2223,2207,2207,2200,2200,2207,2207,2215,2231,2231,2231,2247,2247,2256,2264,2272,2272,2280,2289,2297,2297,2297,2306,2297,2280,2256,2239,2215,2192,2169,2139,2124,2117,2103,2095,2103,2110,2124,2161,2184,2215,2272,2306,2332,2358,2386,2386,2386,2395,2386,2323,2256,2154,1969,1903,1841,1798,1788,1777,1767,1762,1762,1757,1757,1757,1752,1752,1757,1757,1762,1762,1767,1767,1772,1772,1772,1772,1777,1777,1782,1782,1782,1782,1782,1782,1788,1788,1793,1798,1803,1803,1803,1803,1803,1798,1803,1793,1777,1767,1757,1747,1737,1718,1713,1699,1704,1699,1704,1704,1704,1709,1713,1723,1728,1733,1737,1742,1747,1757,1762,1762,1767,1772,1772,1777,1777,1777,1782,1782,1788,1793,1793,1793,1798,1793,1803,1803,1808,1814,1819,1824,1830,1830,1830,1830,1835,1835,1830,1819,1819,1819,1814,1814,1808,1808,1819,1819,1819,1819,1819,1814,1819,1819,1819,1824,1835,1841,1841,1846,1841,1835,1830,1819,1814,1808,1808,1798,1803,1808,1808,1808,1824,1830,1841,1863,1868,1880,1885,1891,1891,1897,1891,1891,1880,1874,1868,1868,1863,1863,1863,1863,1863,1863,1863,0,0,0,0,0,0,0,0,0,0,0,0,0,0,0,0,0,0,0,0,0
2511,2511,2501,2501,2491,2481,2471,2461,2461,2461,2461,2461,2471,2481,2481,2491,2491,2491,2501,2501,2491,2491,2491,2491,2491,2491,2501,2511,2511,2511,2532,2542,2542,2542,2542,2542,2521,2501,2501,2481,2471,2471,2461,2461,2461,2471,2481,2481,2481,2471,2481,2452,2442,2423,2404,2386,2367,2349,2332,2332,2332,2332,2341,2349,2358,2358,2358,2349,2341,2341,2323,2297,2306,2306,2306,2297,2297,2297,2297,2297,2306,2314,2323,2323,2323,2323,2306,2306,2289,2289,2280,2264,2264,2256,2239,2231,2223,2215,2215,2207,2215,2215,2223,2231,2239,2239,2247,2256,2256,2272,2280,2280,2289,2306,2306,2323,2323,2323,2323,2314,2289,2280,2256,0,2200,0,0,0,0,0,0,0,0,0,0,2215,2247,2314,2358,2376,2395,2413,2413,2404,2395,2341,2289,2184,0,0,1863,1803,1798,1782,1772,1767,1762,1762,1757,1752,1752,1752,1757,1757,1762,1762,1762,1762,1767,1772,1772,1772,1777,1777,1782,1782,1782,1782,1782,1788,1788,1793,1798,1803,1803,1808,1808,1814,1808,1808,1808,1803,1788,1777,1762,1747,1733,1718,1713,1704,1704,1699,1704,1704,1704,1713,1718,1718,1728,1733,1737,1742,1747,1757,1762,1767,1767,1772,1782,1782,1782,1788,1793,1793,1803,1798,1798,1803,1798,1798,1803,1803,1803,1808,1814,1814,1819,1819,1819,1824,1830,1830,1824,1819,1819,1819,1814,1814,1808,1808,1814,1814,1814,1814,1814,1808,1808,1808,1814,1819,1830,1830,1835,1835,1841,1830,1824,1814,1808,1803,1803,1798,1803,1803,1803,1808,1819,1830,1846,1874,1885,1897,1903,1903,1903,1903,1891,1885,1880,1868,1863,1857,1857,1852,1852,1857,1852,1857,1863,1868,1874,1880,1885,0,0,0,0,0,0,0,0,0,0,0,0,0,0,0,0,0
2501,2501,2491,2481,2481,2471,2471,2461,2461,2461,2452,2461,2471,2471,2481,2491,2491,2491,2491,2491,2491,2491,2491,2491,2491,2501,2501,2501,2511,2521,2532,2532,2542,2542,2542,2542,2521,2511,2501,2491,2481,2481,2471,2471,2471,2471,2471,2471,2461,2461,2452,2442,2413,2395,2386,2358,2349,2341,2323,2323,2323,2341,2349,2349,2367,2358,2358,2349,2349,2341,2332,2314,2306,2314,2314,2314,2314,2314,2314,2314,2323,2332,2332,2332,2332,2323,2314,2306,2297,2297,2289,2280,2280,2264,2256,2247,2231,2223,2223,2223,2223,2231,2231,2239,2247,2247,2256,2264,2264,2272,2289,2297,2306,2323,2323,2341,2341,2349,2349,2341,2323,2306,2280,2264,2176,0,2139,2117,2103,2074,2081,2088,2095,2161,2192,2223,2264,2341,2376,2395,2413,2413,2423,2423,2404,2367,2332,2223,0,0,1868,1808,1803,1788,1772,1767,1767,1762,1757,1752,1752,1752,1752,1757,1762,1762,1762,1762,1767,1772,1772,1772,1777,1782,1782,1782,1782,1782,1788,1788,1788,1788,1798,1803,1803,1808,1808,1814,1814,1814,1808,1808,1793,1782,1772,1762,1747,1737,1733,1718,1723,1723,1728,1723,1728,1728,1728,1737,1747,1757,1752,1762,1767,1777,1782,1788,1788,1793,1798,1798,1798,1803,1803,1803,1803,1803,1803,1803,1808,1814,1814,1814,1808,1814,1814,1814,1814,1819,1814,1819,1819,1824,1824,1814,1814,1814,1808,1808,1803,1808,1808,1808,1808,1808,1803,1803,1803,1803,1803,1808,1819,1824,1819,1824,1824,1819,1814,1803,1803,1798,1798,1793,1793,1798,1798,1808,1819,1835,1846,1874,1891,1897,1909,1909,1903,1903,1891,1885,1880,1868,1857,1857,1852,1852,1852,1852,1852,1857,1857,1868,1874,1880,1880,1897,1903,1914,1926,0,0,0,0,0,0,0,0,0,0,0,0,0
2491,2491,2491,2481,2481,2471,2461,2461,2461,2461,2452,2461,2471,2471,2481,2491,2491,2491,2491,2491,2481,2481,2491,2491,2491,2501,2501,2501,2511,2521,2532,2532,2542,2542,2542,2542,2532,2511,2511,2501,2491,2491,2481,2481,2471,2471,2471,2471,2452,2442,2432,2423,2386,2376,2358,2349,2341,2332,2323,2323,2332,2341,2349,2358,2367,2367,2367,2358,2349,2349,2341,2323,2323,2323,2323,2323,2323,2323,2323,2323,2332,2341,2341,2341,2341,2341,2332,2323,2314,2314,2314,2306,2297,2297,2280,2264,2256,2239,2231,2231,2239,2239,2239,2247,2247,2256,2256,2272,2272,2280,2297,2306,2323,2341,2341,2358,2358,2367,2367,2358,2341,2332,2306,2280,2200,0,2184,2103,2088,2110,2117,2117,2124,0,0,0,0,0,0,2432,2432,2432,2442,2432,2432,2404,2386,2297,0,0,1897,1819,1814,1803,1793,1782,1772,1767,1762,1757,1757,1757,1757,1762,1762,1767,1767,1767,1772,1772,1772,1777,1777,1782,1782,1782,1782,1782,1782,1788,1788,1793,1798,1803,1808,1814,1814,1814,1814,1819,1814,1808,1803,1798,1788,1782,1762,1757,1747,1742,1737,1742,1742,1747,1747,1752,1752,1752,1762,1772,1772,1777,1782,1798,1798,1798,1798,1808,1808,1808,1808,1808,1814,1814,1814,1808,1814,1814,1819,1814,1814,1814,1808,1808,1808,1808,1814,1814,1814,1814,1819,1819,1819,1814,1814,1814,1808,1808,1808,1808,1808,1808,1808,1803,1798,1798,1798,1793,1798,1798,1808,1808,1808,1814,1814,1808,1803,1793,1793,1793,1788,1788,1793,1793,1803,1808,1824,1835,1846,1880,1891,1903,1909,1909,1903,1903,1897,1885,1880,1874,1863,1857,1857,1852,1852,1852,1857,1863,1857,1868,1874,1874,1880,1897,1903,1909,1914,1938,1944,1951,1957,0,0,0,0,0,0,0,0,0
2491,2491,2481,2481,2471,2471,2461,2461,2461,2461,2452,2461,2461,2471,2471,2481,2481,2491,2481,2481,2481,2481,2481,2491,2491,2501,2501,2511,2521,2521,2532,2532,2542,2542,2542,2542,2532,2521,2521,2511,2501,2501,2491,2491,2481,2481,2471,2461,2432,2423,2413,2404,2367,2349,2332,2332,2332,2323,2323,2323,2341,2341,2358,2358,2376,2376,2367,2367,2376,2358,2358,2349,2349,2341,2341,2341,2349,2341,2341,2349,2349,2358,2358,2349,2349,2349,2349,2341,2341,2341,2349,2341,2341,2323,2314,2306,2289,2264,2264,2256,2256,2256,2256,2264,2264,2264,2272,2280,2297,2297,2314,2332,2349,2367,2376,2386,2386,2404,2395,2395,2386,2376,2367,2358,0,0,0,0,0,0,0,0,0,0,0,0,0,0,0,0,2461,2461,2452,2452,2442,2432,2423,2341,2131,0,1932,1841,1824,1808,1803,1793,1788,1777,1767,1762,1762,1762,1762,1762,1767,1767,1767,1767,1772,1772,1772,1772,1777,1777,1782,1777,1777,1777,1777,1782,1782,1788,1798,1803,1803,1814,1814,1819,1819,1819,1819,1819,1814,1803,1793,1782,1772,1767,1762,1757,1762,1762,1767,1767,1767,1767,1767,1777,1782,1793,1798,1803,1808,1819,1819,1814,1814,1819,1819,1814,1819,1819,1824,1824,1824,1830,1830,1830,1824,1819,1819,1814,1814,1814,1814,1814,1814,1814,1814,1814,1819,1814,1814,1808,1808,1803,1803,1803,1803,1803,1803,1803,1798,1798,1793,1782,1777,1777,1777,1777,1782,1782,1782,1788,1788,1782,1777,1777,1782,1782,1782,1788,1793,1798,1803,1808,1830,1841,1852,1880,1897,1903,1909,1909,1903,1909,1897,1891,1885,1880,1868,1863,1863,1863,1863,1863,1863,1868,1868,1874,1874,1880,1885,1891,1897,1909,1914,1932,1944,1951,1957,1963,1969,1969,1969,1975,0,0,0,0
2491,2481,2481,2481,2481,2471,2461,2471,2471,2461,2461,2461,2471,2471,2471,2481,2481,2481,2481,2481,2481,2481,2481,2491,2491,2501,2511,2511,2521,2521,2532,2532,2542,2542,2542,2532,2532,2521,2521,2511,2511,2501,2491,2491,2481,2481,2471,2461,2432,2413,2404,2395,2358,2341,2332,2323,2323,2323,2332,2332,2349,2349,2367,2367,2376,2376,2386,2376,2376,2376,2367,2367,2358,2358,2358,2358,2358,2358,2349,2349,2358,2358,2358,2358,2349,2349,2349,2349,2349,2341,2358,2358,2349,2341,2341,2323,2314,2289,2280,2280,2272,2264,2264,2264,2272,2272,2280,2289,2297,2306,2323,2332,2349,2367,2376,2386,2395,2404,2395,2395,2386,2376,2367,2358,0,0,0,0,0,0,0,0,0,0,0,0,0,0,0,0,2481,2471,2461,2452,2432,2432,2423,2349,0,0,0,1868,1846,1830,1819,1808,1798,1788,1782,1777,1772,1767,1767,1772,1767,1772,1772,1772,1772,1772,1777,1777,1777,1777,1777,1777,1777,1777,1777,1782,1782,1782,1793,1803,1803,1814,1819,1819,1824,1824,1824,1824,1819,1814,1803,1798,1782,1777,1777,1777,1777,1777,1782,1782,1788,1782,1777,1788,1798,1814,1819,1819,1824,1830,1835,1830,1830,1830,1830,1830,1830,1830,1835,1835,1841,1841,1841,1841,0,0,0,0,0,0,1819,1824,1819,1819,1819,1814,1814,1808,1803,1798,1798,1798,1793,1798,1798,1798,1798,1798,1798,1798,1788,1782,1782,1777,1772,1772,1772,1772,1772,1777,1777,1772,1772,1772,1777,1777,1782,1788,1798,1808,1819,1824,1841,1852,1863,1885,1897,1903,1909,1909,1909,1909,1903,1903,1897,1897,1885,1885,1880,1880,1880,1880,1880,1880,1880,1885,1885,1885,1885,1891,1897,1903,1914,1932,1938,1951,1957,1963,1969,1969,1969,1975,1975,0,0,0
2491,2491,2491,2491,2491,2491,2481,2481,2481,2471,2461,2461,2471,2471,2471,2481,2481,2481,2481,2481,2481,2481,2481,2491,2501,2501,2511,2521,2521,2521,2532,2532,2542,2542,2542,2532,2532,2521,2511,2511,2501,2501,2491,2491,2481,2481,2471,2461,2432,2423,2404,2395,2358,2341,2332,2323,2323,2332,2332,2341,2349,2358,2367,2376,2376,2376,2386,2386,2376,2376,2376,2376,2376,2367,2367,2376,2367,2367,2367,2367,2367,2367,2367,2358,2358,2358,2358,2349,2358,2349,2358,2358,2358,2349,2341,2332,2323,2297,2289,2280,2280,2272,2272,2272,2272,2272,2289,2297,2306,2314,2323,2341,2358,2376,2386,2386,2395,2404,2386,2386,2376,2367,2367,0,0,0,0,0,0,0,0,0,0,0,0,0,0,0,0,2501,2501,2491,2481,2442,2442,2432,2413,2349,0,0,0,1891,1863,1846,1830,1819,1814,1793,1788,1782,1777,1772,1772,1772,1772,1772,1777,1777,1772,1772,1777,1777,1777,1777,1777,1772,1772,1772,1777,1777,1782,1782,1798,1803,1803,1814,1819,1824,1824,1824,1830,1830,1824,1824,1808,1803,1793,1788,1782,1782,1788,1793,1798,1803,1808,0,0,0,0,0,1835,1835,1841,1841,1841,1835,1835,1841,1835,1835,1835,1841,1846,1846,1852,1852,1857,0,0,0,0,0,0,0,0,0,1824,1819,1819,1808,1808,1803,1798,1793,1793,1788,1788,1793,1793,1793,1798,1798,1798,1798,1788,1788,1777,1777,1772,1772,1772,1767,1772,1772,1772,1772,1772,1777,1782,1782,1788,1793,1808,1819,1824,1830,1846,1857,1868,1885,1897,1897,1909,1909,1909,1909,1909,1909,1909,1903,1897,1897,1891,1891,1891,1885,1885,1885,1885,1885,1885,1885,1885,1897,1897,1909,1914,1932,1944,1951,1957,1963,1969,1969,1969,1969,1969,1969,0,0
2501,2501,2501,2501,2501,2501,2491,2491,2481,2481,2471,2471,2471,2471,2471,2481,2481,2481,2481,2481,2481,2471,2481,2491,2491,2501,2511,2521,2521,2521,2532,2532,2542,2542,2542,2532,2521,2511,2501,2501,2501,2491,2491,2491,2491,2481,2471,2461,2432,2413,2413,2395,2358,2349,2341,2341,2332,2332,2332,2341,2349,2358,2367,2367,2376,2386,2386,2386,2386,2386,2376,2386,2386,2386,2376,2386,2376,2386,2386,2386,2376,2376,2376,2367,2358,2358,2358,2349,2349,2349,2349,2349,2349,2341,2341,2323,2323,2297,2289,2280,2280,2272,2272,2280,2280,2280,2289,2297,2306,2314,2332,2341,2358,2376,2376,2386,2386,2386,2386,2376,2367,2358,2358,0,0,0,0,0,0,0,0,0,0,0,0,0,2481,2511,2511,2521,2521,2511,2491,2461,2452,2432,2423,2280,0,0,0,1914,1880,1863,1852,1846,1835,1819,1814,1808,1803,1793,1793,1788,1793,1788,1782,1782,1782,1777,1777,1777,1777,1777,1777,1772,1772,1772,1772,1777,1782,1782,1798,1803,1808,1819,1819,1824,1824,1824,1830,1830,1830,1819,1814,1803,1788,1788,1782,1782,1782,1793,1798,1808,1814,0,0,0,0,0,0,1835,1835,1841,1841,1841,1841,1841,1841,1841,1841,1841,1846,1846,1852,1857,0,0,0,0,0,0,0,0,0,0,0,1819,1814,1803,1798,1798,1793,1788,1782,1782,1782,1782,1788,1788,1793,1793,1793,1793,1793,1788,1788,1782,1772,1767,1767,1767,1767,1767,1762,1767,1762,1772,1777,1782,1788,1793,1814,1819,1830,1835,1852,1863,1868,1885,1897,1897,1903,1903,1909,1909,1909,1914,1909,1909,1903,1903,1903,1897,1897,1897,1897,1897,1891,1885,1885,1885,1885,1891,1897,1903,1914,1932,1938,1944,1957,1963,1963,1963,1963,1969,1963,1957,1938,0
2511,2511,2511,2521,2511,2511,2511,2491,2491,2491,2471,2471,2471,2471,2471,2481,2481,2481,2481,2481,2481,2481,2481,2491,2501,2501,2511,2511,2521,2521,2532,2532,2532,2532,2532,2521,2511,2501,2501,2491,2481,2481,2481,2481,2471,2471,2461,2461,2442,2423,2413,2404,2376,2358,2358,2349,2349,2349,2349,2349,2349,2358,2367,2367,2376,2386,2386,2395,2395,2395,2404,2404,2413,2413,2404,2413,2413,2413,2404,2404,2395,2386,2376,2367,2367,2358,2349,2349,2349,2341,2349,2341,2341,2341,2332,2323,2314,2297,2289,2289,2289,2280,2280,2289,2289,2289,2297,2306,2314,2323,2341,2341,2358,2367,2376,2376,2376,2376,2376,2367,2358,2358,2349,2349,0,0,0,0,0,0,0,0,0,0,0,2423,2461,2481,2501,2511,2511,2501,2491,2461,2452,2432,2423,2289,0,0,1994,1909,1874,1863,1857,1846,1846,1824,1824,1819,1814,1803,1798,1798,1798,1793,1788,1788,1782,1782,1777,1777,1777,1777,1777,1777,1772,1772,1777,1777,1782,1788,1798,1803,1808,1819,1824,1824,1830,1824,1830,1830,1830,1824,1814,1808,1793,1788,1782,1788,1788,1793,1803,0,0,0,0,0,0,0,1835,1835,1835,1846,1841,1841,1841,1846,1846,1846,1841,1846,1852,1852,1857,1857,0,0,0,0,0,0,0,0,0,0,0,0,1803,1782,1782,1777,1772,1767,1767,1762,1767,1767,1772,1777,1782,1788,1793,1793,1788,1788,1782,1782,1777,1767,1762,1757,1752,1742,1737,1737,1742,1747,1762,1772,1782,1793,1814,1824,1835,1841,1857,1863,1874,1885,1885,1885,1885,1891,1897,1897,1903,1909,1914,1914,1909,1914,1909,1909,1903,1903,1903,1903,1903,1897,1891,1891,1891,1891,1897,1903,1914,1932,1938,1944,1951,1963,1963,1957,1963,1963,1963,1957,1932,1909
2532,2532,2532,2532,2532,2521,2521,2501,2501,2491,2481,2481,2481,2481,2481,2491,2481,2481,2491,2481,2481,2481,2481,2491,2491,2501,2511,2511,2521,2521,2532,2532,2532,2521,2521,2521,2511,2501,2491,2481,2481,2471,2471,2471,2471,2471,2471,2461,2452,2432,2432,2423,2413,2395,2395,2386,2376,2367,2367,2358,2358,2367,2367,2376,2376,2386,2386,2395,2395,2404,2413,2413,2423,2423,2423,2423,2423,2423,2413,2404,2404,2395,2376,2367,2358,2349,2349,2349,2341,2341,2341,2332,2332,2332,2323,2314,2306,2297,2289,2289,2289,2289,2289,2289,2289,2289,2297,2306,2314,2323,2332,2341,2349,2358,2367,2367,2367,2358,2367,2358,2358,2349,2341,2341,2349,0,0,0,0,0,0,0,0,2341,2367,2386,2432,2461,2481,2491,2491,2491,2481,2452,2442,2432,2413,2272,0,0,1988,1909,1874,1868,1857,1852,1846,1841,1835,1830,1824,1814,1808,1808,1803,1798,1793,1788,1788,1782,1782,1777,1777,1777,1777,1772,1772,1772,1777,1777,1782,1788,1798,1803,1808,1819,1819,1830,1824,1830,1830,1835,1830,1824,1819,1808,1793,1788,1782,1782,1782,1803,1808,1808,1814,1819,1819,1824,1824,1830,1830,1835,1835,1841,1841,1841,1841,1841,1841,1846,1841,1846,1857,1857,1863,0,0,0,0,0,0,0,0,0,0,0,0,0,0,0,1777,1772,1767,1767,1762,1762,1767,1767,1772,1777,1782,1793,1798,1798,1798,1803,1798,1793,1788,1772,1762,1757,1742,1737,1728,1718,1723,1728,1742,1757,1772,1788,1814,1824,1835,1841,1863,1863,1868,1874,1880,1880,1880,1885,1885,1891,1897,1903,1909,1914,1914,1914,1914,1909,1903,1903,1903,1903,1897,1897,1891,1891,1891,1891,1897,1903,1909,1926,1938,1944,1951,1957,1957,1957,1963,1963,1957,1951,1926,1909
2532,2532,2532,2532,2532,2521,2511,2511,2501,2491,2481,2481,2481,2481,2481,2491,2481,2491,2491,2491,2491,2481,2491,2491,2501,2511,2511,2521,2521,2521,2521,2532,2532,2521,2521,2511,2501,2491,2481,2481,2471,2471,2471,2471,2471,2471,2471,2461,2452,2442,2442,2442,2423,2413,2413,2404,2386,2386,2367,2367,2367,2367,2367,2376,2376,2386,2395,2395,2404,2413,2413,2423,2423,2432,2432,2442,2442,2432,2423,2413,2413,2395,2376,2367,2358,2349,2341,2332,2332,2332,2323,2323,2314,2314,2306,2306,2297,2289,2289,2280,2280,2280,2280,2289,2289,2289,2297,2297,2306,2306,2314,2314,2323,2323,2332,2332,2332,2332,2332,2341,2332,2332,2332,2332,2323,2323,2314,2314,2297,2289,2272,2256,2264,2289,2306,2323,2376,2404,2423,2432,2442,2442,2432,2404,2395,2367,2341,2231,0,0,0,1903,1868,1857,1852,1852,1846,1841,1835,1835,1830,1824,1819,1814,1808,1803,1798,1793,1793,1788,1788,1782,1782,1777,1777,1777,1777,1777,1782,1788,1788,1793,1808,1814,1819,1830,1835,1841,1841,1846,1846,1846,1846,1835,1830,1819,1798,1793,1793,1788,1788,1803,1808,1814,1819,1819,1819,1824,1824,1830,1830,1830,1835,1841,1841,1841,1841,1846,1846,1846,1846,1846,1857,1857,1863,0,0,0,0,0,0,0,0,0,0,0,0,0,0,1777,1777,1772,1767,1767,1762,1762,1762,1767,1772,1777,1788,1793,1798,1803,1808,1803,1803,1798,1793,1772,1767,1757,1737,1733,1713,1709,1709,1713,1718,1747,1762,1777,1814,1824,1835,1846,1857,1863,1868,1874,1874,1874,1874,1880,1880,1885,1891,1903,1909,1909,1909,1909,1909,1909,1903,1903,1903,1903,1897,1897,1891,1891,1891,1891,1897,1903,1914,1926,1932,1938,1944,1951,1951,1951,1951,1951,1951,1944,1920,1903
2542,2542,2532,2532,2521,2521,2511,2501,2491,2491,2481,2481,2481,2481,2491,2491,2491,2491,2491,2491,2491,2491,2491,2501,2501,2511,2521,2521,2521,2521,2521,2532,2532,2521,2511,2511,2501,2491,2481,2481,2471,2471,2471,2461,2461,2461,2461,2461,2461,2452,2452,2442,2432,2432,2423,2413,2395,2386,2367,2367,2367,2367,2367,2376,2376,2386,2395,2395,2413,2423,2423,2442,2442,2442,2452,2452,2442,2442,2432,2423,2413,2404,2367,2358,2349,2341,2332,2314,2314,2306,2297,2289,2289,2280,2280,2272,2272,2272,2264,2264,2264,2264,2272,2272,2280,2280,2289,2289,2289,2297,2306,2306,2306,2314,2314,2314,2314,2314,2314,2314,2314,2314,2314,2314,2314,2306,2306,2297,2272,2264,2256,2239,2239,2256,2272,2289,2306,2358,2386,2395,2404,2404,2404,2376,2358,2332,2297,2239,0,0,0,1891,1863,1852,1846,1846,1846,1841,1841,1841,1841,1835,1824,1824,1824,1808,1808,1803,1803,1798,1793,1788,1788,1782,1777,1777,1777,1777,1782,1788,1793,1798,1808,1819,1824,1835,1835,1841,1846,1852,1852,1857,1857,1846,1841,1830,1814,1808,1803,1803,1803,1814,1819,1819,1824,1824,1824,1824,1824,1830,1830,1835,1835,1841,1841,1841,1841,1846,1852,1852,1846,1852,1857,1857,1863,1863,0,0,0,0,0,0,0,0,0,0,0,0,0,1788,1782,1782,1777,1772,1767,1767,1767,1772,1777,1782,1793,1798,1803,1803,1808,1808,1808,1803,1798,1772,1762,1752,1737,1728,1704,1699,1695,1704,1709,1737,1752,1772,1814,1830,1841,1846,1863,1863,1868,1874,1874,1874,1874,1880,1880,1885,1891,1897,1903,1909,1903,1909,1897,1903,1897,1903,1903,1903,1897,1897,1891,1891,1891,1891,1897,1903,1909,1926,1926,1932,1938,1938,1938,1932,1938,1938,1938,1932,1914,1903
