# .PCD v0.7 - Point Cloud Data file format
VERSION 0.7
FIELDS x y z
SIZE 4 4 4
TYPE F F F
COUNT 1 1 1
WIDTH 779
HEIGHT 1
VIEWPOINT 0 0 0 1 0 0 0
POINTS 779
DATA ascii
-386.5442866 750.3507649 1957
-372.7688971 743.065806 1938
-357.3182715 731.9466582 1909
-344.1696423 725.0451182 1891
-331.3840226 718.5269971 1874
-320.6625065 716.2264838 1868
-311.001985 716.2264838 1868
-300.5348751 714.3093894 1863
-290.9002116 714.3093894 1863
-284.5869877 722.7446049 1885
-278.33782 731.9466582 1909
-271.6997848 740.7652927 1932
-265.0947762 750.3507649 1957
-263.1821395 774.5061549 2020
-256.9895016 787.5423971 2054
-251.284811 803.2625715 2095
-368.9651137 725.8870052 1868
-347.7637595 702.5715768 1808
-334.6700206 694.7997673 1788
-323.4211816 690.5252721 1777
-311.5787876 684.696415 1762
-301.6081498 682.7534626 1757
-291.6892279 680.8105103 1752
-282.6286104 680.8105103 1752
-274.3487234 682.7534626 1757
-266.0171206 684.696415 1762
-260.6956638 694.7997673 1788
-253.5583395 700.6286244 1803
-247.891385 711.1205672 1830
-246.3749633 734.8245861 1891
-242.4759757 753.0883384 1938
-237.7310241 770.1863193 1982
-237.351457 803.6051 2068
-361.4593994 720.5845684 1830
-340.8392599 697.746369 1772
-327.9316981 689.8711278 1752
-317.9610603 687.9023175 1747
-307.1579762 683.9646969 1737
-296.6299846 680.4208384 1728
-287.6934851 680.4208384 1728
-278.7569856 680.4208384 1728
-269.8204861 680.4208384 1728
-262.2427574 683.9646969 1737
-254.7177431 687.9023175 1747
-247.7924538 693.8087484 1762
-242.2020746 704.0465619 1788
-235.5610437 711.9218031 1808
-235.2192128 740.2726714 1880
-231.7337732 760.7482985 1932
-232.6457463 798.1556941 2027
-226.6566185 814.2999385 2068
-357.1139858 721.2720294 1808
-340.8392599 706.9104182 1772
-326.0599418 694.9424089 1742
-314.5029835 689.3573379 1728
-304.6823218 687.3626697 1723
-294.9133759 685.3680014 1718
-285.1961458 683.3733332 1713
-276.3372201 683.3733332 1713
-268.259025 685.3680014 1718
-259.3742413 685.3680014 1718
-251.9474871 689.3573379 1728
-244.2766699 692.9477407 1737
-238.0028216 700.9264136 1757
-230.8706689 706.9104182 1772
-229.5889657 732.0432378 1835
-226.0963574 751.9899201 1885
-222.4309109 773.1334032 1938
-223.5877668 813.824635 2040
-353.1636099 722.5401512 1788
-336.9923156 707.9923629 1752
-323.439483 698.2938374 1728
-311.7729229 692.2322589 1713
-302.9139972 692.2322589 1713
-292.5101237 688.5953118 1704
-283.6977422 688.5953118 1704
-274.8853608 688.5953118 1704
-266.0729794 688.5953118 1704
-257.2605979 688.5953118 1704
-248.4482165 688.5953118 1704
-241.6046741 694.2527851 1718
-234.0744882 698.2938374 1728
-226.9620233 703.9513106 1742
-224.3340683 724.5606773 1793
-221.4185017 745.9782545 1846
-221.3957299 816.2925645 2020
-349.0157151 723.1921327 1767
-332.3759825 707.2303369 1728
-318.947268 697.4076933 1704
-309.2248663 695.3613092 1699
-298.8468507 691.6778179 1690
-289.420228 690.0407106 1686
-279.8684887 687.9943265 1681
-271.1750537 687.9943265 1681
-262.4816187 687.9943265 1681
-253.7881837 687.9943265 1681
-245.0947488 687.9943265 1681
-237.1044706 690.0407106 1686
-228.3851777 690.0407106 1686
-220.1870375 691.6778179 1690
-214.9503232 703.1375687 1718
-213.1422955 727.2849008 1777
-210.6092474 751.0229561 1835
-348.0281211 730.258082 1762
-329.4907743 709.9501103 1713
-318.0113899 704.1478327 1699
-307.58683 700.4177971 1690
-298.1395209 698.7600035 1686
-288.5619237 696.6877615 1681
-279.0360422 694.6155195 1676
-270.3684652 694.6155195 1676
-261.7008881 694.6155195 1676
-252.429413 692.9577259 1672
-243.7825223 692.9577259 1672
-235.698157 694.6155195 1676
-227.0305799 694.6155195 1676
-218.3630029 694.6155195 1676
-209.6954259 694.6155195 1676
-210.1436701 726.113598 1752
-207.5103648 749.3227084 1808
-346.0529332 735.1742155 1752
-328.7213855 717.1305561 1709
-316.3268092 709.1577764 1690
-306.8588138 707.4792964 1686
-297.2553586 705.3811965 1681
-287.7036193 703.2830966 1676
-278.3700851 701.6046166 1672
-269.7231944 701.6046166 1672
-260.2955731 699.5065167 1667
-251.6745403 699.5065167 1667
-243.0535076 699.5065167 1667
-234.4324748 699.5065167 1667
-225.2696029 697.8280367 1663
-216.6692565 697.8280367 1663
-208.06891 697.8280367 1663
-207.8647148 727.2014358 1733
-205.7887633 752.3786349 1793
-345.0653392 742.1108752 1747
-326.7979134 721.7208797 1699
-315.5781067 716.1985893 1686
-305.0387734 711.9506736 1676
-295.6638665 710.2515073 1672
-287.0169758 710.2515073 1672
-277.5376387 708.1275495 1667
-268.9166059 708.1275495 1667
-259.6709887 706.4283832 1663
-251.0706422 706.4283832 1663
-242.4702958 706.4283832 1663
-233.8699493 706.4283832 1663
-225.2696029 706.4283832 1663
-216.6692565 706.4283832 1663
-207.443327 704.3044253 1658
-207.8647148 736.1637932 1733
-205.2148961 759.5273296 1788
-209.7779342 813.0510676 1914
-343.0901512 746.8460032 1737
-323.3356636 722.7680664 1681
-312.9576479 718.898398 1672
-303.400737 716.7485822 1667
-294.0723744 715.0287296 1663
-284.6137236 712.8789138 1658
-276.0392351 712.8789138 1658
-266.8194758 711.1590612 1654
-258.2656736 711.1590612 1654
-249.7118715 711.1590612 1654
-241.7412811 712.8789138 1658
-233.1667925 712.8789138 1658
-224.592304 712.8789138 1658
-216.0178155 712.8789138 1658
-207.443327 712.8789138 1658
-208.3444948 746.8460032 1737
-205.2148961 768.7741242 1788
-209.2299249 820.7996662 1909
-344.0777452 758.0047207 1742
-325.0667885 735.3777141 1690
-312.0217698 725.369615 1667
-301.7627007 721.4534023 1658
-292.4808823 719.7128634 1654
-283.9270801 719.7128634 1654
-275.373278 719.7128634 1654
-266.174205 717.9723244 1650
-257.6410892 717.9723244 1650
-249.7118715 719.7128634 1654
-241.1580693 719.7128634 1654
-233.1667925 721.4534023 1658
-224.592304 721.4534023 1658
-216.0178155 721.4534023 1658
-207.443327 721.4534023 1658
-208.9442199 758.0047207 1742
-205.2148961 778.0209188 1788
-208.5723139 828.0614142 1903
-344.0777452 767.0136224 1742
-325.0667885 744.1176933 1690
-312.0217698 733.9906478 1667
-301.7627007 730.0278909 1658
-291.7735525 726.5054402 1650
-283.2404367 726.5054402 1650
-274.7073208 726.5054402 1650
-266.174205 726.5054402 1650
-257.6410892 726.5054402 1650
-249.1079733 726.5054402 1650
-240.5748575 726.5054402 1650
-232.6042671 728.2666656 1654
-224.592304 730.0278909 1658
-216.0178155 730.0278909 1658
-207.443327 730.0278909 1658
-208.9442199 767.0136224 1742
-205.2148961 787.2677134 1788
-207.9147028 835.2611031 1897
-344.0777452 776.022524 1742
-325.0667885 752.8576726 1690
-311.2730673 740.8297689 1663
-301.0346845 736.8204677 1654
-290.8893902 732.8111665 1645
-282.3821323 732.8111665 1645
-273.8748744 732.8111665 1645
-265.3676165 732.8111665 1645
-256.8603586 732.8111665 1645
-248.3531007 732.8111665 1645
-240.5748575 735.0385561 1650
-232.6042671 736.8204677 1654
-224.0504649 736.8204677 1654
-215.4966628 736.8204677 1654
-207.443327 738.6023794 1658
-207.8647148 772.0132228 1733
-203.9523884 791.614251 1777
-200.5713791 815.2245804 1830
-345.0653392 787.2846732 1747
-326.0285245 763.8508993 1695
-311.2730673 749.4301154 1663
-300.3066683 743.5716719 1650
-290.1820604 739.5158264 1641
-282.3821323 741.3184244 1645
-273.2089173 739.5158264 1641
-264.7223457 739.5158264 1641
-256.2357741 739.5158264 1641
-247.7492026 739.5158264 1641
-239.8458428 741.3184244 1645
-232.0417417 743.5716719 1650
-224.0504649 745.3742699 1654
-215.4966628 745.3742699 1654
-207.443327 747.1768679 1658
-207.2649897 778.7223328 1728
-203.3785212 798.5509107 1772
-199.3657587 819.7314371 1819
-344.0777452 794.0403274 1742
-326.7979134 774.4400208 1699
-312.9576479 762.1328516 1672
-300.3066683 752.1047877 1650
-290.1820604 748.002398 1641
-281.6954888 748.002398 1641
-273.2089173 748.002398 1641
-264.7223457 748.002398 1641
-256.2357741 748.002398 1641
-247.7492026 748.002398 1641
-239.262631 748.002398 1641
-232.0417417 752.1047877 1650
-224.0504649 753.9280721 1654
-215.4966628 753.9280721 1654
-207.443327 755.7513564 1658
-206.0655395 783.1006214 1718
-202.804654 805.4358545 1767
-198.1601384 824.1245189 1808
-344.0777452 803.0492291 1742
-326.7979134 783.2265443 1699
-312.9576479 770.7797423 1672
-300.3066683 760.6379036 1650
-290.1820604 756.4889695 1641
-281.0088453 754.6449989 1637
-273.2089173 756.4889695 1641
-264.0770749 754.6449989 1637
-256.2357741 756.4889695 1641
-247.1453045 754.6449989 1637
-239.262631 756.4889695 1641
-232.0417417 760.6379036 1650
-223.5086258 760.6379036 1650
-215.4966628 762.4818742 1654
-207.443327 764.3258449 1658
-206.0655395 791.985405 1718
-201.6569197 809.9641191 1757
-196.5161107 826.5598552 1793
-342.300076 807.8626525 1733
-326.0285245 790.1484108 1695
-312.9576479 779.426633 1672
-299.3966481 766.8401981 1645
-289.4747306 763.1108841 1637
-281.0088453 763.1108841 1637
-272.5429601 763.1108841 1637
-264.0770749 763.1108841 1637
-254.8304591 760.7800628 1632
-246.3904318 760.7800628 1632
-238.6794192 763.1108841 1637
-231.3385849 766.8401981 1645
-222.831327 766.8401981 1645
-214.97551 769.1710194 1650
-206.9428606 771.0356764 1654
-203.7865842 792.0130678 1699
-199.3614511 809.7273095 1737
-193.6664627 823.7122371 1767
-341.312482 814.4683307 1728
-325.0667885 796.5575688 1690
-312.9576479 788.0735237 1672
-299.3966481 775.347456 1645
-290.1820604 773.4621127 1641
-281.0088453 771.5767693 1637
-271.7105137 769.2200901 1632
-264.0770749 771.5767693 1637
-254.8304591 769.2200901 1632
-246.3904318 769.2200901 1632
-237.9504045 769.2200901 1632
-231.3385849 775.347456 1645
-222.831327 775.347456 1645
-214.97551 777.7041352 1650
-206.9428606 779.5894786 1654
-203.3068041 798.914248 1695
-197.754623 812.1116515 1723
-192.022435 825.7803909 1752
-341.312482 823.4048302 1728
-326.0285245 807.6800852 1695
-313.7063504 798.6264441 1676
-299.3966481 783.8547139 1645
-290.1820604 781.9486842 1641
-281.0088453 780.0426545 1637
-272.5429601 780.0426545 1637
-264.0770749 780.0426545 1637
-254.8304591 777.6601174 1632
-246.3904318 777.6601174 1632
-237.9504045 777.6601174 1632
-230.7760594 781.9486842 1641
-222.831327 783.8547139 1645
-214.97551 786.2372511 1650
-206.9428606 788.1432808 1654
-202.227299 803.3915184 1686
-196.6068887 816.2572188 1713
-189.94 825.7873673 1733
-340.324888 829.9329346 1723
-326.0285245 816.4459223 1695
-313.7063504 807.2940212 1676
-300.3066683 794.7703669 1650
-290.8893902 792.3619718 1645
-281.6954888 790.4352558 1641
-272.5429601 788.5085398 1637
-263.2704864 786.1001447 1632
-254.8304591 786.1001447 1632
-246.3904318 786.1001447 1632
-237.9504045 786.1001447 1632
-230.7760594 790.4352558 1641
-222.2894879 790.4352558 1641
-214.3240691 792.3619718 1645
-206.9428606 796.6970829 1654
-201.0278488 807.2940212 1676
-195.0000607 818.3726384 1699
-187.747963 825.1161445 1713
-339.337294 836.4093232 1718
-325.0667885 822.7775065 1690
-313.7063504 815.9615982 1676
-300.3066683 803.3034827 1650
-290.8893902 800.8692297 1645
-282.3821323 800.8692297 1645
-273.2089173 798.9218274 1641
-264.0770749 796.974425 1637
-254.8304591 794.540172 1632
-245.7865337 792.5927696 1628
-237.3671927 792.5927696 1628
-229.5103772 794.540172 1632
-222.2894879 798.9218274 1641
-214.3240691 800.8692297 1645
-206.9428606 805.2508851 1654
-199.9483436 811.5799428 1667
-192.9341389 818.3958512 1681
-184.7887132 820.8301042 1686
-340.324888 847.7542178 1723
-326.7979134 835.9456854 1699
-314.6422286 827.0892862 1681
-301.7627007 815.772776 1658
-292.4808823 813.8046873 1654
-283.2404367 811.8365985 1650
-273.8748744 809.3764876 1645
-264.7223457 807.4083989 1641
-255.6111897 805.4403102 1637
-246.3904318 802.9801993 1632
-237.9504045 802.9801993 1632
-229.5103772 802.9801993 1632
-222.831327 809.3764876 1645
-214.3240691 809.3764876 1645
-206.9428606 813.8046873 1654
-199.9483436 820.2009756 1667
-192.3602718 824.6291753 1676
-183.6926947 824.6291753 1676
-342.300076 861.636797 1733
-328.7213855 849.7041466 1709
-315.5781067 838.26869 1686
-303.400737 828.8220084 1667
-293.1882121 824.3472645 1658
-283.9270801 822.3584894 1654
-274.7073208 820.3697144 1650
-264.7223457 815.8949705 1641
-256.2357741 815.8949705 1641
-247.1453045 813.9061954 1637
-237.9504045 811.4202266 1632
-230.213534 813.9061954 1637
-222.831327 817.8837455 1645
-214.97551 820.3697144 1650
-206.9428606 822.3584894 1654
-199.4685636 826.8332333 1663
-191.3273109 828.8220084 1667
-182.7062781 828.8220084 1667
-343.0901512 872.6086158 1737
-328.7213855 858.542386 1709
-317.2626874 851.509271 1695
-304.3107572 839.9548679 1672
-294.0723744 835.4335798 1663
-284.6137236 832.921753 1658
-275.373278 830.9122916 1654
-265.3676165 826.3910034 1645
-256.8603586 826.3910034 1645
-247.7492026 824.381542 1641
-238.6794192 822.3720806 1637
-230.7760594 824.381542 1641
-222.831327 826.3910034 1645
-214.97551 828.9028302 1650
-206.9428606 830.9122916 1654
-199.4685636 835.4335798 1663
-191.3273109 837.4430412 1667
-183.2542873 839.9548679 1672
-344.0777452 884.1293442 1742
-330.4525104 871.9484578 1718
-318.0113899 862.305256 1699
-305.0387734 850.6319064 1676
-294.7797042 846.064074 1667
-285.472028 844.0339262 1663
-276.0392351 841.4962415 1658
-266.174205 837.435946 1650
-257.6410892 837.435946 1650
-247.7492026 832.8681136 1641
-239.262631 832.8681136 1641
-230.7760594 832.8681136 1641
-223.5086258 837.435946 1650
-215.4966628 839.4660938 1654
-207.443327 841.4962415 1658
-199.9483436 846.064074 1667
-191.3273109 846.064074 1667
-183.2542873 848.6017587 1672
-346.0529332 898.2653311 1752
-331.4142465 883.396784 1723
-319.8831461 876.2188647 1709
-305.9487936 861.8630261 1681
-295.6638665 857.2486494 1672
-285.472028 852.6342727 1663
-276.8716815 852.6342727 1663
-267.4647466 850.07073 1658
-258.2656736 848.019896 1654
-249.1079733 845.9690619 1650
-239.8458428 843.4055193 1645
-232.0417417 845.9690619 1650
-224.592304 850.07073 1658
-216.0178155 850.07073 1658
-208.06891 852.6342727 1663
-200.5480687 857.2486494 1672
-192.3602718 859.2994834 1676
-184.2407039 861.8630261 1681
-346.0529332 907.3259487 1752
-332.3759825 894.8968261 1728
-319.8831461 885.0571041 1709
-306.8588138 873.1458616 1686
-295.6638665 865.8955401 1672
-286.1586715 863.3061395 1667
-276.8716815 861.2346191 1663
-267.4647466 858.6452186 1658
-258.8902581 858.6452186 1658
-249.7118715 856.5736981 1654
-240.5748575 854.5021777 1650
-233.1667925 858.6452186 1658
-224.592304 858.6452186 1658
-216.6692565 861.2346191 1663
-208.06891 861.2346191 1663
-201.0278488 867.9670605 1676
-193.5080061 873.1458616 1686
-185.2271206 875.217382 1690
-347.0405271 919.0018247 1757
-332.3759825 903.8333256 1728
-320.6318486 895.9875502 1713
-306.8588138 881.8651545 1686
-296.3711963 876.6346375 1676
-286.1586715 871.9271723 1667
-277.5376387 871.9271723 1667
-268.2713351 869.8349655 1663
-259.6709887 869.8349655 1663
-249.7118715 865.1275003 1654
-240.5748575 863.0352935 1650
-232.6042671 865.1275003 1654
-225.2696029 869.8349655 1663
-216.6692565 869.8349655 1663
-208.5693764 871.9271723 1667
-201.6275739 879.249896 1681
-193.9670998 883.9573613 1690
-185.7751298 886.5726197 1695
-346.0529332 925.4471838 1752
-333.3377186 915.4109415 1733
-320.6318486 904.8464759 1713
-306.8588138 890.5844474 1686
-296.3711963 885.3022146 1676
-287.0169758 883.1893215 1672
-277.5376387 880.5482051 1667
-268.2713351 878.435312 1663
-258.8902581 875.7941956 1658
-249.7118715 873.6813025 1654
-241.1580693 873.6813025 1654
-232.6042671 873.6813025 1654
-225.2696029 878.435312 1663
-217.1904092 880.5482051 1667
-208.5693764 880.5482051 1667
-202.227299 890.5844474 1686
-194.540967 895.3384569 1695
-186.7615464 900.0924664 1704
-347.0405271 937.1747756 1757
-333.3377186 924.3732989 1733
-320.6318486 913.7054016 1713
-306.8588138 899.3037403 1686
-296.3711963 893.9697916 1676
-287.0169758 891.8362122 1672
-277.5376387 889.1692379 1667
-268.2713351 887.0356584 1663
-258.8902581 884.3686841 1658
-249.7118715 882.2351046 1654
-241.1580693 882.2351046 1654
-232.6042671 882.2351046 1654
-225.2696029 887.0356584 1663
-217.1904092 889.1692379 1667
-209.1949594 891.8362122 1672
-203.3068041 904.1042941 1695
-196.147795 911.5718222 1709
-188.2959723 916.3723759 1718
-333.3377186 933.3356563 1733
-320.6318486 922.5643273 1713
-306.8588138 908.0230332 1686
-296.3711963 902.6373687 1676
-287.0169758 900.4831029 1672
-277.5376387 897.7902707 1667
-267.4647466 892.9431726 1658
-258.8902581 892.9431726 1658
-249.7118715 890.7889068 1654
-241.1580693 890.7889068 1654
-232.6042671 890.7889068 1654
-225.2696029 895.6360049 1663
-217.1904092 897.7902707 1667
-209.1949594 900.4831029 1672
-203.3068041 912.8701312 1695
-196.147795 920.4100615 1709
-188.8439815 927.9499918 1723
-333.3377186 942.2980137 1733
-320.6318486 931.423253 1713
-306.8588138 916.7423261 1686
-296.3711963 911.3049457 1676
-287.0169758 909.1299936 1672
-277.5376387 906.4113034 1667
-267.4647466 901.5176611 1658
-258.2656736 899.342709 1654
-249.1079733 897.1677569 1650
-240.5748575 897.1677569 1650
-232.0417417 897.1677569 1650
-224.0504649 899.342709 1654
-216.0178155 901.5176611 1658
-208.5693764 906.4113034 1667
-203.3068041 921.6359684 1695
-196.147795 929.2483009 1709
-188.8439815 936.8606334 1723
-333.3377186 951.2603711 1733
-321.5677268 943.0267268 1718
-306.8588138 925.461619 1686
-296.3711963 919.9725228 1676
-287.0169758 917.7768843 1672
-276.8716815 912.8366977 1663
-266.8194758 907.8965112 1654
-257.6410892 905.7008727 1650
-249.1079733 905.7008727 1650
-240.5748575 905.7008727 1650
-232.0417417 905.7008727 1650
-223.5086258 905.7008727 1650
-216.0178155 910.0921496 1658
-208.5693764 915.0323362 1667
-203.3068041 930.4018056 1695
-196.147795 938.0865402 1709
-188.8439815 945.7712749 1723
-334.1071074 962.4390534 1737
-321.5677268 951.9115105 1718
-305.9487936 931.4105059 1681
-296.3711963 928.6400998 1676
-287.0169758 926.423775 1672
-276.8716815 921.4370442 1663
-266.8194758 916.4503133 1654
-257.6410892 914.2339885 1650
-248.3531007 911.4635825 1645
-239.8458428 911.4635825 1645
-231.3385849 911.4635825 1645
-223.5086258 914.2339885 1650
-216.0178155 918.6666382 1658
-208.5693764 923.653369 1667
-203.3068041 939.1676427 1695
-196.147795 946.9247796 1709
-188.8439815 954.6819165 1723
-334.1071074 971.4220971 1737
-321.5677268 960.7962941 1718
-305.9487936 940.1039408 1681
-296.3711963 937.3076769 1676
-287.0169758 935.0706657 1672
-276.8716815 930.0373906 1663
-266.8194758 925.0041155 1654
-257.6410892 922.7671043 1650
-248.3531007 919.9708404 1645
-240.5748575 922.7671043 1650
-231.3385849 919.9708404 1645
-223.5086258 922.7671043 1650
-215.4966628 925.0041155 1654
-208.06891 930.0373906 1663
-203.3068041 947.9334799 1695
-196.147795 955.763019 1709
-188.2959723 960.7962941 1718
-333.3377186 978.1474434 1733
-320.6318486 966.8589559 1713
-305.9487936 948.7973758 1681
-295.6638665 943.7175564 1672
-286.1586715 940.8954346 1667
-276.8716815 938.6377371 1663
-266.8194758 933.5579177 1654
-257.6410892 931.3002202 1650
-249.1079733 931.3002202 1650
-240.5748575 931.3002202 1650
-232.0417417 931.3002202 1650
-222.831327 928.4780983 1645
-216.0178155 935.8156152 1658
-208.5693764 940.8954346 1667
-202.707079 953.8771952 1690
-195.0000607 958.9570146 1699
-187.747963 966.8589559 1713
-320.6318486 975.7178816 1713
-305.9487936 957.4908108 1681
-295.6638665 952.3644471 1672
-286.1586715 949.5164673 1667
-276.8716815 947.2380835 1663
-267.4647466 944.3901037 1658
-258.2656736 942.1117198 1654
-249.1079733 939.833336 1650
-241.1580693 942.1117198 1654
-232.0417417 939.833336 1650
-223.5086258 939.833336 1650
-216.0178155 944.3901037 1658
-208.5693764 949.5164673 1667
-202.707079 962.6171745 1690
-195.0000607 967.7435381 1699
-187.3095556 973.4394977 1709
-319.8831461 982.2777371 1709
-305.9487936 966.1842458 1681
-295.6638665 961.0113379 1672
-286.1586715 958.1375001 1667
-276.8716815 955.8384299 1663
-267.4647466 952.9645922 1658
-258.2656736 950.665522 1654
-249.1079733 948.3664518 1650
-241.1580693 950.665522 1654
-232.6042671 950.665522 1654
-224.0504649 950.665522 1654
-216.0178155 952.9645922 1658
-208.5693764 958.1375001 1667
-202.227299 969.0580835 1686
-194.540967 974.2309914 1695
-186.7615464 979.4038993 1704
-319.8831461 991.1159764 1709
-305.9487936 974.8776808 1681
-295.6638665 969.6582286 1672
-286.1586715 966.7585329 1667
-276.8716815 964.4387764 1663
-267.4647466 961.5390807 1658
-258.2656736 959.2193242 1654
-249.7118715 959.2193242 1654
-241.1580693 959.2193242 1654
-232.6042671 959.2193242 1654
-224.0504649 959.2193242 1654
-216.6692565 964.4387764 1663
-209.1949594 969.6582286 1672
-202.227299 977.7773764 1686
-194.540967 982.9968286 1695
-186.2135372 985.3165851 1699
-318.0113899 994.1031086 1699
-305.9487936 983.5711157 1681
-295.6638665 978.3051193 1672
-286.1586715 975.3795657 1667
-276.0392351 970.1135692 1658
-267.4647466 970.1135692 1658
-258.2656736 967.7731264 1654
-249.7118715 967.7731264 1654
-241.1580693 967.7731264 1654
-232.6042671 967.7731264 1654
-224.0504649 967.7731264 1654
-216.6692565 973.0391228 1663
-209.1949594 978.3051193 1672
-202.227299 986.4966693 1686
-193.9670998 988.8371122 1690
-185.7751298 991.7626658 1695
-317.2626874 1000.528503 1695
-305.9487936 992.2645507 1681
-295.6638665 986.95201 1672
-286.1586715 984.0005985 1667
-276.8716815 981.6394693 1663
-266.8194758 976.3269285 1654
-258.2656736 976.3269285 1654
-249.7118715 976.3269285 1654
-241.1580693 976.3269285 1654
-233.1667925 978.6880577 1658
-224.592304 978.6880577 1658
-217.1904092 984.0005985 1667
-209.6954259 989.3131392 1676
-202.227299 995.2159622 1686
-193.5080061 995.2159622 1686
-185.2271206 997.5770914 1690
-317.2626874 1009.29434 1695
-305.9487936 1000.957986 1681
-295.6638665 995.5989007 1672
-286.1586715 992.6216313 1667
-276.8716815 990.2398157 1663
-267.4647466 987.2625463 1658
-258.2656736 984.8807307 1654
-249.7118715 984.8807307 1654
-241.7412811 987.2625463 1658
-233.1667925 987.2625463 1658
-224.592304 987.2625463 1658
-217.1904092 992.6216313 1667
-209.6954259 997.9807162 1676
-201.0278488 997.9807162 1676
-193.5080061 1003.935255 1686
-185.2271206 1006.317071 1690
-316.3268092 1015.05705 1690
-305.0387734 1006.648293 1676
-295.6638665 1004.245791 1672
-286.1586715 1001.242664 1667
-276.8716815 998.8401621 1663
-267.4647466 995.8370348 1658
-258.2656736 993.4345329 1654
-249.7118715 993.4345329 1654
-241.7412811 995.8370348 1658
-233.1667925 995.8370348 1658
-225.2696029 998.8401621 1663
-217.1904092 1001.242664 1667
-209.1949594 1004.245791 1672
-201.0278488 1006.648293 1676
-192.9341389 1009.651421 1681
-314.6422286 1018.344856 1681
-304.3107572 1012.892682 1672
-295.6638665 1012.892682 1672
-286.1586715 1009.863697 1667
-276.8716815 1007.440509 1663
-267.4647466 1004.411523 1658
-258.2656736 1001.988335 1654
-249.7118715 1001.988335 1654
-241.1580693 1001.988335 1654
-232.6042671 1001.988335 1654
-224.592304 1004.411523 1658
-216.6692565 1007.440509 1663
-208.5693764 1009.863697 1667
-200.5480687 1012.892682 1672
-304.3107572 1021.539573 1672
-295.6638665 1021.539573 1672
-286.1586715 1018.48473 1667
-276.8716815 1016.040855 1663
-267.4647466 1012.986012 1658
-258.2656736 1010.542137 1654
-250.3157696 1012.986012 1658
-241.7412811 1012.986012 1658
-232.6042671 1010.542137 1654
-224.592304 1012.986012 1658
-216.6692565 1016.040855 1663
-208.06891 1016.040855 1663
-199.9483436 1018.48473 1667
-276.0392351 1021.5605 1658
-267.4647466 1021.5605 1658
-258.8902581 1021.5605 1658
-250.3157696 1021.5605 1658
-241.7412811 1021.5605 1658
-232.6042671 1019.095939 1654
