# .PCD v0.7 - Point Cloud Data file format
VERSION 0.7
FIELDS x y z
SIZE 4 4 4
TYPE F F F
COUNT 1 1 1
WIDTH 1655
HEIGHT 1
VIEWPOINT 0 0 0 1 0 0 0
POINTS 1655
DATA ascii
1009.779362 396.3654935 1863
1022.149973 397.4292764 1868
1031.810495 397.4292764 1868
1041.471016 397.4292764 1868
1051.131538 397.4292764 1868
1060.792059 397.4292764 1868
1067.587343 396.3654935 1863
1077.222007 396.3654935 1863
1086.85667 396.3654935 1863
1092.959961 395.0889541 1857
1102.563595 395.0889541 1857
1115.760661 396.3654935 1863
1128.415709 397.4292764 1868
1141.731722 398.7058158 1874
1155.109793 399.9823552 1880
1164.832374 399.9823552 1880
1174.554954 399.9823552 1880
1187.427209 401.0461381 1885
1197.175647 401.0461381 1885
1206.924086 401.0461381 1885
1213.445276 399.9823552 1880
1223.167856 399.9823552 1880
1232.890437 399.9823552 1880
1242.613017 399.9823552 1880
1252.335598 399.9823552 1880
1258.030333 398.7058158 1874
1263.663009 397.4292764 1868
1273.323531 397.4292764 1868
1282.984052 397.4292764 1868
1285.032641 395.0889541 1857
1291.150447 394.0251712 1852
1296.514201 392.7486318 1846
1302.523405 391.6848489 1841
1304.204811 389.3445267 1830
1309.361701 388.0679872 1824
1311.564439 385.9404215 1814
1316.576525 384.6638821 1808
1318.593085 382.5363163 1798
1327.891596 382.5363163 1798
1337.190106 382.5363163 1798
1342.74421 381.4725335 1793
1355.787127 382.5363163 1798
1368.88176 383.6000992 1803
1386.614485 385.9404215 1814
1399.84358 387.0042044 1819
-227.9971783 500.5809773 2297
-214.5185662 496.8761986 2280
-198.3704918 486.1977189 2231
-183.566672 477.6985208 2192
-168.0662232 466.1483284 2139
-152.7469587 453.5084953 2081
-138.7781189 443.2658719 2034
-122.5839322 423.6523378 1944
-110.1570446 414.7172833 1903
-98.78679986 408.3973668 1874
-88.04930682 403.6029473 1852
-77.75121973 399.8981686 1835
-67.85216444 397.5009589 1824
-58.25905242 396.4113181 1819
-48.71765627 395.3216773 1814
-39.20629106 394.0141084 1808
-29.7734982 392.9244676 1803
-20.39242118 391.8348268 1798
-11.09391072 391.8348268 1798
-1.795400259 391.8348268 1798
7.503110203 391.8348268 1798
16.84834375 392.9244676 1803
26.17271214 392.9244676 1803
35.49708053 392.9244676 1803
44.82144892 392.9244676 1803
53.84550773 390.745186 1793
63.11816026 390.745186 1793
72.18894215 389.6555452 1788
80.93473391 387.2583355 1777
89.87105458 386.1686947 1772
98.7556594 385.0790539 1767
107.5885484 383.9894131 1762
116.0385612 381.8101316 1752
125.0991787 381.8101316 1752
134.1597963 381.8101316 1752
143.2204138 381.8101316 1752
151.8464394 380.7204908 1747
160.881199 380.7204908 1747
169.4296507 379.63085 1742
178.4385524 379.63085 1742
187.4474541 379.63085 1742
195.8924742 378.5412092 1737
204.4037263 377.6694966 1733
213.3660837 377.6694966 1733
222.3284411 377.6694966 1733
231.2907985 377.6694966 1733
240.253156 377.6694966 1733
249.2155134 377.6694966 1733
258.1778708 377.6694966 1733
267.7568242 378.5412092 1737
277.5364709 379.63085 1742
286.5453726 379.63085 1742
297.2509119 381.8101316 1752
307.1857062 382.8997724 1757
317.1722163 383.9894131 1762
327.2104423 385.0790539 1767
338.2521347 387.2583355 1777
348.4196503 388.3479763 1782
359.8430414 390.745186 1793
369.1156939 390.745186 1793
380.4987109 392.9244676 1803
389.8230793 392.9244676 1803
399.1474477 392.9244676 1803
409.6045721 394.0141084 1808
418.9547984 394.0141084 1808
427.1205529 392.9244676 1803
436.4449213 392.9244676 1803
444.5331019 391.8348268 1798
453.8316124 391.8348268 1798
463.1301229 391.8348268 1798
471.1148718 390.745186 1793
480.3875244 390.745186 1793
491.0256543 391.8348268 1798
500.3241647 391.8348268 1798
511.0398684 392.9244676 1803
520.3642368 392.9244676 1803
529.6886052 392.9244676 1803
539.0129735 392.9244676 1803
545.2960921 390.745186 1793
554.5687447 390.745186 1793
563.8413972 390.745186 1793
573.1140497 390.745186 1793
580.7626456 389.6555452 1788
590.0094403 389.6555452 1788
600.9320073 390.745186 1793
608.5030295 389.6555452 1788
615.6768381 388.3479763 1782
623.1392569 387.2583355 1777
632.3291641 387.2583355 1777
641.5190713 387.2583355 1777
650.7089785 387.2583355 1777
661.7556636 388.3479763 1782
673.2305917 389.6555452 1788
684.3858802 390.745186 1793
695.5928844 391.8348268 1798
706.8516046 392.9244676 1803
718.1620405 394.0141084 1808
727.5122669 394.0141084 1808
736.8624932 394.0141084 1808
746.2127195 394.0141084 1808
758.070345 395.3216773 1814
767.4516008 395.3216773 1814
776.8328566 395.3216773 1814
786.2141124 395.3216773 1814
795.5953683 395.3216773 1814
804.9766241 395.3216773 1814
814.3578799 395.3216773 1814
826.0096405 396.4113181 1819
835.4167543 396.4113181 1819
844.823868 396.4113181 1819
856.5790604 397.5009589 1824
868.8607558 398.8085278 1830
878.324757 398.8085278 1830
887.7887582 398.8085278 1830
899.7042697 399.8981686 1835
912.1669706 401.2057376 1841
921.6878593 401.2057376 1841
933.737832 402.2953784 1846
943.2845785 402.2953784 1846
955.928285 403.6029473 1852
965.506061 403.6029473 1852
977.7163529 404.6925881 1857
987.3199869 404.6925881 1857
1000.144699 406.000157 1863
1009.779362 406.000157 1863
1022.149973 407.0897978 1868
1031.810495 407.0897978 1868
1044.816212 408.3973668 1874
1054.507763 408.3973668 1874
1060.792059 407.0897978 1868
1070.45258 407.0897978 1868
1080.113102 407.0897978 1868
1089.773623 407.0897978 1868
1099.434145 407.0897978 1868
1109.094666 407.0897978 1868
1122.34862 408.3973668 1874
1135.664632 409.7049357 1880
1152.088946 412.1021454 1891
1169.241456 414.7172833 1903
1179.082982 414.7172833 1903
1192.673089 416.0248523 1909
1202.545645 416.0248523 1909
1212.418202 416.0248523 1909
1218.44909 414.7172833 1903
1224.417919 413.4097144 1897
1230.32469 412.1021454 1891
1240.104158 412.1021454 1891
1249.883625 412.1021454 1891
1255.666278 410.7945765 1885
1265.414716 410.7945765 1885
1267.721884 408.3973668 1874
1277.413435 408.3973668 1874
1282.984052 407.0897978 1868
1285.032641 404.6925881 1857
1291.150447 403.6029473 1852
1296.514201 402.2953784 1846
1302.523405 401.2057376 1841
1304.204811 398.8085278 1830
1309.361701 397.5009589 1824
1311.564439 395.3216773 1814
1316.576525 394.0141084 1808
1318.593085 391.8348268 1798
1324.198905 390.745186 1793
1333.471558 390.745186 1793
1338.999804 389.6555452 1788
1352.016863 390.745186 1793
1365.085638 391.8348268 1798
1382.028109 394.0141084 1808
-229.6845757 516.2528045 2314
-216.1180467 512.4601089 2297
-199.0818159 499.5203238 2239
-183.566672 489.0346359 2192
-168.0662232 477.2103495 2139
-152.7469587 464.2705644 2081
-138.3005148 452.2231783 2027
-121.8272413 431.0287028 1932
-109.8097287 423.2202118 1897
-98.47051342 416.7503193 1868
-87.76404989 411.8421249 1846
-77.53936354 408.272529 1830
-67.66616618 405.8184319 1819
-58.09891209 404.7029332 1814
-48.55651738 403.3643347 1808
-39.20629106 403.3643347 1808
-29.69093165 401.1333373 1798
-20.39242118 401.1333373 1798
-11.06306002 400.0178386 1793
-1.790407489 400.0178386 1793
7.482245047 400.0178386 1793
16.80162067 401.1333373 1798
26.10013113 401.1333373 1798
35.49708053 402.248836 1803
44.82144892 402.248836 1803
53.99566252 401.1333373 1798
63.29417298 401.1333373 1798
72.3908128 400.0178386 1793
81.16246248 397.5637414 1782
90.12464108 396.4482427 1777
99.03510382 395.332744 1772
107.8938507 394.2172453 1767
116.3697215 391.9862478 1757
125.4561969 391.9862478 1757
134.1597963 390.8707491 1752
143.2204138 390.8707491 1752
151.8464394 389.7552504 1747
160.881199 389.7552504 1747
169.4296507 388.6397517 1742
178.4385524 388.6397517 1742
186.9094304 387.524253 1737
195.8924742 387.524253 1737
204.4037263 386.631854 1733
213.3660837 386.631854 1733
222.3284411 386.631854 1733
231.2907985 386.631854 1733
240.253156 386.631854 1733
248.4964842 385.5163553 1728
258.1778708 386.631854 1733
267.1402282 386.631854 1733
276.739868 387.524253 1737
285.7229117 387.524253 1737
295.5542743 388.6397517 1742
306.3115295 390.8707491 1752
315.372147 390.8707491 1752
325.3586571 391.9862478 1757
336.3486336 394.2172453 1767
347.4420418 396.4482427 1777
356.631949 396.4482427 1777
366.8511805 397.5637414 1782
376.0669456 397.5637414 1782
386.5799589 398.9023398 1788
396.9336515 400.0178386 1793
406.2063041 400.0178386 1793
415.4789566 400.0178386 1793
425.936081 401.1333373 1798
435.2345915 401.1333373 1798
445.7692897 402.248836 1803
453.8316124 401.1333373 1798
463.1301229 401.1333373 1798
471.1148718 400.0178386 1793
481.7271438 401.1333373 1798
491.0256543 401.1333373 1798
503.1068353 403.3643347 1808
514.1576934 404.7029332 1814
523.5389493 404.7029332 1814
532.9202051 404.7029332 1814
542.3014609 404.7029332 1814
548.3373419 402.248836 1803
556.1152275 401.1333373 1798
565.413738 401.1333373 1798
574.7122484 401.1333373 1798
582.3867023 400.0178386 1793
591.6593548 400.0178386 1793
602.6077798 401.1333373 1798
610.2046599 400.0178386 1793
619.4773124 400.0178386 1793
626.9966187 398.9023398 1788
636.2434133 398.9023398 1788
645.4902079 398.9023398 1788
654.7370025 398.9023398 1788
667.697353 401.1333373 1798
676.9958635 401.1333373 1798
688.2028678 402.248836 1803
697.5272362 402.248836 1803
708.8118142 403.3643347 1808
718.1620405 403.3643347 1808
727.5122669 403.3643347 1808
736.8624932 403.3643347 1808
748.6890891 404.7029332 1814
758.070345 404.7029332 1814
767.4516008 404.7029332 1814
776.8328566 404.7029332 1814
788.3811855 405.8184319 1819
795.5953683 404.7029332 1814
804.9766241 404.7029332 1814
816.6025268 405.8184319 1819
826.0096405 405.8184319 1819
837.713117 406.9339306 1824
847.1460887 406.9339306 1824
856.5790604 406.9339306 1824
868.8607558 408.272529 1830
878.324757 408.272529 1830
887.7887582 408.272529 1830
899.7042697 409.3880278 1835
912.1669706 410.7266262 1841
921.6878593 410.7266262 1841
933.737832 411.8421249 1846
943.2845785 411.8421249 1846
955.928285 413.1807234 1852
965.506061 413.1807234 1852
975.0838371 413.1807234 1852
987.3199869 414.2962221 1857
996.9236209 414.2962221 1857
1009.779362 415.6348205 1863
1019.414026 415.6348205 1863
1031.810495 416.7503193 1868
1041.471016 416.7503193 1868
1051.131538 416.7503193 1868
1060.792059 416.7503193 1868
1070.45258 416.7503193 1868
1080.113102 416.7503193 1868
1089.773623 416.7503193 1868
1099.434145 416.7503193 1868
1112.657069 418.0889177 1874
1125.942052 419.4275162 1880
1138.685017 420.5430149 1885
1155.744438 423.2202118 1897
1172.927976 425.8974087 1909
1182.800533 425.8974087 1909
1192.673089 425.8974087 1909
1205.69532 427.0129074 1914
1215.593734 427.0129074 1914
1222.290758 425.8974087 1909
1228.290617 424.5588103 1903
1234.228417 423.2202118 1897
1244.038914 423.2202118 1897
1249.883625 421.8816133 1891
1259.663093 421.8816133 1891
1265.414716 420.5430149 1885
1271.780759 419.4275162 1880
1281.503339 419.4275162 1880
1287.104986 418.0889177 1874
1285.032641 414.2962221 1857
1291.150447 413.1807234 1852
1296.514201 411.8421249 1846
1306.060948 411.8421249 1846
1304.204811 408.272529 1830
1305.772442 405.8184319 1819
1307.226298 403.3643347 1808
1312.93555 402.248836 1803
1314.926253 400.0178386 1793
1324.198905 400.0178386 1793
1329.753009 398.9023398 1788
1338.999804 398.9023398 1788
1343.722281 397.5637414 1782
1357.493393 398.9023398 1788
-216.9648305 526.3936824 2306
-199.0818159 511.0995034 2239
-183.566672 500.370751 2192
-167.4376445 486.4462 2131
-152.2331535 473.4347343 2074
-137.8229106 461.1080826 2020
-121.4488958 439.6505777 1926
-109.1150967 430.2914533 1885
-97.89065493 423.8998561 1857
-87.24107885 418.8778869 1835
-77.28513612 416.3669023 1824
-67.25697001 412.714561 1808
-57.74660337 411.5732044 1803
-48.28795257 410.4318477 1798
-38.98944211 410.4318477 1798
-29.52579855 408.1491345 1788
-20.27900394 408.1491345 1788
-10.99518849 406.7795065 1782
-1.785414718 408.1491345 1788
7.461379891 408.1491345 1788
16.80162067 410.4318477 1798
26.10013113 410.4318477 1798
35.49708053 411.5732044 1803
44.94574578 412.714561 1808
54.2959721 412.714561 1808
63.4701857 411.5732044 1803
72.59268344 410.4318477 1798
81.43573676 408.1491345 1788
90.37822758 406.7795065 1782
99.31454825 405.6381498 1777
108.1991531 404.4967932 1772
116.7008818 402.2140799 1762
125.8132151 402.2140799 1762
134.9255485 402.2140799 1762
143.6291479 401.0727233 1757
152.2810313 399.9313666 1752
160.881199 398.79001 1747
169.4296507 397.6486534 1742
178.4385524 397.6486534 1742
186.9094304 396.5072967 1737
195.4413689 395.5942114 1733
204.4037263 395.5942114 1733
213.3660837 395.5942114 1733
222.3284411 395.5942114 1733
230.6234852 394.4528548 1728
239.5599847 394.4528548 1728
248.4964842 394.4528548 1728
257.4329837 394.4528548 1728
267.1402282 395.5942114 1733
276.1025856 395.5942114 1733
285.064943 395.5942114 1733
294.7059555 396.5072967 1737
305.4373527 398.79001 1747
315.372147 399.9313666 1752
324.4327645 399.9313666 1752
335.3968831 402.2140799 1762
345.4868249 403.3554366 1767
355.6284826 404.4967932 1772
364.7925319 404.4967932 1772
373.9565811 404.4967932 1772
384.2016705 405.6381498 1777
393.3915777 405.6381498 1777
402.5814849 405.6381498 1777
412.930006 406.7795065 1782
423.5671373 408.1491345 1788
432.8139319 408.1491345 1788
444.5331019 410.4318477 1798
453.8316124 410.4318477 1798
464.4180264 411.5732044 1803
473.7423948 411.5732044 1803
484.4063826 412.714561 1808
495.3951818 414.084189 1814
506.1677729 415.2255456 1819
515.5748866 415.2255456 1819
526.4250515 416.3669023 1824
535.8580232 416.3669023 1824
543.7962279 415.2255456 1819
549.8579668 412.714561 1808
557.6617103 411.5732044 1803
565.413738 410.4318477 1798
574.7122484 410.4318477 1798
582.3867023 409.2904911 1793
593.3092693 410.4318477 1798
602.6077798 410.4318477 1798
611.9062903 410.4318477 1798
621.2048007 410.4318477 1798
628.7499649 409.2904911 1793
638.0226175 409.2904911 1793
647.29527 409.2904911 1793
658.3988426 410.4318477 1798
667.697353 410.4318477 1798
678.8784994 411.5732044 1803
688.2028678 411.5732044 1803
699.4615879 412.714561 1808
711.1640658 414.084189 1814
720.5453216 414.084189 1814
729.9265775 414.084189 1814
739.3078333 414.084189 1814
748.6890891 414.084189 1814
758.070345 414.084189 1814
767.4516008 414.084189 1814
776.8328566 414.084189 1814
786.2141124 414.084189 1814
795.5953683 414.084189 1814
804.9766241 414.084189 1814
816.6025268 415.2255456 1819
826.0096405 415.2255456 1819
837.713117 416.3669023 1824
847.1460887 416.3669023 1824
859.3967546 417.7365302 1830
868.8607558 417.7365302 1830
878.324757 417.7365302 1830
890.2144106 418.8778869 1835
899.7042697 418.8778869 1835
909.1941288 418.8778869 1835
921.6878593 420.2475148 1841
931.2087479 420.2475148 1841
943.2845785 421.3888715 1846
952.8313251 421.3888715 1846
965.506061 422.7584994 1852
975.0838371 422.7584994 1852
984.6616132 422.7584994 1852
996.9236209 423.8998561 1857
1006.527255 423.8998561 1857
1016.130889 423.8998561 1857
1029.048689 425.2694841 1863
1038.683353 425.2694841 1863
1051.131538 426.4108407 1868
1060.792059 426.4108407 1868
1070.45258 426.4108407 1868
1080.113102 426.4108407 1868
1093.273967 427.7804687 1874
1102.965518 427.7804687 1874
1116.219471 429.1500966 1880
1128.936579 430.2914533 1885
1142.309479 431.6610812 1891
1159.399929 434.4003372 1903
1172.927976 435.7699651 1909
1185.898491 436.9113218 1914
1195.796905 436.9113218 1914
1205.69532 436.9113218 1914
1215.593734 436.9113218 1914
1222.290758 435.7699651 1909
1228.290617 434.4003372 1903
1234.228417 433.0307092 1897
1244.038914 433.0307092 1897
1253.849412 433.0307092 1897
1259.663093 431.6610812 1891
1265.414716 430.2914533 1885
1271.780759 429.1500966 1880
1281.503339 429.1500966 1880
1287.104986 427.7804687 1874
1285.032641 423.8998561 1857
1291.150447 422.7584994 1852
1296.514201 421.3888715 1846
1302.523405 420.2475148 1841
1299.928729 416.3669023 1824
1302.183183 414.084189 1814
1307.226298 412.714561 1808
1309.294575 410.4318477 1798
1311.25942 408.1491345 1788
1320.506214 408.1491345 1788
1325.290751 406.7795065 1782
1330.762109 405.6381498 1777
1339.952016 405.6381498 1777
1349.141923 405.6381498 1777
-218.5643111 542.2878877 2323
-199.7931399 524.5462263 2247
-183.566672 511.7068661 2192
-167.4376445 497.4668483 2131
-152.2331535 484.1606023 2074
-137.4135356 470.1540275 2014
-121.0705504 448.2103936 1920
-108.8256668 438.8726771 1880
-97.6270829 432.3362755 1852
-87.00336473 427.2005314 1830
-77.07327993 424.6326594 1819
-67.07097175 420.8975728 1803
-57.58646303 419.7303582 1798
-48.28795257 419.7303582 1798
-38.88101763 418.5631436 1793
-29.52579855 417.3959291 1788
-20.21095359 415.9952716 1782
-10.99518849 415.9952716 1782
-1.785414718 417.3959291 1788
7.461379891 417.3959291 1788
16.80162067 419.7303582 1798
26.17271214 420.8975728 1803
35.59551946 422.0647873 1808
44.94574578 422.0647873 1808
54.2959721 422.0647873 1808
63.64619841 422.0647873 1808
72.79455408 420.8975728 1803
81.66346533 418.5631436 1793
90.68253137 417.3959291 1788
99.59399267 415.9952716 1782
108.1991531 413.6608425 1772
117.032042 412.4936279 1767
125.8132151 411.3264133 1762
134.9255485 411.3264133 1762
144.0378819 411.3264133 1762
152.2810313 408.9919842 1752
160.881199 407.8247696 1747
169.4296507 406.6575551 1742
178.4385524 406.6575551 1742
186.9094304 405.4903405 1737
195.4413689 404.5565688 1733
204.4037263 404.5565688 1733
213.3660837 404.5565688 1733
221.6869857 403.3893543 1728
230.6234852 403.3893543 1728
239.5599847 403.3893543 1728
248.4964842 403.3893543 1728
257.4329837 403.3893543 1728
267.1402282 404.5565688 1733
276.1025856 404.5565688 1733
285.064943 404.5565688 1733
294.7059555 405.4903405 1737
304.563176 406.6575551 1742
314.4721123 407.8247696 1747
324.4327645 408.9919842 1752
334.4451326 410.1591988 1757
344.5092165 411.3264133 1762
354.6250163 412.4936279 1767
363.7632076 412.4936279 1767
372.9013989 412.4936279 1767
382.0395902 412.4936279 1767
391.1777815 412.4936279 1767
401.4487289 413.6608425 1772
410.6127781 413.6608425 1772
420.9612992 414.828057 1777
430.1512064 414.828057 1777
440.5773013 415.9952716 1782
452.5695668 418.5631436 1793
463.1301229 419.7303582 1798
473.7423948 420.8975728 1803
484.4063826 422.0647873 1808
495.3951818 423.4654448 1814
507.5591081 425.7998739 1824
516.9920798 425.7998739 1824
528.1567129 427.2005314 1830
537.6207141 427.2005314 1830
545.2909949 425.7998739 1824
549.8579668 422.0647873 1808
557.6617103 420.8975728 1803
565.413738 419.7303582 1798
574.7122484 419.7303582 1798
582.3867023 418.5631436 1793
593.3092693 419.7303582 1798
602.6077798 419.7303582 1798
611.9062903 419.7303582 1798
621.2048007 419.7303582 1798
630.5033112 419.7303582 1798
639.8018217 419.7303582 1798
649.1003321 419.7303582 1798
658.3988426 419.7303582 1798
669.554131 420.8975728 1803
680.7611353 422.0647873 1808
690.1113616 422.0647873 1808
701.78281 423.4654448 1814
713.1242755 424.6326594 1819
722.5313892 424.6326594 1819
729.9265775 423.4654448 1814
739.3078333 423.4654448 1814
748.6890891 423.4654448 1814
758.070345 423.4654448 1814
767.4516008 423.4654448 1814
776.8328566 423.4654448 1814
786.2141124 423.4654448 1814
795.5953683 423.4654448 1814
804.9766241 423.4654448 1814
814.3578799 423.4654448 1814
826.0096405 424.6326594 1819
837.713117 425.7998739 1824
849.9327535 427.2005314 1830
859.3967546 427.2005314 1830
871.2346923 428.367746 1835
880.7245514 428.367746 1835
890.2144106 428.367746 1835
899.7042697 428.367746 1835
912.1669706 429.7684035 1841
921.6878593 429.7684035 1841
931.2087479 429.7684035 1841
943.2845785 430.935618 1846
952.8313251 430.935618 1846
962.3780716 430.935618 1846
971.9248182 430.935618 1846
981.4715648 430.935618 1846
991.0183113 430.935618 1846
1000.565058 430.935618 1846
1013.394941 432.3362755 1852
1025.734523 433.5034901 1857
1035.338157 433.5034901 1857
1044.941791 433.5034901 1857
1057.95268 434.9041476 1863
1067.587343 434.9041476 1863
1080.113102 436.0713621 1868
1093.273967 437.4720196 1874
1102.965518 437.4720196 1874
1119.18814 440.0398917 1885
1132.530011 441.4405491 1891
1145.93394 442.8412066 1897
1163.05542 445.6425216 1909
1176.000077 446.8097361 1914
1185.898491 446.8097361 1914
1195.796905 446.8097361 1914
1202.545645 445.6425216 1909
1208.607563 444.2418641 1903
1218.44909 444.2418641 1903
1224.417919 442.8412066 1897
1230.32469 441.4405491 1891
1236.169401 440.0398917 1885
1245.917839 440.0398917 1885
1252.335598 438.8726771 1880
1258.030333 437.4720196 1874
1263.663009 436.0713621 1868
1273.323531 436.0713621 1868
1279.549941 434.9041476 1863
1281.572671 432.3362755 1852
1291.150447 432.3362755 1852
1293.002516 429.7684035 1841
1298.278353 428.367746 1835
1296.365328 424.6326594 1819
1302.183183 423.4654448 1814
1303.611181 420.8975728 1803
1305.6536 418.5631436 1793
1314.926253 418.5631436 1793
1316.074985 415.9952716 1782
1321.572202 414.828057 1777
1327.017702 413.6608425 1772
1336.181752 413.6608425 1772
-218.5643111 554.3014805 2323
-200.5933794 538.3143091 2256
-183.566672 523.0429811 2192
-168.0662232 510.3964127 2139
-152.2331535 494.8864703 2074
-137.4135356 480.5696004 2014
-123.7820262 468.4002609 1963
-108.8256668 448.5952576 1880
-97.6270829 441.9140516 1852
-86.7181078 435.2328456 1824
-76.86142375 432.8467006 1814
-67.07097175 430.2219412 1803
-57.58646303 429.0288687 1798
-48.15367017 427.8357962 1793
-38.88101763 427.8357962 1793
-29.42671868 425.2110367 1782
-20.21095359 425.2110367 1782
-10.99518849 425.2110367 1782
-1.779423394 425.2110367 1782
7.461379891 426.6427237 1788
16.80162067 429.0288687 1798
26.17271214 430.2219412 1803
35.49708053 430.2219412 1803
44.94574578 431.4150136 1808
54.2959721 431.4150136 1808
63.64619841 431.4150136 1808
72.79455408 430.2219412 1803
81.66346533 427.8357962 1793
90.68253137 426.6427237 1788
99.59399267 425.2110367 1782
108.5044554 424.0179642 1777
117.032042 421.6318192 1767
125.8132151 420.4387467 1762
134.9255485 420.4387467 1762
144.0378819 420.4387467 1762
152.2810313 418.0526017 1752
160.881199 416.8595292 1747
169.4296507 415.6664567 1742
178.4385524 415.6664567 1742
186.9094304 414.4733842 1737
195.4413689 413.5189262 1733
204.4037263 413.5189262 1733
213.3660837 413.5189262 1733
221.6869857 412.3258538 1728
230.6234852 412.3258538 1728
239.5599847 412.3258538 1728
248.4964842 412.3258538 1728
257.4329837 412.3258538 1728
266.3694832 412.3258538 1728
275.3059827 412.3258538 1728
284.2424821 412.3258538 1728
294.7059555 414.4733842 1737
304.563176 415.6664567 1742
314.4721123 416.8595292 1747
323.5068719 416.8595292 1747
333.4933821 418.0526017 1752
343.5316081 419.2456742 1757
353.6215499 420.4387467 1762
362.7338833 420.4387467 1762
371.8462167 420.4387467 1762
380.9585501 420.4387467 1762
390.0708835 420.4387467 1762
399.1832168 420.4387467 1762
408.2955502 420.4387467 1762
418.5923555 421.6318192 1767
427.7305468 421.6318192 1767
435.6325504 420.4387467 1762
447.2689751 422.8248917 1772
457.7209279 424.0179642 1777
468.2245965 425.2110367 1782
483.0667632 430.2219412 1803
493.756609 431.4150136 1808
506.1677729 434.0397731 1819
516.9920798 435.2328456 1824
528.1567129 436.6645326 1830
537.6207141 436.6645326 1830
547.0847152 436.6645326 1830
551.6827167 432.8467006 1814
557.6617103 430.2219412 1803
566.9860787 430.2219412 1803
574.7122484 429.0288687 1798
584.0107589 429.0288687 1798
593.3092693 429.0288687 1798
604.2835523 430.2219412 1803
613.6079207 430.2219412 1803
622.9322891 430.2219412 1803
632.2566574 430.2219412 1803
641.5810258 430.2219412 1803
650.9053942 430.2219412 1803
662.0606826 431.4150136 1808
671.410909 431.4150136 1808
680.7611353 431.4150136 1808
692.4015542 432.8467006 1814
703.7171617 434.0397731 1819
713.1242755 434.0397731 1819
722.5313892 434.0397731 1819
729.9265775 432.8467006 1814
736.8624932 431.4150136 1808
746.2127195 431.4150136 1808
755.5629458 431.4150136 1808
764.9131721 431.4150136 1808
772.1221833 430.2219412 1803
783.6136247 431.4150136 1808
792.9638511 431.4150136 1808
802.3140774 431.4150136 1808
811.6643037 431.4150136 1808
826.0096405 434.0397731 1819
837.713117 435.2328456 1824
849.9327535 436.6645326 1830
861.7448332 437.8576051 1835
874.0834161 439.2892921 1841
883.6043048 439.2892921 1841
893.1251934 439.2892921 1841
902.646082 439.2892921 1841
912.1669706 439.2892921 1841
921.6878593 439.2892921 1841
931.2087479 439.2892921 1841
940.7296365 439.2892921 1841
950.2505252 439.2892921 1841
959.7714138 439.2892921 1841
969.2923024 439.2892921 1841
978.8131911 439.2892921 1841
988.3340797 439.2892921 1841
997.8549683 439.2892921 1841
1010.111804 440.4823646 1846
1019.658551 440.4823646 1846
1032.550494 441.9140516 1852
1042.12827 441.9140516 1852
1051.706046 441.9140516 1852
1067.587343 444.5388111 1863
1080.113102 445.7318836 1868
1093.273967 447.1635706 1874
1106.496891 448.5952576 1880
1126.312945 452.651704 1897
1143.310307 455.515078 1909
1156.203248 456.7081505 1914
1166.101662 456.7081505 1914
1176.000077 456.7081505 1914
1185.898491 456.7081505 1914
1195.796905 456.7081505 1914
1202.545645 455.515078 1909
1208.607563 454.083391 1903
1214.607422 452.651704 1897
1224.417919 452.651704 1897
1223.167856 448.5952576 1880
1232.890437 448.5952576 1880
1242.613017 448.5952576 1880
1244.341966 445.7318836 1868
1254.002488 445.7318836 1868
1263.663009 445.7318836 1868
1269.915277 444.5388111 1863
1279.549941 444.5388111 1863
1281.572671 441.9140516 1852
1286.967455 440.4823646 1846
1296.514201 440.4823646 1846
1302.523405 439.2892921 1841
1299.928729 435.2328456 1824
1305.772442 434.0397731 1819
1311.564439 432.8467006 1814
1312.93555 430.2219412 1803
1318.593085 429.0288687 1798
1320.506214 426.6427237 1788
1317.853653 422.8248917 1772
1327.017702 422.8248917 1772
-219.4110949 568.509148 2332
-200.5933794 549.9814056 2256
-184.2366234 536.3293849 2200
-167.4376445 519.5081451 2131
-152.2331535 505.6123383 2074
-137.4135356 490.9851733 2014
-123.7820262 478.552083 1963
-108.4783508 456.8551215 1874
-97.31079645 450.0291112 1846
-86.7181078 444.6658173 1824
-76.86142375 442.2279565 1814
-67.07097175 439.5463095 1803
-57.58646303 438.3273791 1798
-48.15367017 437.1084487 1793
-38.77259315 435.8895183 1788
-29.42671868 434.4268018 1782
-20.21095359 434.4268018 1782
-10.99518849 434.4268018 1782
-1.785414718 435.8895183 1788
7.461379891 435.8895183 1788
16.80162067 438.3273791 1798
26.17271214 439.5463095 1803
35.59551946 440.76524 1808
44.94574578 440.76524 1808
54.47615784 442.2279565 1814
63.64619841 440.76524 1808
72.79455408 439.5463095 1803
81.66346533 437.1084487 1793
90.68253137 435.8895183 1788
99.59399267 434.4268018 1782
108.5044554 433.2078714 1777
117.032042 430.7700105 1767
125.8132151 429.5510801 1762
134.9255485 429.5510801 1762
144.0378819 429.5510801 1762
152.2810313 427.1132193 1752
161.3416489 427.1132193 1752
169.9159586 425.8942888 1747
178.4385524 424.6753584 1742
186.9094304 423.456428 1737
195.4413689 422.4812837 1733
204.4037263 422.4812837 1733
213.3660837 422.4812837 1733
221.6869857 421.2623532 1728
230.6234852 421.2623532 1728
239.5599847 421.2623532 1728
247.777455 420.0434228 1723
256.6880966 420.0434228 1723
266.3694832 421.2623532 1728
275.3059827 421.2623532 1728
284.2424821 421.2623532 1728
294.0273004 422.4812837 1733
303.6889992 423.456428 1737
313.5720777 424.6753584 1742
323.5068719 425.8942888 1747
332.5416316 425.8942888 1747
342.5539996 427.1132193 1752
351.6146171 427.1132193 1752
360.6752347 427.1132193 1752
369.7358522 427.1132193 1752
378.7964698 427.1132193 1752
386.7501892 425.8942888 1747
395.7849488 425.8942888 1747
404.8197084 425.8942888 1747
413.854468 425.8942888 1747
424.0995574 427.1132193 1752
433.160175 427.1132193 1752
444.7448838 429.5510801 1762
455.1451207 430.7700105 1767
465.5970736 431.9889409 1772
476.1007422 433.2078714 1777
489.6601769 437.1084487 1793
503.1068353 440.76524 1808
514.1576934 442.2279565 1814
526.4250515 444.6658173 1824
535.8580232 444.6658173 1824
545.2909949 444.6658173 1824
553.2033416 443.4468869 1819
561.0639726 442.2279565 1814
568.5584195 440.76524 1808
577.9086458 440.76524 1808
587.2588721 440.76524 1808
598.5889959 442.2279565 1814
607.9702517 442.2279565 1814
619.0531379 443.4468869 1819
628.4602517 443.4468869 1819
637.8673654 443.4468869 1819
647.2744792 443.4468869 1819
656.6815929 443.4468869 1819
666.0887067 443.4468869 1819
673.6390425 442.2279565 1814
683.0202983 442.2279565 1814
694.310048 443.4468869 1819
703.7171617 443.4468869 1819
713.1242755 443.4468869 1819
720.5453216 442.2279565 1814
727.5122669 440.76524 1808
736.8624932 440.76524 1808
746.2127195 440.76524 1808
753.4734465 439.5463095 1803
762.7978149 439.5463095 1803
769.9809681 438.3273791 1798
779.2794786 438.3273791 1798
790.7709201 439.5463095 1803
802.3140774 440.76524 1808
811.6643037 440.76524 1808
826.0096405 443.4468869 1819
840.4687523 446.1285338 1830
855.0416389 448.8101807 1841
866.9106061 450.0291112 1846
879.3060764 451.4918277 1852
886.0040992 450.0291112 1846
898.4616285 451.4918277 1852
905.0975923 450.0291112 1846
914.6443388 450.0291112 1846
924.1910854 450.0291112 1846
931.2087479 448.8101807 1841
940.7296365 448.8101807 1841
950.2505252 448.8101807 1841
959.7714138 448.8101807 1841
966.1332835 447.3474642 1835
978.8131911 448.8101807 1841
988.3340797 448.8101807 1841
994.6028609 447.3474642 1835
1007.375857 448.8101807 1841
1016.896746 448.8101807 1841
1026.417634 448.8101807 1841
1038.752044 450.0291112 1846
1048.298791 450.0291112 1846
1064.149059 452.7107581 1857
1080.113102 455.392405 1868
1093.273967 456.8551215 1874
1106.496891 458.317838 1880
1126.312945 462.4622014 1897
1139.716875 463.9249179 1903
1153.182863 465.3876345 1909
1163.05542 465.3876345 1909
1172.927976 465.3876345 1909
1182.800533 465.3876345 1909
1192.673089 465.3876345 1909
1194.986427 462.4622014 1897
1204.796925 462.4622014 1897
1210.765754 460.9994849 1891
1216.672524 459.5367684 1885
1223.167856 458.317838 1880
1232.890437 458.317838 1880
1234.681445 455.392405 1868
1244.341966 455.392405 1868
1254.002488 455.392405 1868
1260.280614 454.1734746 1863
1269.915277 454.1734746 1863
1275.429007 452.7107581 1857
1281.572671 451.4918277 1852
1291.150447 451.4918277 1852
1296.514201 450.0291112 1846
1306.060948 450.0291112 1846
1307.768212 447.3474642 1835
1313.668812 446.1285338 1830
1318.794673 444.6658173 1824
1320.945695 442.2279565 1814
1325.926751 440.76524 1808
1327.891596 438.3273791 1798
-218.5643111 578.328666 2323
-201.3047035 563.6401635 2264
-184.2366234 547.7068727 2200
-168.0662232 532.5204549 2139
-151.792749 514.8444603 2068
-136.9359315 499.6580425 2007
-123.4036808 487.210159 1957
-108.1310349 465.0529264 1868
-97.04722441 458.3310694 1841
-86.48039369 452.8540006 1819
-76.60719633 450.1154663 1808
-66.8849735 447.6258896 1798
-57.4263227 446.3811012 1793
-48.15367017 446.3811012 1793
-38.88101763 446.3811012 1793
-29.52579855 445.1363129 1788
-20.27900394 445.1363129 1788
-10.99518849 443.6425669 1782
-1.785414718 445.1363129 1788
7.482245047 446.3811012 1793
16.80162067 447.6258896 1798
26.10013113 447.6258896 1798
35.49708053 448.8706779 1803
44.94574578 450.1154663 1808
54.2959721 450.1154663 1808
63.4701857 448.8706779 1803
72.79455408 448.8706779 1803
81.43573676 445.1363129 1788
90.37822758 443.6425669 1782
99.31454825 442.3977785 1777
108.1991531 441.1529902 1772
117.032042 439.9082018 1767
125.8132151 438.6634135 1762
134.9255485 438.6634135 1762
144.0378819 438.6634135 1762
152.2810313 436.1738368 1752
161.3416489 436.1738368 1752
169.9159586 434.9290484 1747
178.4385524 433.6842601 1742
186.9094304 432.4394718 1737
195.8924742 432.4394718 1737
204.4037263 431.4436411 1733
213.3660837 431.4436411 1733
221.6869857 430.1988527 1728
230.6234852 430.1988527 1728
239.5599847 430.1988527 1728
247.777455 428.9540644 1723
256.6880966 428.9540644 1723
266.3694832 430.1988527 1728
275.3059827 430.1988527 1728
284.2424821 430.1988527 1728
294.0273004 431.4436411 1733
302.9896579 431.4436411 1733
312.672043 432.4394718 1737
322.5809794 433.6842601 1742
332.5416316 434.9290484 1747
341.5763912 434.9290484 1747
351.6146171 436.1738368 1752
359.6459104 434.9290484 1747
368.68067 434.9290484 1747
377.7154296 434.9290484 1747
385.6432911 433.6842601 1742
395.7849488 434.9290484 1747
403.6610945 433.6842601 1742
412.6699962 433.6842601 1742
421.6788979 433.6842601 1742
430.6877995 433.6842601 1742
442.2207925 436.1738368 1752
452.5693136 437.4186251 1757
461.6557891 437.4186251 1757
473.4215034 439.9082018 1767
488.2946996 445.1363129 1788
500.3241647 447.6258896 1798
512.4570616 450.1154663 1808
524.9820004 452.8540006 1819
535.8580232 454.098789 1824
545.2909949 454.098789 1824
553.2033416 452.8540006 1819
561.0639726 451.6092123 1814
568.5584195 450.1154663 1808
579.8264842 451.6092123 1814
589.20774 451.6092123 1814
600.2389104 452.8540006 1819
609.6460242 452.8540006 1819
620.7547683 454.098789 1824
630.18774 454.098789 1824
641.7247272 455.592535 1830
649.0536834 454.098789 1824
660.6527296 455.592535 1830
670.1167308 455.592535 1830
677.3525984 454.098789 1824
686.7855701 454.098789 1824
694.310048 452.8540006 1819
703.7171617 452.8540006 1819
711.1640658 451.6092123 1814
720.5453216 451.6092123 1814
727.5122669 450.1154663 1808
734.8247097 448.8706779 1803
742.0854367 447.6258896 1798
751.3839472 447.6258896 1798
758.5671004 446.3811012 1793
765.6985378 445.1363129 1788
777.1124055 446.3811012 1793
788.5779891 447.6258896 1798
800.0952884 448.8706779 1803
809.4196568 448.8706779 1803
826.0096405 452.8540006 1819
840.4687523 455.592535 1830
855.0416389 458.3310694 1841
869.7283003 461.0696037 1852
879.3060764 461.0696037 1852
891.2836469 462.3143921 1857
898.4616285 461.0696037 1852
908.0394046 461.0696037 1852
914.6443388 459.5758577 1846
924.1910854 459.5758577 1846
931.2087479 458.3310694 1841
940.7296365 458.3310694 1841
950.2505252 458.3310694 1841
959.7714138 458.3310694 1841
966.1332835 456.8373234 1835
975.6231427 456.8373234 1835
985.1130018 456.8373234 1835
994.6028609 456.8373234 1835
1004.09272 456.8373234 1835
1013.582579 456.8373234 1835
1023.072438 456.8373234 1835
1035.938523 458.3310694 1841
1048.298791 459.5758577 1846
1064.149059 462.3143921 1857
1077.222007 463.8081381 1863
1089.773623 465.0529264 1868
1106.496891 468.0404185 1880
1122.750543 470.7789528 1891
1136.123443 472.2726989 1897
1149.558402 473.7664449 1903
1159.399929 473.7664449 1903
1169.241456 473.7664449 1903
1175.365432 472.2726989 1897
1181.42735 470.7789528 1891
1184.277535 468.0404185 1880
1190.189476 466.5466725 1874
1199.881027 466.5466725 1874
1260.280614 463.8081381 1863
1269.915277 463.8081381 1863
1275.429007 462.3143921 1857
1281.572671 461.0696037 1852
1291.150447 461.0696037 1852
1296.514201 459.5758577 1846
1302.523405 458.3310694 1841
1307.768212 456.8373234 1835
1313.668812 455.592535 1830
1318.794673 454.098789 1824
1320.945695 451.6092123 1814
1325.926751 450.1154663 1808
1331.584287 448.8706779 1803
-218.5643111 590.3422588 2323
-200.5933794 573.3155987 2256
-184.2366234 559.0843605 2200
-167.4376445 541.5494419 2131
-151.792749 525.5392988 2068
-136.9359315 510.0374143 2007
-123.0253353 495.806176 1951
-107.8416049 473.4428016 1863
-96.73093797 466.3271825 1835
-86.48039369 462.2611144 1819
-76.60719633 459.4656926 1808
-66.8849735 456.9244 1798
-57.4263227 455.6537538 1793
-48.15367017 455.6537538 1793
-38.77259315 454.3831075 1788
-29.52579855 454.3831075 1788
-20.27900394 454.3831075 1788
-11.03220933 454.3831075 1788
-1.785414718 454.3831075 1788
7.482245047 455.6537538 1793
16.80162067 456.9244 1798
26.17271214 458.1950463 1803
35.49708053 458.1950463 1803
44.82144892 458.1950463 1803
54.14581731 458.1950463 1803
63.4701857 458.1950463 1803
72.59268344 456.9244 1798
81.43573676 454.3831075 1788
90.37822758 452.858332 1782
99.31454825 451.5876857 1777
108.1991531 450.3170394 1772
116.7008818 447.7757469 1762
125.8132151 447.7757469 1762
134.9255485 447.7757469 1762
143.6291479 446.5051006 1757
152.2810313 445.2344543 1752
161.3416489 445.2344543 1752
169.9159586 443.9638081 1747
178.9507182 443.9638081 1747
187.4474541 442.6931618 1742
195.8924742 441.4225155 1737
204.8755179 441.4225155 1737
213.8585617 441.4225155 1737
221.6869857 439.1353522 1728
230.6234852 439.1353522 1728
239.5599847 439.1353522 1728
247.777455 437.8647059 1723
257.4329837 439.1353522 1728
266.3694832 439.1353522 1728
275.3059827 439.1353522 1728
284.2424821 439.1353522 1728
294.0273004 440.4059985 1733
303.6889992 441.4225155 1737
313.5720777 442.6931618 1742
322.5809794 442.6931618 1742
332.5416316 443.9638081 1747
342.5539996 445.2344543 1752
351.6146171 445.2344543 1752
360.6752347 445.2344543 1752
368.68067 443.9638081 1747
377.7154296 443.9638081 1747
386.7501892 443.9638081 1747
395.7849488 443.9638081 1747
403.6610945 442.6931618 1742
413.854468 443.9638081 1747
422.8892276 443.9638081 1747
431.9239873 443.9638081 1747
442.2207925 445.2344543 1752
452.5693136 446.5051006 1757
462.9695506 447.7757469 1762
473.4215034 449.0463932 1767
486.6561267 452.858332 1782
500.3241647 456.9244 1798
511.0398684 458.1950463 1803
523.5389493 460.9904681 1814
532.9202051 460.9904681 1814
543.7962279 462.2611144 1819
551.6827167 460.9904681 1814
559.2081932 459.4656926 1808
568.5584195 459.4656926 1808
577.9086458 459.4656926 1808
587.2588721 459.4656926 1808
598.5889959 460.9904681 1814
607.9702517 460.9904681 1814
617.3515075 460.9904681 1814
628.4602517 462.2611144 1819
639.6207117 463.5317607 1824
649.0536834 463.5317607 1824
660.6527296 465.0565362 1830
670.1167308 465.0565362 1830
679.580732 465.0565362 1830
686.7855701 463.5317607 1824
696.2185418 463.5317607 1824
703.7171617 462.2611144 1819
713.1242755 462.2611144 1819
720.5453216 460.9904681 1814
727.5122669 459.4656926 1808
732.7869263 456.9244 1798
742.0854367 456.9244 1798
751.3839472 456.9244 1798
758.5671004 455.6537538 1793
765.6985378 454.3831075 1788
774.9453324 454.3831075 1788
786.3850581 455.6537538 1793
797.8764995 456.9244 1798
809.4196568 458.1950463 1803
826.0096405 462.2611144 1819
840.4687523 465.0565362 1830
855.0416389 467.851958 1841
872.0763789 471.9180261 1857
881.6800129 471.9180261 1857
891.2836469 471.9180261 1857
900.8872809 471.9180261 1857
908.0394046 470.6473798 1852
914.6443388 469.1226043 1846
924.1910854 469.1226043 1846
931.2087479 467.851958 1841
940.7296365 467.851958 1841
947.1535653 466.3271825 1835
956.6434244 466.3271825 1835
963.5007678 465.0565362 1830
972.964769 465.0565362 1830
982.4287702 465.0565362 1830
991.8927714 465.0565362 1830
1001.356773 465.0565362 1830
1010.820774 465.0565362 1830
1023.072438 466.3271825 1835
1032.562297 466.3271825 1835
1042.052156 466.3271825 1835
1057.845537 469.1226043 1846
1070.861598 470.6473798 1852
1086.85667 473.4428016 1863
1099.434145 474.7134479 1868
1116.219471 477.7629989 1880
1125.942052 477.7629989 1880
1135.664632 477.7629989 1880
1141.731722 476.2382234 1874
1147.736752 474.7134479 1868
1154.299315 473.4428016 1863
1160.185399 471.9180261 1857
1162.859749 469.1226043 1846
1172.406496 469.1226043 1846
1181.953243 469.1226043 1846
1195.372687 470.6473798 1852
1204.950463 470.6473798 1852
1217.807203 471.9180261 1857
1231.376623 473.4428016 1863
1237.014471 471.9180261 1857
1246.618105 471.9180261 1857
1260.280614 473.4428016 1863
1265.825373 471.9180261 1857
1275.429007 471.9180261 1857
1281.572671 470.6473798 1852
1286.967455 469.1226043 1846
1296.514201 469.1226043 1846
1302.523405 467.851958 1841
1304.204811 465.0565362 1830
1313.668812 465.0565362 1830
1318.794673 463.5317607 1824
1324.58667 462.2611144 1819
1330.32695 460.9904681 1814
-217.7175272 600.022144 2314
-200.5933794 584.9826953 2256
-184.2366234 570.4618482 2200
-167.4376445 552.5700903 2131
-151.2789437 534.4190315 2061
-136.5265565 518.8609811 2001
-122.5839322 504.0808332 1944
-107.8416049 483.0774651 1863
-96.73093797 475.8170416 1835
-86.24267958 470.371724 1814
-76.60719633 468.8159189 1808
-66.8849735 466.2229105 1798
-57.4263227 464.9264063 1793
-48.15367017 464.9264063 1793
-38.77259315 463.6299021 1788
-29.52579855 463.6299021 1788
-20.27900394 463.6299021 1788
-11.03220933 463.6299021 1788
-1.790407489 464.9264063 1793
7.482245047 464.9264063 1793
16.80162067 466.2229105 1798
26.10013113 466.2229105 1798
35.49708053 467.5194147 1803
44.82144892 467.5194147 1803
53.99566252 466.2229105 1798
63.29417298 466.2229105 1798
72.3908128 464.9264063 1793
81.16246248 462.0740971 1782
90.12464108 460.7775929 1777
99.03510382 459.4810887 1772
107.8938507 458.1845845 1767
116.7008818 456.8880803 1762
125.8132151 456.8880803 1762
134.9255485 456.8880803 1762
143.6291479 455.5915761 1757
152.2810313 454.2950719 1752
161.3416489 454.2950719 1752
170.4022664 454.2950719 1752
178.9507182 452.9985677 1747
187.4474541 451.7020635 1742
196.4563558 451.7020635 1742
204.8755179 450.4055593 1737
213.8585617 450.4055593 1737
222.3284411 449.3683559 1733
231.2907985 449.3683559 1733
239.5599847 448.0718517 1728
248.4964842 448.0718517 1728
257.4329837 448.0718517 1728
266.3694832 448.0718517 1728
275.3059827 448.0718517 1728
284.2424821 448.0718517 1728
294.0273004 449.3683559 1733
303.6889992 450.4055593 1737
313.5720777 451.7020635 1742
323.5068719 452.9985677 1747
332.5416316 452.9985677 1747
343.5316081 455.5915761 1757
352.6180835 455.5915761 1757
360.6752347 454.2950719 1752
369.7358522 454.2950719 1752
377.7154296 452.9985677 1747
386.7501892 452.9985677 1747
395.7849488 452.9985677 1747
403.6610945 451.7020635 1742
412.6699962 451.7020635 1742
421.6788979 451.7020635 1742
430.6877995 451.7020635 1742
442.2207925 454.2950719 1752
452.5693136 455.5915761 1757
462.9695506 456.8880803 1762
473.4215034 458.1845845 1767
485.2906494 460.7775929 1777
497.5414942 463.6299021 1788
508.205482 464.9264063 1793
520.3642368 467.5194147 1803
529.6886052 467.5194147 1803
539.0129735 467.5194147 1803
546.816717 466.2229105 1798
556.1152275 466.2229105 1798
565.413738 466.2229105 1798
574.7122484 466.2229105 1798
585.6348155 467.5194147 1803
594.9591839 467.5194147 1803
604.2835523 467.5194147 1803
613.6079207 467.5194147 1803
624.6597774 468.8159189 1808
636.1140192 470.371724 1814
645.495275 470.371724 1814
654.8765308 470.371724 1814
666.0887067 471.6682282 1819
677.3525984 472.9647324 1824
686.7855701 472.9647324 1824
694.310048 471.6682282 1819
703.7171617 471.6682282 1819
713.1242755 471.6682282 1819
722.5313892 471.6682282 1819
727.5122669 468.8159189 1808
734.8247097 467.5194147 1803
744.1490781 467.5194147 1803
753.4734465 467.5194147 1803
758.5671004 464.9264063 1793
765.6985378 463.6299021 1788
772.3448447 462.0740971 1782
786.3850581 464.9264063 1793
795.6577106 464.9264063 1793
807.17501 466.2229105 1798
823.7391358 470.371724 1814
840.4687523 474.5205374 1830
857.3638595 478.6693508 1846
872.0763789 481.5216601 1857
881.6800129 481.5216601 1857
891.2836469 481.5216601 1857
900.8872809 481.5216601 1857
908.0394046 480.2251559 1852
917.6171807 480.2251559 1852
924.1910854 478.6693508 1846
931.2087479 477.3728466 1841
940.7296365 477.3728466 1841
950.2505252 477.3728466 1841
956.6434244 475.8170416 1835
966.1332835 475.8170416 1835
972.964769 474.5205374 1830
982.4287702 474.5205374 1830
991.8927714 474.5205374 1830
1001.356773 474.5205374 1830
1010.820774 474.5205374 1830
1020.284775 474.5205374 1830
1032.562297 475.8170416 1835
1042.052156 475.8170416 1835
1057.845537 478.6693508 1846
1070.861598 480.2251559 1852
1083.356327 481.5216601 1857
1096.491334 483.0774651 1863
1109.094666 484.3739693 1868
1122.34862 485.9297744 1874
1132.040171 485.9297744 1874
1138.076231 484.3739693 1868
1144.664651 483.0774651 1863
1150.581765 481.5216601 1857
1157.061582 480.2251559 1852
1159.710075 477.3728466 1841
1172.406496 478.6693508 1846
1181.953243 478.6693508 1846
1195.372687 480.2251559 1852
1204.950463 480.2251559 1852
1221.74196 483.0774651 1863
1234.681445 484.3739693 1868
1241.011287 483.0774651 1863
1250.64595 483.0774651 1863
1263.663009 484.3739693 1868
1273.323531 484.3739693 1868
1275.429007 481.5216601 1857
1281.572671 480.2251559 1852
1286.967455 478.6693508 1846
1296.514201 478.6693508 1846
1302.523405 477.3728466 1841
1304.204811 474.5205374 1830
1313.668812 474.5205374 1830
1318.794673 472.9647324 1824
-216.9648305 609.8734131 2306
-199.7931399 594.26954 2247
-184.2366234 581.839336 2200
-167.4376445 563.5907387 2131
-151.2789437 545.0776689 2061
-136.5265565 529.2093233 2001
-122.2055868 512.5475605 1938
-107.4942889 491.1252941 1857
-96.46736593 483.9845386 1830
-86.24267958 479.7529798 1814
-76.39534014 476.8437831 1803
-66.51297698 472.8766967 1788
-57.26618237 472.8766967 1788
-48.01938776 472.8766967 1788
-38.77259315 472.8766967 1788
-29.42671868 471.2898622 1782
-20.21095359 471.2898622 1782
-11.03220933 472.8766967 1788
-1.785414718 472.8766967 1788
7.461379891 472.8766967 1788
16.75489758 474.1990588 1793
26.02755012 474.1990588 1793
35.30020265 474.1990588 1793
44.57285519 474.1990588 1793
53.84550773 474.1990588 1793
62.94214754 472.8766967 1788
71.94669738 471.2898622 1782
80.93473391 469.9675 1777
89.87105458 468.6451379 1772
98.7556594 467.3227758 1767
107.8938507 467.3227758 1767
116.7008818 466.0004137 1762
125.8132151 466.0004137 1762
134.9255485 466.0004137 1762
143.6291479 464.6780515 1757
152.7156233 464.6780515 1757
161.3416489 463.3556894 1752
170.4022664 463.3556894 1752
179.462884 463.3556894 1752
187.9854778 462.0333273 1747
197.0202374 462.0333273 1747
205.4652575 460.7109651 1742
214.4741592 460.7109651 1742
222.8416054 459.388603 1737
231.8246492 459.388603 1737
240.253156 458.3307133 1733
249.2155134 458.3307133 1733
258.1778708 458.3307133 1733
267.1402282 458.3307133 1733
276.1025856 458.3307133 1733
285.064943 458.3307133 1733
294.7059555 459.388603 1737
304.563176 460.7109651 1742
314.4721123 462.0333273 1747
323.5068719 462.0333273 1747
332.5416316 462.0333273 1747
342.5539996 463.3556894 1752
351.6146171 463.3556894 1752
360.6752347 463.3556894 1752
369.7358522 463.3556894 1752
377.7154296 462.0333273 1747
386.7501892 462.0333273 1747
394.6521928 460.7109651 1742
403.6610945 460.7109651 1742
412.6699962 460.7109651 1742
421.6788979 460.7109651 1742
430.6877995 460.7109651 1742
440.9587469 462.0333273 1747
449.9935065 462.0333273 1747
459.0282661 462.0333273 1747
470.7422645 464.6780515 1757
483.925172 468.6451379 1772
495.8718918 471.2898622 1782
505.0876569 471.2898622 1782
518.9211856 475.521421 1798
528.2196961 475.521421 1798
537.5182066 475.521421 1798
545.2960921 474.1990588 1793
554.5687447 474.1990588 1793
565.413738 475.521421 1798
574.7122484 475.521421 1798
584.0107589 475.521421 1798
594.9591839 476.8437831 1803
604.2835523 476.8437831 1803
613.6079207 476.8437831 1803
622.9322891 476.8437831 1803
634.0100037 478.1661452 1808
645.495275 479.7529798 1814
654.8765308 479.7529798 1814
664.2577867 479.7529798 1814
675.4958205 481.0753419 1819
684.9029342 481.0753419 1819
696.2185418 482.397704 1824
705.6515135 482.397704 1824
715.0844851 482.397704 1824
722.5313892 481.0753419 1819
731.938503 481.0753419 1819
739.3078333 479.7529798 1814
748.6890891 479.7529798 1814
758.070345 479.7529798 1814
760.6824577 475.521421 1798
767.839753 474.1990588 1793
777.1124055 474.1990588 1793
786.3850581 474.1990588 1793
797.8764995 475.521421 1798
807.17501 475.521421 1798
823.7391358 479.7529798 1814
837.713117 482.397704 1824
855.0416389 486.8937353 1841
866.9106061 488.2160974 1846
881.6800129 491.1252941 1857
891.2836469 491.1252941 1857
898.4616285 489.8029319 1852
908.0394046 489.8029319 1852
914.6443388 488.2160974 1846
924.1910854 488.2160974 1846
933.737832 488.2160974 1846
940.7296365 486.8937353 1841
950.2505252 486.8937353 1841
959.7714138 486.8937353 1841
966.1332835 485.3069007 1835
975.6231427 485.3069007 1835
982.4287702 483.9845386 1830
991.8927714 483.9845386 1830
998.0736356 482.397704 1824
1010.820774 483.9845386 1830
1020.284775 483.9845386 1830
1029.748776 483.9845386 1830
1042.052156 485.3069007 1835
1054.9803 486.8937353 1841
1067.392284 488.2160974 1846
1080.439374 489.8029319 1852
1090.01715 489.8029319 1852
1106.125997 492.7121286 1863
1115.760661 492.7121286 1863
1125.395324 492.7121286 1863
1131.374497 491.1252941 1857
1140.978131 491.1252941 1857
1150.581765 491.1252941 1857
1153.313003 488.2160974 1846
1159.710075 486.8937353 1841
1169.230964 486.8937353 1841
