# .PCD v0.7 - Point Cloud Data file format
VERSION 0.7
FIELDS x y z rgb
SIZE 4 4 4 4
TYPE F F F F
COUNT 1 1 1 1
WIDTH 1022
HEIGHT 1
VIEWPOINT 0 0 0 1 0 0 0
POINTS 1022
DATA ascii
-487.2676803 -246.9151634 2404 1.181011543e-38
-480.3657154 -249.7910472 2432 1.181011543e-38
-471.6353641 -251.8452498 2452 1.181011543e-38
-460.6392175 -252.7696411 2461 1.181011543e-38
-449.7319863 -253.7967424 2471 1.181011543e-38
-440.489648 -255.8509451 2491 1.181011543e-38
-427.6072289 -255.8509451 2491 1.181011543e-38
-414.7248098 -255.8509451 2491 1.181011543e-38
-401.8423907 -255.8509451 2491 1.181011543e-38
-363.1951334 -255.8509451 2491 1.181011543e-38
-347.5000871 -253.7967424 2471 1.181011543e-38
-333.3665019 -252.7696411 2461 1.181011543e-38
-320.6392304 -252.7696411 2461 1.181011543e-38
-307.9119588 -252.7696411 2461 1.181011543e-38
-295.1846873 -252.7696411 2461 1.181011543e-38
-1059.162275 -234.4826722 2404 1.181011543e-38
-1034.538255 -231.7515928 2376 1.181011543e-38
-1014.506246 -229.9958989 2358 1.181011543e-38
-998.4860309 -229.118052 2349 1.181011543e-38
-982.9788011 -228.3377436 2341 1.181011543e-38
-967.1395914 -227.4598967 2332 1.181011543e-38
-955.0794543 -227.4598967 2332 1.181011543e-38
-939.3798774 -226.5820497 2323 1.181011543e-38
-927.3662846 -226.5820497 2323 1.181011543e-38
-911.8063405 -225.7042028 2314 1.181011543e-38
-899.839292 -225.7042028 2314 1.181011543e-38
-887.8722435 -225.7042028 2314 1.181011543e-38
-872.8770007 -224.9238944 2306 1.181011543e-38
-857.5911506 -224.0460474 2297 1.181011543e-38
-842.7665701 -223.265739 2289 1.181011543e-38
-830.9288112 -223.265739 2289 1.181011543e-38
-815.8705109 -222.3878921 2280 1.181011543e-38
-801.2579654 -221.6075837 2272 1.181011543e-38
-789.5081235 -221.6075837 2272 1.181011543e-38
-777.7582816 -221.6075837 2272 1.181011543e-38
-766.0084397 -221.6075837 2272 1.181011543e-38
-754.2585977 -221.6075837 2272 1.181011543e-38
-742.5087558 -221.6075837 2272 1.181011543e-38
-730.7589139 -221.6075837 2272 1.181011543e-38
-719.009072 -221.6075837 2272 1.181011543e-38
-707.2592301 -221.6075837 2272 1.181011543e-38
-695.5093881 -221.6075837 2272 1.181011543e-38
-686.1671503 -222.3878921 2280 1.181011543e-38
-674.3759357 -222.3878921 2280 1.181011543e-38
-662.584721 -222.3878921 2280 1.181011543e-38
-650.7935064 -222.3878921 2280 1.181011543e-38
-639.0022918 -222.3878921 2280 1.181011543e-38
-629.6869104 -223.265739 2289 1.181011543e-38
-617.8491516 -223.265739 2289 1.181011543e-38
-606.0113927 -223.265739 2289 1.181011543e-38
-594.1736338 -223.265739 2289 1.181011543e-38
-584.3711249 -224.0460474 2297 1.181011543e-38
-574.7351052 -224.9238944 2306 1.181011543e-38
-562.8094293 -224.9238944 2306 1.181011543e-38
-552.7948854 -225.7042028 2314 1.181011543e-38
-542.9313159 -226.5820497 2323 1.181011543e-38
-532.9746579 -227.4598967 2332 1.181011543e-38
-522.9249114 -228.3377436 2341 1.181011543e-38
-514.5277175 -229.9958989 2358 1.181011543e-38
-506.1677232 -231.7515928 2376 1.181011543e-38
-495.958656 -232.7269783 2386 1.181011543e-38
-485.4434668 -233.6048253 2395 1.181011543e-38
-480.3657154 -237.2137516 2432 1.181011543e-38
-469.711892 -238.1891371 2442 1.181011543e-38
-458.9546368 -239.1645226 2452 1.181011543e-38
-447.9119459 -240.0423695 2461 1.181011543e-38
-436.9529989 -241.017755 2471 1.181011543e-38
-425.8906202 -241.9931405 2481 1.181011543e-38
-413.059917 -241.9931405 2481 1.181011543e-38
-400.2292137 -241.9931405 2481 1.181011543e-38
-388.9599716 -242.968526 2491 1.181011543e-38
-361.7371039 -241.9931405 2481 1.181011543e-38
-347.5000871 -241.017755 2471 1.181011543e-38
-333.3665019 -240.0423695 2461 1.181011543e-38
-320.6392304 -240.0423695 2461 1.181011543e-38
-307.9119588 -240.0423695 2461 1.181011543e-38
-294.1051821 -239.1645226 2452 1.181011543e-38
-1071.594766 -222.050181 2404 1.181011543e-38
-1055.197025 -221.2188783 2395 1.181011543e-38
-1030.61955 -218.6326034 2367 1.181011543e-38
-1014.506246 -217.8013007 2358 1.181011543e-38
-998.4860309 -216.969998 2349 1.181011543e-38
-982.9788011 -216.2310623 2341 1.181011543e-38
-967.1395914 -215.3997596 2332 1.181011543e-38
-951.3934702 -214.5684569 2323 1.181011543e-38
-939.3798774 -214.5684569 2323 1.181011543e-38
-927.3662846 -214.5684569 2323 1.181011543e-38
-911.8063405 -213.7371543 2314 1.181011543e-38
-899.839292 -213.7371543 2314 1.181011543e-38
-884.8026765 -212.9982186 2306 1.181011543e-38
-872.8770007 -212.9982186 2306 1.181011543e-38
-857.5911506 -212.1669159 2297 1.181011543e-38
-842.7665701 -211.4279802 2289 1.181011543e-38
-830.9288112 -211.4279802 2289 1.181011543e-38
-815.8705109 -210.5966775 2280 1.181011543e-38
-801.2579654 -209.8577418 2272 1.181011543e-38
-786.7281653 -209.1188061 2264 1.181011543e-38
-775.0196961 -209.1188061 2264 1.181011543e-38
-763.3112268 -209.1188061 2264 1.181011543e-38
-751.6027576 -209.1188061 2264 1.181011543e-38
-739.8942884 -209.1188061 2264 1.181011543e-38
-728.1858191 -209.1188061 2264 1.181011543e-38
-716.4773499 -209.1188061 2264 1.181011543e-38
-707.2592301 -209.8577418 2272 1.181011543e-38
-695.5093881 -209.8577418 2272 1.181011543e-38
-683.7595462 -209.8577418 2272 1.181011543e-38
-672.0097043 -209.8577418 2272 1.181011543e-38
-660.2598624 -209.8577418 2272 1.181011543e-38
-650.7935064 -210.5966775 2280 1.181011543e-38
-639.0022918 -210.5966775 2280 1.181011543e-38
-627.2110772 -210.5966775 2280 1.181011543e-38
-615.4198626 -210.5966775 2280 1.181011543e-38
-603.628648 -210.5966775 2280 1.181011543e-38
-594.1736338 -211.4279802 2289 1.181011543e-38
-582.335875 -211.4279802 2289 1.181011543e-38
-572.4919933 -212.1669159 2297 1.181011543e-38
-562.8094293 -212.9982186 2306 1.181011543e-38
-550.8837535 -212.9982186 2306 1.181011543e-38
-540.8278369 -213.7371543 2314 1.181011543e-38
-532.9746579 -215.3997596 2332 1.181011543e-38
-522.9249114 -216.2310623 2341 1.181011543e-38
-512.5638712 -216.969998 2349 1.181011543e-38
-504.2504212 -218.6326034 2367 1.181011543e-38
-495.958656 -220.3875757 2386 1.181011543e-38
-485.4434668 -221.2188783 2395 1.181011543e-38
-473.0575199 -221.2188783 2395 1.181011543e-38
-466.0572949 -223.8051533 2423 1.181011543e-38
-455.2111243 -224.636456 2432 1.181011543e-38
-442.6338287 -224.636456 2432 1.181011543e-38
-431.8248577 -225.5601256 2442 1.181011543e-38
-420.912455 -226.4837953 2452 1.181011543e-38
-409.7301312 -227.315098 2461 1.181011543e-38
-398.6160367 -228.2387676 2471 1.181011543e-38
-388.9599716 -230.0861069 2491 1.181011543e-38
-376.0775525 -230.0861069 2491 1.181011543e-38
-360.2790745 -228.2387676 2471 1.181011543e-38
-346.0937735 -227.315098 2461 1.181011543e-38
-333.3665019 -227.315098 2461 1.181011543e-38
-320.6392304 -227.315098 2461 1.181011543e-38
-307.9119588 -227.315098 2461 1.181011543e-38
-294.1051821 -226.4837953 2452 1.181011543e-38
-1071.594766 -209.6176898 2404 1.181011543e-38
-1055.197025 -208.8329314 2395 1.181011543e-38
-1030.61955 -206.3914608 2367 1.181011543e-38
-1014.506246 -205.6067024 2358 1.181011543e-38
-995.0854824 -204.124381 2341 1.181011543e-38
-979.1997284 -203.3396226 2332 1.181011543e-38
-963.4070629 -202.5548642 2323 1.181011543e-38
-951.3934702 -202.5548642 2323 1.181011543e-38
-939.3798774 -202.5548642 2323 1.181011543e-38
-923.773389 -201.7701058 2314 1.181011543e-38
-908.6540282 -201.0725427 2306 1.181011543e-38
-896.7283523 -201.0725427 2306 1.181011543e-38
-884.8026765 -201.0725427 2306 1.181011543e-38
-869.4702821 -200.2877843 2297 1.181011543e-38
-854.604329 -199.5902213 2289 1.181011543e-38
-839.4529401 -198.8054629 2280 1.181011543e-38
-824.7576492 -198.1078999 2272 1.181011543e-38
-813.0078073 -198.1078999 2272 1.181011543e-38
-798.4366345 -197.4103368 2264 1.181011543e-38
-786.7281653 -197.4103368 2264 1.181011543e-38
-772.2811106 -196.7127738 2256 1.181011543e-38
-760.614014 -196.7127738 2256 1.181011543e-38
-745.9590973 -195.9280154 2247 1.181011543e-38
-737.2798209 -196.7127738 2256 1.181011543e-38
-725.6127244 -196.7127738 2256 1.181011543e-38
-713.9456278 -196.7127738 2256 1.181011543e-38
-702.2785313 -196.7127738 2256 1.181011543e-38
-690.6114347 -196.7127738 2256 1.181011543e-38
-681.3519422 -197.4103368 2264 1.181011543e-38
-669.6434729 -197.4103368 2264 1.181011543e-38
-657.9350037 -197.4103368 2264 1.181011543e-38
-648.5100205 -198.1078999 2272 1.181011543e-38
-636.7601785 -198.1078999 2272 1.181011543e-38
-625.0103366 -198.1078999 2272 1.181011543e-38
-613.2604947 -198.1078999 2272 1.181011543e-38
-601.5106528 -198.1078999 2272 1.181011543e-38
-589.7608109 -198.1078999 2272 1.181011543e-38
-578.0109689 -198.1078999 2272 1.181011543e-38
-570.4981161 -199.5902213 2289 1.181011543e-38
-560.6128617 -200.2877843 2297 1.181011543e-38
-550.8837535 -201.0725427 2306 1.181011543e-38
-540.8278369 -201.7701058 2314 1.181011543e-38
-530.9177231 -202.5548642 2323 1.181011543e-38
-520.9145209 -203.3396226 2332 1.181011543e-38
-510.8182301 -204.124381 2341 1.181011543e-38
-502.3331192 -205.6067024 2358 1.181011543e-38
-492.0092786 -206.3914608 2367 1.181011543e-38
-481.5923496 -207.1762192 2376 1.181011543e-38
-471.2798507 -208.048173 2386 1.181011543e-38
-462.4026979 -209.6176898 2404 1.181011543e-38
-451.6547874 -210.4024482 2413 1.181011543e-38
-439.1757519 -210.4024482 2413 1.181011543e-38
-428.465041 -211.274402 2423 1.181011543e-38
-417.4792375 -212.0591604 2432 1.181011543e-38
-406.5668348 -212.9311142 2442 1.181011543e-38
-395.5510004 -213.803068 2452 1.181011543e-38
-385.8370493 -215.4597802 2471 1.181011543e-38
-373.0580619 -215.4597802 2471 1.181011543e-38
-358.821045 -214.5878264 2461 1.181011543e-38
-344.8280913 -213.803068 2452 1.181011543e-38
-333.3665019 -214.5878264 2461 1.181011543e-38
-319.4666367 -213.803068 2452 1.181011543e-38
-306.7859094 -213.803068 2452 1.181011543e-38
-294.1051821 -213.803068 2452 1.181011543e-38
-1067.582972 -196.4469845 2395 1.181011543e-38
-1051.231775 -195.7087704 2386 1.181011543e-38
-1030.61955 -194.1503183 2367 1.181011543e-38
-1010.634085 -192.67389 2349 1.181011543e-38
-991.2598655 -191.2794855 2332 1.181011543e-38
-979.1997284 -191.2794855 2332 1.181011543e-38
-963.4070629 -190.5412714 2323 1.181011543e-38
-947.707486 -189.8030573 2314 1.181011543e-38
-935.7404375 -189.8030573 2314 1.181011543e-38
-923.773389 -189.8030573 2314 1.181011543e-38
-908.6540282 -189.1468669 2306 1.181011543e-38
-896.7283523 -189.1468669 2306 1.181011543e-38
-881.3494137 -188.4086528 2297 1.181011543e-38
-869.4702821 -188.4086528 2297 1.181011543e-38
-851.2441547 -187.0142483 2280 1.181011543e-38
-839.4529401 -187.0142483 2280 1.181011543e-38
-824.7576492 -186.358058 2272 1.181011543e-38
-810.1451038 -185.7018676 2264 1.181011543e-38
-795.6153037 -185.0456773 2256 1.181011543e-38
-783.9482071 -185.0456773 2256 1.181011543e-38
-769.2002019 -184.3074631 2247 1.181011543e-38
-757.5796496 -184.3074631 2247 1.181011543e-38
-745.9590973 -184.3074631 2247 1.181011543e-38
-734.338545 -184.3074631 2247 1.181011543e-38
-722.7179927 -184.3074631 2247 1.181011543e-38
-711.0974405 -184.3074631 2247 1.181011543e-38
-702.2785313 -185.0456773 2256 1.181011543e-38
-690.6114347 -185.0456773 2256 1.181011543e-38
-678.9443381 -185.0456773 2256 1.181011543e-38
-669.6434729 -185.7018676 2264 1.181011543e-38
-657.9350037 -185.7018676 2264 1.181011543e-38
-646.2265345 -185.7018676 2264 1.181011543e-38
-634.5180652 -185.7018676 2264 1.181011543e-38
-622.809596 -185.7018676 2264 1.181011543e-38
-611.1011268 -185.7018676 2264 1.181011543e-38
-601.5106528 -186.358058 2272 1.181011543e-38
-589.7608109 -186.358058 2272 1.181011543e-38
-578.0109689 -186.358058 2272 1.181011543e-38
-570.4981161 -187.7524624 2289 1.181011543e-38
-558.6603572 -187.7524624 2289 1.181011543e-38
-548.7337302 -188.4086528 2297 1.181011543e-38
-540.8278369 -189.8030573 2314 1.181011543e-38
-530.9177231 -190.5412714 2323 1.181011543e-38
-520.9145209 -191.2794855 2332 1.181011543e-38
-510.8182301 -192.0176997 2341 1.181011543e-38
-500.4158172 -192.67389 2349 1.181011543e-38
-488.2677632 -192.67389 2349 1.181011543e-38
-477.9439227 -193.4121042 2358 1.181011543e-38
-467.5269936 -194.1503183 2367 1.181011543e-38
-458.9404481 -195.7087704 2386 1.181011543e-38
-448.2856261 -196.4469845 2395 1.181011543e-38
-437.5377155 -197.1851986 2404 1.181011543e-38
-426.6967165 -197.9234128 2413 1.181011543e-38
-415.9342897 -198.7436507 2423 1.181011543e-38
-403.4035384 -198.7436507 2423 1.181011543e-38
-392.3246464 -199.4818648 2432 1.181011543e-38
-382.8702731 -201.1223407 2452 1.181011543e-38
-370.1895458 -201.1223407 2452 1.181011543e-38
-356.0507891 -200.3021028 2442 1.181011543e-38
-343.4217777 -200.3021028 2442 1.181011543e-38
-332.147364 -201.1223407 2452 1.181011543e-38
-319.4666367 -201.1223407 2452 1.181011543e-38
-306.7859094 -201.1223407 2452 1.181011543e-38
-294.1051821 -201.1223407 2452 1.181011543e-38
-1067.582972 -184.0610376 2395 1.181011543e-38
-1051.231775 -183.3693677 2386 1.181011543e-38
-1026.700844 -181.2175059 2358 1.181011543e-38
-1007.192164 -179.9110184 2341 1.181011543e-38
-991.2598655 -179.2193485 2332 1.181011543e-38
-975.4206557 -178.5276786 2323 1.181011543e-38
-959.6745345 -177.8360088 2314 1.181011543e-38
-947.707486 -177.8360088 2314 1.181011543e-38
-935.7404375 -177.8360088 2314 1.181011543e-38
-920.579704 -177.2211911 2306 1.181011543e-38
-908.6540282 -177.2211911 2306 1.181011543e-38
-893.2285452 -176.5295212 2297 1.181011543e-38
-881.3494137 -176.5295212 2297 1.181011543e-38
-866.4420878 -175.9147036 2289 1.181011543e-38
-851.2441547 -175.2230337 2280 1.181011543e-38
-836.5074912 -174.608216 2272 1.181011543e-38
-821.853573 -173.9933984 2264 1.181011543e-38
-810.1451038 -173.9933984 2264 1.181011543e-38
-792.4413065 -172.6869108 2247 1.181011543e-38
-780.8207542 -172.6869108 2247 1.181011543e-38
-769.2002019 -172.6869108 2247 1.181011543e-38
-757.5796496 -172.6869108 2247 1.181011543e-38
-743.3032572 -172.0720932 2239 1.181011543e-38
-731.7240776 -172.0720932 2239 1.181011543e-38
-720.144898 -172.0720932 2239 1.181011543e-38
-708.5657184 -172.0720932 2239 1.181011543e-38
-699.4768882 -172.6869108 2247 1.181011543e-38
-687.8563359 -172.6869108 2247 1.181011543e-38
-676.2357836 -172.6869108 2247 1.181011543e-38
-667.2772416 -173.3785807 2256 1.181011543e-38
-655.610145 -173.3785807 2256 1.181011543e-38
-643.9430485 -173.3785807 2256 1.181011543e-38
-632.2759519 -173.3785807 2256 1.181011543e-38
-620.6088554 -173.3785807 2256 1.181011543e-38
-611.1011268 -173.9933984 2264 1.181011543e-38
-599.3926575 -173.9933984 2264 1.181011543e-38
-587.6841883 -173.9933984 2264 1.181011543e-38
-575.9757191 -173.9933984 2264 1.181011543e-38
-568.2550042 -175.2230337 2280 1.181011543e-38
-558.6603572 -175.9147036 2289 1.181011543e-38
-548.7337302 -176.5295212 2297 1.181011543e-38
-538.9580777 -177.2211911 2306 1.181011543e-38
-528.8607883 -177.8360088 2314 1.181011543e-38
-518.9041304 -178.5276786 2323 1.181011543e-38
-508.8543838 -179.2193485 2332 1.181011543e-38
-498.7115488 -179.9110184 2341 1.181011543e-38
-486.6048675 -179.9110184 2341 1.181011543e-38
-476.1197092 -180.525836 2349 1.181011543e-38
-465.7493244 -181.2175059 2358 1.181011543e-38
-455.2858511 -181.9091758 2367 1.181011543e-38
-444.7292892 -182.6008456 2376 1.181011543e-38
-434.2616428 -183.3693677 2386 1.181011543e-38
-421.9222401 -183.3693677 2386 1.181011543e-38
-411.1277853 -184.0610376 2395 1.181011543e-38
-400.240242 -184.7527075 2404 1.181011543e-38
-389.2596101 -185.4443773 2413 1.181011543e-38
-379.7473508 -186.9045693 2432 1.181011543e-38
-367.1700552 -186.9045693 2432 1.181011543e-38
-354.5927597 -186.9045693 2432 1.181011543e-38
-342.0154641 -186.9045693 2432 1.181011543e-38
-330.7927663 -187.6730914 2442 1.181011543e-38
-319.4666367 -188.4416134 2452 1.181011543e-38
-306.7859094 -188.4416134 2452 1.181011543e-38
-294.1051821 -188.4416134 2452 1.181011543e-38
-1067.582972 -171.6750907 2395 1.181011543e-38
-1051.231775 -171.0299651 2386 1.181011543e-38
-1026.700844 -169.0229076 2358 1.181011543e-38
-1007.192164 -167.8043371 2341 1.181011543e-38
-991.2598655 -167.1592115 2332 1.181011543e-38
-975.4206557 -166.5140859 2323 1.181011543e-38
-959.6745345 -165.8689603 2314 1.181011543e-38
-947.707486 -165.8689603 2314 1.181011543e-38
-935.7404375 -165.8689603 2314 1.181011543e-38
-920.579704 -165.2955153 2306 1.181011543e-38
-905.1076768 -164.6503897 2297 1.181011543e-38
-893.2285452 -164.6503897 2297 1.181011543e-38
-878.2798467 -164.0769447 2289 1.181011543e-38
-866.4420878 -164.0769447 2289 1.181011543e-38
-848.2573331 -162.8583741 2272 1.181011543e-38
-833.5620423 -162.2849291 2264 1.181011543e-38
-821.853573 -162.2849291 2264 1.181011543e-38
-807.2824002 -161.7114842 2256 1.181011543e-38
-792.4413065 -161.0663586 2247 1.181011543e-38
-778.040796 -160.4929136 2239 1.181011543e-38
-766.4616164 -160.4929136 2239 1.181011543e-38
-754.8824368 -160.4929136 2239 1.181011543e-38
-740.6474171 -159.9194686 2231 1.181011543e-38
-731.7240776 -160.4929136 2239 1.181011543e-38
-720.144898 -160.4929136 2239 1.181011543e-38
-708.5657184 -160.4929136 2239 1.181011543e-38
-699.4768882 -161.0663586 2247 1.181011543e-38
-687.8563359 -161.0663586 2247 1.181011543e-38
-676.2357836 -161.0663586 2247 1.181011543e-38
-664.6152313 -161.0663586 2247 1.181011543e-38
-652.994679 -161.0663586 2247 1.181011543e-38
-643.9430485 -161.7114842 2256 1.181011543e-38
-632.2759519 -161.7114842 2256 1.181011543e-38
-620.6088554 -161.7114842 2256 1.181011543e-38
-608.9417588 -161.7114842 2256 1.181011543e-38
-597.2746623 -161.7114842 2256 1.181011543e-38
-585.6075657 -161.7114842 2256 1.181011543e-38
-573.9404692 -161.7114842 2256 1.181011543e-38
-566.261127 -162.8583741 2272 1.181011543e-38
-556.4637896 -163.4318191 2280 1.181011543e-38
-546.8225984 -164.0769447 2289 1.181011543e-38
-538.9580777 -165.2955153 2306 1.181011543e-38
-528.8607883 -165.8689603 2314 1.181011543e-38
-516.8937398 -165.8689603 2314 1.181011543e-38
-506.8905376 -166.5140859 2323 1.181011543e-38
-494.8769448 -166.5140859 2323 1.181011543e-38
-484.7341098 -167.1592115 2332 1.181011543e-38
-472.6739727 -167.1592115 2332 1.181011543e-38
-462.3915049 -167.8043371 2341 1.181011543e-38
-450.2848235 -167.8043371 2341 1.181011543e-38
-439.6755473 -168.377782 2349 1.181011543e-38
-427.5274933 -168.377782 2349 1.181011543e-38
-415.3794393 -168.377782 2349 1.181011543e-38
-404.7763331 -169.0229076 2358 1.181011543e-38
-394.0801384 -169.6680332 2367 1.181011543e-38
-383.2908552 -170.3131588 2376 1.181011543e-38
-375.3752596 -172.3202163 2404 1.181011543e-38
-362.9427684 -172.3202163 2404 1.181011543e-38
-351.8225037 -172.9653419 2413 1.181011543e-38
-340.7497819 -173.6821481 2423 1.181011543e-38
-330.7927663 -175.0440799 2442 1.181011543e-38
-318.1637548 -175.0440799 2442 1.181011543e-38
-306.7859094 -175.7608861 2452 1.181011543e-38
-294.1051821 -175.7608861 2452 1.181011543e-38
-1071.594766 -159.8877251 2404 1.181011543e-38
-1055.197025 -159.2891438 2395 1.181011543e-38
-1026.700844 -156.8283094 2358 1.181011543e-38
-1007.192164 -155.6976557 2341 1.181011543e-38
-991.2598655 -155.0990744 2332 1.181011543e-38
-975.4206557 -154.5004931 2323 1.181011543e-38
-959.6745345 -153.9019117 2314 1.181011543e-38
-947.707486 -153.9019117 2314 1.181011543e-38
-932.5053798 -153.3698395 2306 1.181011543e-38
-920.579704 -153.3698395 2306 1.181011543e-38
-905.1076768 -152.7712581 2297 1.181011543e-38
-890.1176056 -152.2391858 2289 1.181011543e-38
-874.8265839 -151.6406045 2280 1.181011543e-38
-860.007175 -151.1085322 2272 1.181011543e-38
-845.2705115 -150.5764599 2264 1.181011543e-38
-830.6165933 -150.0443876 2256 1.181011543e-38
-815.682411 -149.4458063 2247 1.181011543e-38
-801.1991552 -148.913734 2239 1.181011543e-38
-786.7986447 -148.3816617 2231 1.181011543e-38
-775.2608378 -148.3816617 2231 1.181011543e-38
-760.9844454 -147.8495894 2223 1.181011543e-38
-749.4880112 -147.8495894 2223 1.181011543e-38
-737.9915769 -147.8495894 2223 1.181011543e-38
-726.4951427 -147.8495894 2223 1.181011543e-38
-717.5718032 -148.3816617 2231 1.181011543e-38
-706.0339963 -148.3816617 2231 1.181011543e-38
-694.4961894 -148.3816617 2231 1.181011543e-38
-682.9583825 -148.3816617 2231 1.181011543e-38
-673.8281796 -148.913734 2239 1.181011543e-38
-662.249 -148.913734 2239 1.181011543e-38
-650.6698204 -148.913734 2239 1.181011543e-38
-641.3741267 -149.4458063 2247 1.181011543e-38
-627.5114612 -148.913734 2239 1.181011543e-38
-615.9322816 -148.913734 2239 1.181011543e-38
-606.5124699 -149.4458063 2247 1.181011543e-38
-594.8919176 -149.4458063 2247 1.181011543e-38
-583.2713653 -149.4458063 2247 1.181011543e-38
-571.650813 -149.4458063 2247 1.181011543e-38
-564.2672498 -150.5764599 2264 1.181011543e-38
-554.5112851 -151.1085322 2272 1.181011543e-38
-542.7614432 -151.1085322 2272 1.181011543e-38
-532.8813604 -151.6406045 2280 1.181011543e-38
-527.0324019 -153.3698395 2306 1.181011543e-38
-516.8937398 -153.9019117 2314 1.181011543e-38
-504.9266913 -153.9019117 2314 1.181011543e-38
-494.8769448 -154.5004931 2323 1.181011543e-38
-482.863352 -154.5004931 2323 1.181011543e-38
-470.8497593 -154.5004931 2323 1.181011543e-38
-460.6138357 -155.0990744 2332 1.181011543e-38
-448.5536986 -155.0990744 2332 1.181011543e-38
-436.4935616 -155.0990744 2332 1.181011543e-38
-426.0714609 -155.6976557 2341 1.181011543e-38
-412.3732875 -155.0990744 2332 1.181011543e-38
-401.8580983 -155.6976557 2341 1.181011543e-38
-392.5817349 -156.8283094 2358 1.181011543e-38
-380.3871366 -156.8283094 2358 1.181011543e-38
-372.5646295 -158.6905624 2386 1.181011543e-38
-361.5839977 -159.2891438 2395 1.181011543e-38
-349.1980507 -159.2891438 2395 1.181011543e-38
-339.3434683 -160.4863064 2413 1.181011543e-38
-329.4381685 -161.7499781 2432 1.181011543e-38
-318.1637548 -162.4150685 2442 1.181011543e-38
-306.7859094 -163.0801589 2452 1.181011543e-38
-294.1051821 -163.0801589 2452 1.181011543e-38
-1071.594766 -147.4552339 2404 1.181011543e-38
-1055.197025 -146.9031968 2395 1.181011543e-38
-1030.61955 -145.1857482 2367 1.181011543e-38
-1007.192164 -143.5909744 2341 1.181011543e-38
-991.2598655 -143.0389374 2332 1.181011543e-38
-975.4206557 -142.4869003 2323 1.181011543e-38
-959.6745345 -141.9348632 2314 1.181011543e-38
-947.707486 -141.9348632 2314 1.181011543e-38
-932.5053798 -141.4441636 2306 1.181011543e-38
-920.579704 -141.4441636 2306 1.181011543e-38
-901.9553645 -140.401427 2289 1.181011543e-38
-886.6177985 -139.8493899 2280 1.181011543e-38
-874.8265839 -139.8493899 2280 1.181011543e-38
-860.007175 -139.3586903 2272 1.181011543e-38
-842.2836899 -138.377291 2256 1.181011543e-38
-830.6165933 -138.377291 2256 1.181011543e-38
-815.682411 -137.825254 2247 1.181011543e-38
-801.1991552 -137.3345544 2239 1.181011543e-38
-786.7986447 -136.8438548 2231 1.181011543e-38
-772.4808796 -136.3531551 2223 1.181011543e-38
-760.9844454 -136.3531551 2223 1.181011543e-38
-749.4880112 -136.3531551 2223 1.181011543e-38
-737.9915769 -136.3531551 2223 1.181011543e-38
-726.4951427 -136.3531551 2223 1.181011543e-38
-714.9987084 -136.3531551 2223 1.181011543e-38
-703.5022742 -136.3531551 2223 1.181011543e-38
-692.00584 -136.3531551 2223 1.181011543e-38
-682.9583825 -136.8438548 2231 1.181011543e-38
-671.4205755 -136.8438548 2231 1.181011543e-38
-659.8827686 -136.8438548 2231 1.181011543e-38
-650.6698204 -137.3345544 2239 1.181011543e-38
-639.0906408 -137.3345544 2239 1.181011543e-38
-627.5114612 -137.3345544 2239 1.181011543e-38
-615.9322816 -137.3345544 2239 1.181011543e-38
-604.353102 -137.3345544 2239 1.181011543e-38
-592.7739224 -137.3345544 2239 1.181011543e-38
-581.1947427 -137.3345544 2239 1.181011543e-38
-569.6155631 -137.3345544 2239 1.181011543e-38
-562.2733726 -138.377291 2256 1.181011543e-38
-552.5587806 -138.8679907 2264 1.181011543e-38
-542.7614432 -139.3586903 2272 1.181011543e-38
-531.0116013 -139.3586903 2272 1.181011543e-38
-524.9754671 -140.8921266 2297 1.181011543e-38
-515.1067261 -141.4441636 2306 1.181011543e-38
-504.9266913 -141.9348632 2314 1.181011543e-38
-492.9596428 -141.9348632 2314 1.181011543e-38
-480.9925943 -141.9348632 2314 1.181011543e-38
-470.8497593 -142.4869003 2323 1.181011543e-38
-460.6138357 -143.0389374 2332 1.181011543e-38
-448.5536986 -143.0389374 2332 1.181011543e-38
-436.4935616 -143.0389374 2332 1.181011543e-38
-426.0714609 -143.5909744 2341 1.181011543e-38
-413.9647796 -143.5909744 2341 1.181011543e-38
-403.2313853 -144.0816741 2349 1.181011543e-38
-392.5817349 -144.6337111 2358 1.181011543e-38
-381.8389959 -145.1857482 2367 1.181011543e-38
-369.5978534 -145.1857482 2367 1.181011543e-38
-360.2252269 -146.3511598 2386 1.181011543e-38
-349.1980507 -146.9031968 2395 1.181011543e-38
-338.0777861 -147.4552339 2404 1.181011543e-38
-329.4381685 -149.1726825 2432 1.181011543e-38
-318.1637548 -149.7860571 2442 1.181011543e-38
-305.5347434 -149.7860571 2442 1.181011543e-38
-294.1051821 -150.3994316 2452 1.181011543e-38
-1075.60656 -135.5282355 2413 1.181011543e-38
-1059.162275 -135.0227427 2404 1.181011543e-38
-1030.61955 -132.9446057 2367 1.181011543e-38
-1007.192164 -131.4842931 2341 1.181011543e-38
-991.2598655 -130.9788003 2332 1.181011543e-38
-975.4206557 -130.4733075 2323 1.181011543e-38
-959.6745345 -129.9678147 2314 1.181011543e-38
-947.707486 -129.9678147 2314 1.181011543e-38
-932.5053798 -129.5184878 2306 1.181011543e-38
-916.9868083 -129.012995 2297 1.181011543e-38
-901.9553645 -128.5636681 2289 1.181011543e-38
-886.6177985 -128.0581753 2280 1.181011543e-38
-871.7570169 -127.6088484 2272 1.181011543e-38
-856.9789807 -127.1595214 2264 1.181011543e-38
-842.2836899 -126.7101945 2256 1.181011543e-38
-827.3029633 -126.2047017 2247 1.181011543e-38
-812.7783348 -125.7553748 2239 1.181011543e-38
-798.3364517 -125.3060478 2231 1.181011543e-38
-783.9773139 -124.8567209 2223 1.181011543e-38
-769.7009214 -124.407394 2215 1.181011543e-38
-758.2458599 -124.407394 2215 1.181011543e-38
-746.7907983 -124.407394 2215 1.181011543e-38
-735.3357368 -124.407394 2215 1.181011543e-38
-723.8806752 -124.407394 2215 1.181011543e-38
-712.4256137 -124.407394 2215 1.181011543e-38
-700.9705521 -124.407394 2215 1.181011543e-38
-692.00584 -124.8567209 2223 1.181011543e-38
-680.5094057 -124.8567209 2223 1.181011543e-38
-671.4205755 -125.3060478 2231 1.181011543e-38
-659.8827686 -125.3060478 2231 1.181011543e-38
-648.3449617 -125.3060478 2231 1.181011543e-38
-636.8071548 -125.3060478 2231 1.181011543e-38
-625.2693479 -125.3060478 2231 1.181011543e-38
-613.7315409 -125.3060478 2231 1.181011543e-38
-602.193734 -125.3060478 2231 1.181011543e-38
-590.6559271 -125.3060478 2231 1.181011543e-38
-579.1181202 -125.3060478 2231 1.181011543e-38
-569.6155631 -125.7553748 2239 1.181011543e-38
-560.0302608 -126.2047017 2247 1.181011543e-38
-550.6062761 -126.7101945 2256 1.181011543e-38
-540.8503113 -127.1595214 2264 1.181011543e-38
-531.0116013 -127.6088484 2272 1.181011543e-38
-523.1470806 -128.5636681 2289 1.181011543e-38
-513.0963355 -129.012995 2297 1.181011543e-38
-503.1810502 -129.5184878 2306 1.181011543e-38
-492.9596428 -129.9678147 2314 1.181011543e-38
-480.9925943 -129.9678147 2314 1.181011543e-38
-469.0255458 -129.9678147 2314 1.181011543e-38
-458.8361665 -130.4733075 2323 1.181011543e-38
-448.5536986 -130.9788003 2332 1.181011543e-38
-438.1781422 -131.4842931 2341 1.181011543e-38
-426.0714609 -131.4842931 2341 1.181011543e-38
-415.3794393 -131.9336201 2349 1.181011543e-38
-404.7763331 -132.4391129 2358 1.181011543e-38
-394.0801384 -132.9446057 2367 1.181011543e-38
-383.2908552 -133.4500985 2376 1.181011543e-38
-371.0031684 -133.4500985 2376 1.181011543e-38
-361.5839977 -134.5172499 2395 1.181011543e-38
-350.5102772 -135.0227427 2404 1.181011543e-38
-339.3434683 -135.5282355 2413 1.181011543e-38
-329.4381685 -136.595387 2432 1.181011543e-38
-318.1637548 -137.1570456 2442 1.181011543e-38
-306.7859094 -137.7187043 2452 1.181011543e-38
-292.905732 -137.1570456 2442 1.181011543e-38
-1080.064109 -123.5591429 2423 1.181011543e-38
-1059.162275 -122.5902515 2404 1.181011543e-38
-1026.700844 -120.2445146 2358 1.181011543e-38
-1007.192164 -119.3776118 2341 1.181011543e-38
-991.2598655 -118.9186633 2332 1.181011543e-38
-975.4206557 -118.4597148 2323 1.181011543e-38
-959.6745345 -118.0007662 2314 1.181011543e-38
-944.4310556 -117.592812 2306 1.181011543e-38
-932.5053798 -117.592812 2306 1.181011543e-38
-916.9868083 -117.1338635 2297 1.181011543e-38
-898.4090131 -116.2669607 2280 1.181011543e-38
-886.6177985 -116.2669607 2280 1.181011543e-38
-871.7570169 -115.8590064 2272 1.181011543e-38
-856.9789807 -115.4510522 2264 1.181011543e-38
-838.9235156 -114.5841494 2247 1.181011543e-38
-824.3575144 -114.1761952 2239 1.181011543e-38
-809.8742586 -113.7682409 2231 1.181011543e-38
-798.3364517 -113.7682409 2231 1.181011543e-38
-781.155983 -112.9523324 2215 1.181011543e-38
-769.7009214 -112.9523324 2215 1.181011543e-38
-758.2458599 -112.9523324 2215 1.181011543e-38
-746.7907983 -112.9523324 2215 1.181011543e-38
-732.6798967 -112.5443782 2207 1.181011543e-38
-721.2662078 -112.5443782 2207 1.181011543e-38
-712.4256137 -112.9523324 2215 1.181011543e-38
-700.9705521 -112.9523324 2215 1.181011543e-38
-689.5154906 -112.9523324 2215 1.181011543e-38
-680.5094057 -113.3602867 2223 1.181011543e-38
-669.0129715 -113.3602867 2223 1.181011543e-38
-657.5165373 -113.3602867 2223 1.181011543e-38
-646.020103 -113.3602867 2223 1.181011543e-38
-634.5236688 -113.3602867 2223 1.181011543e-38
-623.0272345 -113.3602867 2223 1.181011543e-38
-611.5308003 -113.3602867 2223 1.181011543e-38
-602.193734 -113.7682409 2231 1.181011543e-38
-590.6559271 -113.7682409 2231 1.181011543e-38
-577.0414976 -113.3602867 2223 1.181011543e-38
-567.5803133 -113.7682409 2231 1.181011543e-38
-556.0425063 -113.7682409 2231 1.181011543e-38
-546.4572039 -114.1761952 2239 1.181011543e-38
-536.7891562 -114.5841494 2247 1.181011543e-38
-527.2720829 -115.0430979 2256 1.181011543e-38
-521.0901458 -116.2669607 2280 1.181011543e-38
-511.3093217 -116.7259092 2289 1.181011543e-38
-501.217204 -117.1338635 2297 1.181011543e-38
-491.2553744 -117.592812 2306 1.181011543e-38
-480.9925943 -118.0007662 2314 1.181011543e-38
-470.8497593 -118.4597148 2323 1.181011543e-38
-460.6138357 -118.9186633 2332 1.181011543e-38
-450.2848235 -119.3776118 2341 1.181011543e-38
-439.6755473 -119.7855661 2349 1.181011543e-38
-427.5274933 -119.7855661 2349 1.181011543e-38
-416.9709314 -120.2445146 2358 1.181011543e-38
-407.8662288 -121.1624117 2376 1.181011543e-38
-395.578542 -121.1624117 2376 1.181011543e-38
-384.9040322 -121.6723545 2386 1.181011543e-38
-373.9699446 -122.131303 2395 1.181011543e-38
-361.5839977 -122.131303 2395 1.181011543e-38
-350.5102772 -122.5902515 2404 1.181011543e-38
-339.3434683 -123.0492001 2413 1.181011543e-38
-329.4381685 -124.0180914 2432 1.181011543e-38
-318.1637548 -124.5280342 2442 1.181011543e-38
-306.7859094 -125.037977 2452 1.181011543e-38
-1080.064109 -111.0283916 2423 1.181011543e-38
-1059.162275 -110.1577603 2404 1.181011543e-38
-1026.700844 -108.0499163 2358 1.181011543e-38
-1007.192164 -107.2709305 2341 1.181011543e-38
-991.2598655 -106.8585263 2332 1.181011543e-38
-975.4206557 -106.446122 2323 1.181011543e-38
-959.6745345 -106.0337177 2314 1.181011543e-38
-944.4310556 -105.6671362 2306 1.181011543e-38
-928.8659399 -105.2547319 2297 1.181011543e-38
-916.9868083 -105.2547319 2297 1.181011543e-38
-898.4090131 -104.4757461 2280 1.181011543e-38
-883.5068588 -104.1091645 2272 1.181011543e-38
-868.68745 -103.742583 2264 1.181011543e-38
-853.9507865 -103.3760014 2256 1.181011543e-38
-835.936694 -102.5970156 2239 1.181011543e-38
-821.4120655 -102.230434 2231 1.181011543e-38
-806.9701823 -101.8638524 2223 1.181011543e-38
-792.6110446 -101.4972709 2215 1.181011543e-38
-778.3346521 -101.1306893 2207 1.181011543e-38
-766.9209633 -101.1306893 2207 1.181011543e-38
-755.5072744 -101.1306893 2207 1.181011543e-38
-744.0935855 -101.1306893 2207 1.181011543e-38
-732.6798967 -101.1306893 2207 1.181011543e-38
-721.2662078 -101.1306893 2207 1.181011543e-38
-709.8525189 -101.1306893 2207 1.181011543e-38
-698.43883 -101.1306893 2207 1.181011543e-38
-689.5154906 -101.4972709 2215 1.181011543e-38
-678.060429 -101.4972709 2215 1.181011543e-38
-666.6053675 -101.4972709 2215 1.181011543e-38
-657.5165373 -101.8638524 2223 1.181011543e-38
-646.020103 -101.8638524 2223 1.181011543e-38
-632.2401828 -101.4972709 2215 1.181011543e-38
-620.7851212 -101.4972709 2215 1.181011543e-38
-609.3300597 -101.4972709 2215 1.181011543e-38
-597.8749981 -101.4972709 2215 1.181011543e-38
-586.4199366 -101.4972709 2215 1.181011543e-38
-574.964875 -101.4972709 2215 1.181011543e-38
-563.5098135 -101.4972709 2215 1.181011543e-38
-556.0425063 -102.230434 2231 1.181011543e-38
-546.4572039 -102.5970156 2239 1.181011543e-38
-534.8780243 -102.5970156 2239 1.181011543e-38
-527.2720829 -103.3760014 2256 1.181011543e-38
-519.2617593 -104.1091645 2272 1.181011543e-38
-511.3093217 -104.8881503 2289 1.181011543e-38
-501.217204 -105.2547319 2297 1.181011543e-38
-491.2553744 -105.6671362 2306 1.181011543e-38
-479.3296986 -105.6671362 2306 1.181011543e-38
-470.8497593 -106.446122 2323 1.181011543e-38
-460.6138357 -106.8585263 2332 1.181011543e-38
-451.8236012 -107.6375121 2349 1.181011543e-38
-441.3601279 -108.0499163 2358 1.181011543e-38
-430.803566 -108.4623206 2367 1.181011543e-38
-420.1539156 -108.8747249 2376 1.181011543e-38
-411.1277853 -109.7453561 2395 1.181011543e-38
-400.240242 -110.1577603 2404 1.181011543e-38
-387.8077508 -110.1577603 2404 1.181011543e-38
-379.7473508 -111.4407958 2432 1.181011543e-38
-367.1700552 -111.4407958 2432 1.181011543e-38
-353.2805332 -111.0283916 2423 1.181011543e-38
-342.0154641 -111.4407958 2432 1.181011543e-38
-332.147364 -112.3572497 2452 1.181011543e-38
-320.6392304 -112.769654 2461 1.181011543e-38
-306.7859094 -112.3572497 2452 1.181011543e-38
-1080.064109 -98.49764025 2423 1.181011543e-38
-1059.162275 -97.72526916 2404 1.181011543e-38
-1026.700844 -95.85531808 2358 1.181011543e-38
-1007.192164 -95.16424921 2341 1.181011543e-38
-991.2598655 -94.79838921 2332 1.181011543e-38
-975.4206557 -94.43252922 2323 1.181011543e-38
-959.6745345 -94.06666923 2314 1.181011543e-38
-944.4310556 -93.74146035 2306 1.181011543e-38
-928.8659399 -93.37560035 2297 1.181011543e-38
-913.7931233 -93.05039147 2289 1.181011543e-38
-898.4090131 -92.68453148 2280 1.181011543e-38
-883.5068588 -92.3593226 2272 1.181011543e-38
-868.68745 -92.03411371 2264 1.181011543e-38
-850.5440679 -91.34304484 2247 1.181011543e-38
-832.9498724 -90.69262707 2231 1.181011543e-38
-818.4666166 -90.36741819 2223 1.181011543e-38
-806.9701823 -90.36741819 2223 1.181011543e-38
-792.6110446 -90.04220931 2215 1.181011543e-38
-778.3346521 -89.71700043 2207 1.181011543e-38
-764.4884999 -89.43244265 2200 1.181011543e-38
-753.1110121 -89.43244265 2200 1.181011543e-38
-741.7335243 -89.43244265 2200 1.181011543e-38
-730.3560365 -89.43244265 2200 1.181011543e-38
-718.9785488 -89.43244265 2200 1.181011543e-38
-709.8525189 -89.71700043 2207 1.181011543e-38
-698.43883 -89.71700043 2207 1.181011543e-38
-687.0251412 -89.71700043 2207 1.181011543e-38
-678.060429 -90.04220931 2215 1.181011543e-38
-666.6053675 -90.04220931 2215 1.181011543e-38
-655.1503059 -90.04220931 2215 1.181011543e-38
-643.6952444 -90.04220931 2215 1.181011543e-38
-632.2401828 -90.04220931 2215 1.181011543e-38
-620.7851212 -90.04220931 2215 1.181011543e-38
-609.3300597 -90.04220931 2215 1.181011543e-38
-595.7156302 -89.71700043 2207 1.181011543e-38
-584.3019413 -89.71700043 2207 1.181011543e-38
-574.964875 -90.04220931 2215 1.181011543e-38
-561.4745636 -89.71700043 2207 1.181011543e-38
-554.0486291 -90.36741819 2223 1.181011543e-38
-544.5046994 -90.69262707 2231 1.181011543e-38
-534.8780243 -91.01783596 2239 1.181011543e-38
-525.1686039 -91.34304484 2247 1.181011543e-38
-519.2617593 -92.3593226 2272 1.181011543e-38
-509.2989312 -92.68453148 2280 1.181011543e-38
-501.217204 -93.37560035 2297 1.181011543e-38
-491.2553744 -93.74146035 2306 1.181011543e-38
-479.3296986 -93.74146035 2306 1.181011543e-38
-470.8497593 -94.43252922 2323 1.181011543e-38
-460.6138357 -94.79838921 2332 1.181011543e-38
-451.8236012 -95.48945809 2349 1.181011543e-38
-441.3601279 -95.85531808 2358 1.181011543e-38
-430.803566 -96.22117807 2367 1.181011543e-38
-421.9222401 -96.99354917 2386 1.181011543e-38
-412.6727332 -97.72526916 2404 1.181011543e-38
-401.7386456 -98.09112915 2413 1.181011543e-38
-390.8727871 -98.49764025 2423 1.181011543e-38
-381.308812 -99.27001135 2442 1.181011543e-38
-367.1700552 -98.86350024 2432 1.181011543e-38
-354.5927597 -98.86350024 2432 1.181011543e-38
-342.0154641 -98.86350024 2432 1.181011543e-38
-332.147364 -99.67652245 2452 1.181011543e-38
-319.4666367 -99.67652245 2452 1.181011543e-38
-306.7859094 -99.67652245 2452 1.181011543e-38
-1080.064109 -85.96688894 2423 1.181011543e-38
-1055.197025 -84.97346225 2395 1.181011543e-38
-1022.782139 -83.3414041 2349 1.181011543e-38
-1007.192164 -83.0575679 2341 1.181011543e-38
-991.2598655 -82.73825217 2332 1.181011543e-38
-975.4206557 -82.41893645 2323 1.181011543e-38
-959.6745345 -82.09962072 2314 1.181011543e-38
-944.4310556 -81.81578453 2306 1.181011543e-38
-928.8659399 -81.4964688 2297 1.181011543e-38
-913.7931233 -81.2126326 2289 1.181011543e-38
-895.2567008 -80.60948068 2272 1.181011543e-38
-880.3959192 -80.32564448 2264 1.181011543e-38
-865.617883 -80.04180828 2256 1.181011543e-38
-850.5440679 -79.72249255 2247 1.181011543e-38
-832.9498724 -79.15482015 2231 1.181011543e-38
-818.4666166 -78.87098395 2223 1.181011543e-38
-804.0661061 -78.58714775 2215 1.181011543e-38
-789.748341 -78.30331156 2207 1.181011543e-38
-775.8659876 -78.05495488 2200 1.181011543e-38
-764.4884999 -78.05495488 2200 1.181011543e-38
-753.1110121 -78.05495488 2200 1.181011543e-38
-741.7335243 -78.05495488 2200 1.181011543e-38
-730.3560365 -78.05495488 2200 1.181011543e-38
-718.9785488 -78.05495488 2200 1.181011543e-38
-709.8525189 -78.30331156 2207 1.181011543e-38
-698.43883 -78.30331156 2207 1.181011543e-38
-687.0251412 -78.30331156 2207 1.181011543e-38
-678.060429 -78.58714775 2215 1.181011543e-38
-666.6053675 -78.58714775 2215 1.181011543e-38
-655.1503059 -78.58714775 2215 1.181011543e-38
-643.6952444 -78.58714775 2215 1.181011543e-38
-632.2401828 -78.58714775 2215 1.181011543e-38
-620.7851212 -78.58714775 2215 1.181011543e-38
-607.1293191 -78.30331156 2207 1.181011543e-38
-595.7156302 -78.30331156 2207 1.181011543e-38
-584.3019413 -78.30331156 2207 1.181011543e-38
-572.8882525 -78.30331156 2207 1.181011543e-38
-561.4745636 -78.30331156 2207 1.181011543e-38
-552.0547519 -78.58714775 2215 1.181011543e-38
-542.5521949 -78.87098395 2223 1.181011543e-38
-532.9668925 -79.15482015 2231 1.181011543e-38
-523.2988447 -79.43865635 2239 1.181011543e-38
-517.4333729 -80.32564448 2264 1.181011543e-38
-509.2989312 -80.89331688 2280 1.181011543e-38
-499.4715629 -81.2126326 2289 1.181011543e-38
-491.2553744 -81.81578453 2306 1.181011543e-38
-479.3296986 -81.81578453 2306 1.181011543e-38
-469.0255458 -82.09962072 2314 1.181011543e-38
-458.8361665 -82.41893645 2323 1.181011543e-38
-451.8236012 -83.3414041 2349 1.181011543e-38
-441.3601279 -83.66071982 2358 1.181011543e-38
-430.803566 -83.98003555 2367 1.181011543e-38
-421.9222401 -84.65414652 2386 1.181011543e-38
-414.217681 -85.61209369 2413 1.181011543e-38
-401.7386456 -85.61209369 2413 1.181011543e-38
-390.8727871 -85.96688894 2423 1.181011543e-38
-381.308812 -86.64099992 2442 1.181011543e-38
-367.1700552 -86.28620467 2432 1.181011543e-38
-354.5927597 -86.28620467 2432 1.181011543e-38
-342.0154641 -86.28620467 2432 1.181011543e-38
-330.7927663 -86.64099992 2442 1.181011543e-38
-319.4666367 -86.99579517 2452 1.181011543e-38
-305.5347434 -86.64099992 2442 1.181011543e-38
-1075.60656 -73.13305824 2413 1.181011543e-38
-1055.197025 -72.58751533 2395 1.181011543e-38
-1022.782139 -71.19335011 2349 1.181011543e-38
-1003.320002 -70.67811513 2332 1.181011543e-38
-987.4342485 -70.40534368 2323 1.181011543e-38
-971.641583 -70.13257222 2314 1.181011543e-38
-956.3567314 -69.8901087 2306 1.181011543e-38
-944.4310556 -69.8901087 2306 1.181011543e-38
-928.8659399 -69.61733725 2297 1.181011543e-38
-913.7931233 -69.37487373 2289 1.181011543e-38
-895.2567008 -68.85963876 2272 1.181011543e-38
-880.3959192 -68.61717524 2264 1.181011543e-38
-862.1646202 -68.10194027 2247 1.181011543e-38
-847.5158736 -67.85947675 2239 1.181011543e-38
-829.9630508 -67.37454972 2223 1.181011543e-38
-818.4666166 -67.37454972 2223 1.181011543e-38
-804.0661061 -67.1320862 2215 1.181011543e-38
-789.748341 -66.88962268 2207 1.181011543e-38
-775.8659876 -66.67746711 2200 1.181011543e-38
-764.4884999 -66.67746711 2200 1.181011543e-38
-753.1110121 -66.67746711 2200 1.181011543e-38
-741.7335243 -66.67746711 2200 1.181011543e-38
-730.3560365 -66.67746711 2200 1.181011543e-38
-718.9785488 -66.67746711 2200 1.181011543e-38
-709.8525189 -66.88962268 2207 1.181011543e-38
-698.43883 -66.88962268 2207 1.181011543e-38
-687.0251412 -66.88962268 2207 1.181011543e-38
-678.060429 -67.1320862 2215 1.181011543e-38
-666.6053675 -67.1320862 2215 1.181011543e-38
-655.1503059 -67.1320862 2215 1.181011543e-38
-641.3703857 -66.88962268 2207 1.181011543e-38
-629.9566968 -66.88962268 2207 1.181011543e-38
-618.5430079 -66.88962268 2207 1.181011543e-38
-607.1293191 -66.88962268 2207 1.181011543e-38
-595.7156302 -66.88962268 2207 1.181011543e-38
-582.4486955 -66.67746711 2200 1.181011543e-38
-571.0712077 -66.67746711 2200 1.181011543e-38
-559.6937199 -66.67746711 2200 1.181011543e-38
-550.0608747 -66.88962268 2207 1.181011543e-38
-540.5996904 -67.1320862 2215 1.181011543e-38
-532.9668925 -67.61701323 2231 1.181011543e-38
-521.4290856 -67.61701323 2231 1.181011543e-38
-515.6049864 -68.37471172 2256 1.181011543e-38
-507.5119174 -68.85963876 2272 1.181011543e-38
-497.5077166 -69.10210227 2280 1.181011543e-38
-489.3380724 -69.61733725 2297 1.181011543e-38
-479.3296986 -69.8901087 2306 1.181011543e-38
-469.0255458 -70.13257222 2314 1.181011543e-38
-458.8361665 -70.40534368 2323 1.181011543e-38
-451.8236012 -71.19335011 2349 1.181011543e-38
-441.3601279 -71.46612156 2358 1.181011543e-38
-430.803566 -71.73889302 2367 1.181011543e-38
-421.9222401 -72.31474387 2386 1.181011543e-38
-412.6727332 -72.86028678 2404 1.181011543e-38
-401.7386456 -73.13305824 2413 1.181011543e-38
-389.2596101 -73.13305824 2413 1.181011543e-38
-378.3420358 -73.43613764 2423 1.181011543e-38
-365.8112845 -73.43613764 2423 1.181011543e-38
-351.8225037 -73.13305824 2413 1.181011543e-38
-339.3434683 -73.13305824 2413 1.181011543e-38
-329.4381685 -73.70890909 2432 1.181011543e-38
-316.8608729 -73.70890909 2432 1.181011543e-38
-304.2835774 -73.70890909 2432 1.181011543e-38
-1067.582972 -60.20156841 2395 1.181011543e-38
-1042.860692 -59.49775049 2367 1.181011543e-38
-1015.38014 -58.61797809 2332 1.181011543e-38
-999.4478413 -58.3917509 2323 1.181011543e-38
-983.6086315 -58.16552372 2314 1.181011543e-38
-968.2824073 -57.96443288 2306 1.181011543e-38
-952.624203 -57.73820569 2297 1.181011543e-38
-940.7450714 -57.73820569 2297 1.181011543e-38
-925.6308822 -57.53711486 2289 1.181011543e-38
-910.2002277 -57.31088767 2280 1.181011543e-38
-892.1043884 -56.908706 2264 1.181011543e-38
-873.7851725 -56.48138798 2247 1.181011543e-38
-859.0950532 -56.28029715 2239 1.181011543e-38
-844.4876793 -56.07920631 2231 1.181011543e-38
-826.9762292 -55.67702465 2215 1.181011543e-38
-812.5757188 -55.47593381 2207 1.181011543e-38
-801.1620299 -55.47593381 2207 1.181011543e-38
-787.2434754 -55.29997933 2200 1.181011543e-38
-775.8659876 -55.29997933 2200 1.181011543e-38
-764.4884999 -55.29997933 2200 1.181011543e-38
-753.1110121 -55.29997933 2200 1.181011543e-38
-741.7335243 -55.29997933 2200 1.181011543e-38
-730.3560365 -55.29997933 2200 1.181011543e-38
-718.9785488 -55.29997933 2200 1.181011543e-38
-709.8525189 -55.47593381 2207 1.181011543e-38
-698.43883 -55.47593381 2207 1.181011543e-38
-687.0251412 -55.47593381 2207 1.181011543e-38
-675.6114523 -55.47593381 2207 1.181011543e-38
-664.1977634 -55.47593381 2207 1.181011543e-38
-652.7840746 -55.47593381 2207 1.181011543e-38
-641.3703857 -55.47593381 2207 1.181011543e-38
-629.9566968 -55.47593381 2207 1.181011543e-38
-618.5430079 -55.47593381 2207 1.181011543e-38
-605.203671 -55.29997933 2200 1.181011543e-38
-593.8261832 -55.29997933 2200 1.181011543e-38
-582.4486955 -55.29997933 2200 1.181011543e-38
-571.0712077 -55.29997933 2200 1.181011543e-38
-559.6937199 -55.29997933 2200 1.181011543e-38
-550.0608747 -55.47593381 2207 1.181011543e-38
-540.5996904 -55.67702465 2215 1.181011543e-38
-531.0557607 -55.87811548 2223 1.181011543e-38
-521.4290856 -56.07920631 2231 1.181011543e-38
-513.5480516 -56.48138798 2247 1.181011543e-38
-505.7249036 -56.908706 2264 1.181011543e-38
-497.5077166 -57.31088767 2280 1.181011543e-38
-487.633804 -57.53711486 2289 1.181011543e-38
-477.4589409 -57.73820569 2297 1.181011543e-38
-467.4040228 -57.96443288 2306 1.181011543e-38
-457.0584973 -58.16552372 2314 1.181011543e-38
-450.2848235 -58.84420528 2341 1.181011543e-38
-439.6755473 -59.04529612 2349 1.181011543e-38
-429.1655296 -59.2715233 2358 1.181011543e-38
-418.5624235 -59.49775049 2367 1.181011543e-38
-409.5828375 -59.97534122 2386 1.181011543e-38
-398.7418384 -60.20156841 2395 1.181011543e-38
-386.3558915 -60.20156841 2395 1.181011543e-38
-376.7805746 -60.65402279 2413 1.181011543e-38
-362.9427684 -60.4277956 2404 1.181011543e-38
-350.5102772 -60.4277956 2404 1.181011543e-38
-338.0777861 -60.4277956 2404 1.181011543e-38
-328.2190306 -60.90538633 2423 1.181011543e-38
-315.6882793 -60.90538633 2423 1.181011543e-38
-303.1575279 -60.90538633 2423 1.181011543e-38
-1063.571178 -47.63593857 2386 1.181011543e-38
-1038.895443 -47.07692504 2358 1.181011543e-38
-1022.782139 -46.89724212 2349 1.181011543e-38
-995.57568 -46.19847521 2314 1.181011543e-38
-980.2080831 -46.03875706 2306 1.181011543e-38
-968.2824073 -46.03875706 2306 1.181011543e-38
-952.624203 -45.85907414 2297 1.181011543e-38
-937.4686411 -45.69935599 2289 1.181011543e-38
-921.9914423 -45.51967307 2280 1.181011543e-38
-907.0065427 -45.35995492 2272 1.181011543e-38
-888.9520761 -45.04051862 2256 1.181011543e-38
-873.7851725 -44.8608357 2247 1.181011543e-38
-859.0950532 -44.70111755 2239 1.181011543e-38
-844.4876793 -44.54139939 2231 1.181011543e-38
-826.9762292 -44.22196309 2215 1.181011543e-38
-812.5757188 -44.06224494 2207 1.181011543e-38
-798.6209632 -43.92249156 2200 1.181011543e-38
-787.2434754 -43.92249156 2200 1.181011543e-38
-775.8659876 -43.92249156 2200 1.181011543e-38
-764.4884999 -43.92249156 2200 1.181011543e-38
-753.1110121 -43.92249156 2200 1.181011543e-38
-741.7335243 -43.92249156 2200 1.181011543e-38
-730.3560365 -43.92249156 2200 1.181011543e-38
-718.9785488 -43.92249156 2200 1.181011543e-38
-709.8525189 -44.06224494 2207 1.181011543e-38
-698.43883 -44.06224494 2207 1.181011543e-38
-687.0251412 -44.06224494 2207 1.181011543e-38
-675.6114523 -44.06224494 2207 1.181011543e-38
-664.1977634 -44.06224494 2207 1.181011543e-38
-652.7840746 -44.06224494 2207 1.181011543e-38
-641.3703857 -44.06224494 2207 1.181011543e-38
-629.9566968 -44.06224494 2207 1.181011543e-38
-618.5430079 -44.06224494 2207 1.181011543e-38
-605.203671 -43.92249156 2200 1.181011543e-38
-593.8261832 -43.92249156 2200 1.181011543e-38
-582.4486955 -43.92249156 2200 1.181011543e-38
-571.0712077 -43.92249156 2200 1.181011543e-38
-559.6937199 -43.92249156 2200 1.181011543e-38
-548.3162322 -43.92249156 2200 1.181011543e-38
-538.6471858 -44.06224494 2207 1.181011543e-38
-531.0557607 -44.38168124 2223 1.181011543e-38
-521.4290856 -44.54139939 2231 1.181011543e-38
-513.5480516 -44.8608357 2247 1.181011543e-38
-503.9378898 -45.04051862 2256 1.181011543e-38
-495.7620755 -45.35995492 2272 1.181011543e-38
-485.716502 -45.51967307 2280 1.181011543e-38
-477.4589409 -45.85907414 2297 1.181011543e-38
-467.4040228 -46.03875706 2306 1.181011543e-38
-457.0584973 -46.19847521 2314 1.181011543e-38
-446.8225737 -46.37815813 2323 1.181011543e-38
-436.4935616 -46.55784105 2332 1.181011543e-38
-426.0714609 -46.73752397 2341 1.181011543e-38
-416.9709314 -47.07692504 2358 1.181011543e-38
-406.321281 -47.25660796 2367 1.181011543e-38
-395.578542 -47.43629088 2376 1.181011543e-38
